# .PCD v0.7 - Point Cloud Data file format
VERSION 0.7
FIELDS x y z
SIZE 4 4 4
TYPE F F F
COUNT 1 1 1
WIDTH 1432
HEIGHT 1
VIEWPOINT 0 0 0 1 0 0 0
POINTS 1432
DATA ascii
109.641000 -51.682500 199.471000
108.110000 -49.497200 199.990000
108.404000 -50.731000 199.461000
109.196000 -51.803400 198.442000
107.552000 -49.618300 199.327000
107.780000 -50.656200 198.758000
107.949000 -51.707100 198.536000
107.172000 -50.675900 198.116000
107.160000 -51.721500 197.890000
97.503800 -51.629800 196.519000
95.650300 -47.943900 196.941000
96.340200 -49.134100 196.464000
96.240600 -51.481000 197.318000
95.480800 -46.747300 195.497000
94.769500 -47.694600 196.727000
94.461200 -48.706000 197.447000
94.409700 -46.656200 195.776000
93.637400 -47.733600 197.210000
92.915500 -48.612400 198.085000
93.845700 -46.567200 195.218000
92.620000 -47.623200 197.161000
91.740300 -48.622500 198.222000
92.486000 -46.694400 195.963000
91.438500 -47.785000 197.175000
90.553000 -48.690800 198.573000
90.329400 -46.864000 197.510000
90.411800 -47.787700 197.264000
89.922700 -48.815100 197.932000
87.465100 -50.537100 201.384000
87.417000 -52.438900 201.402000
88.669100 -46.918400 198.768000
89.683800 -47.845900 197.068000
88.897200 -49.038400 198.064000
88.063800 -50.261900 199.474000
87.561400 -51.536900 200.232000
88.151600 -52.594400 199.238000
88.514000 -47.962600 197.700000
88.575900 -49.144200 197.446000
88.032600 -50.391700 198.454000
88.073800 -51.653500 198.469000
72.932000 -40.360400 214.975000
72.881100 -39.660900 214.132000
73.115900 -40.315300 213.541000
79.143500 -47.768300 202.549000
72.689700 -39.665000 213.272000
73.614000 -40.261400 211.205000
79.167500 -47.588400 200.857000
72.416300 -39.653700 212.178000
73.263400 -40.360400 210.169000
79.782800 -46.628700 198.086000
79.136900 -47.585600 199.343000
79.472300 -48.796000 198.737000
79.408500 -49.779900 198.585000
71.837800 -39.789200 211.523000
72.897400 -40.575100 209.094000
78.457600 -46.496600 198.765000
78.455100 -47.718400 198.884000
78.957500 -48.927300 197.997000
78.546100 -49.796200 198.431000
72.479900 -40.745200 208.356000
72.857800 -41.645200 207.322000
78.670900 -45.493900 196.892000
77.450400 -46.298600 198.669000
77.786100 -47.419900 198.406000
78.042600 -48.784900 197.826000
77.820400 -49.763500 198.131000
71.735700 -40.848000 208.132000
71.843000 -41.779500 207.679000
72.663000 -42.934800 205.956000
75.499100 -45.151500 200.485000
75.770800 -46.251900 200.027000
77.031300 -47.543400 198.011000
77.189900 -48.776700 197.675000
77.096800 -49.717100 197.757000
71.306300 -40.932200 207.542000
71.421400 -41.923300 206.978000
71.809800 -43.037900 206.079000
73.098900 -44.524200 203.579000
74.960300 -46.071200 199.963000
75.928000 -47.442400 198.212000
76.410800 -48.734100 197.547000
75.890900 -49.674600 198.064000
70.621200 -40.972600 207.642000
70.973900 -43.113200 206.198000
71.302000 -44.072600 205.345000
74.207400 -46.046600 199.820000
74.875600 -47.357300 198.258000
75.086200 -48.666100 198.160000
74.543600 -49.667800 198.731000
71.019700 -43.365700 204.354000
71.364100 -44.188100 203.166000
74.236800 -46.464300 197.740000
74.172300 -47.468900 197.862000
74.151900 -48.633400 197.856000
73.416400 -49.632100 199.204000
71.308200 -43.527600 201.872000
71.506000 -44.450500 200.874000
73.605400 -46.475800 196.946000
73.635600 -47.514800 197.258000
73.486900 -48.619600 197.212000
73.096000 -49.626200 197.993000
71.148800 -43.632900 200.263000
71.029500 -44.645100 199.987000
72.006900 -46.000400 198.233000
72.652600 -47.526500 197.241000
72.590200 -48.752300 197.354000
72.414300 -49.667600 197.335000
69.692400 -43.687400 201.106000
69.803200 -44.711600 200.695000
71.177000 -45.935200 198.085000
71.630400 -47.350800 197.304000
71.875900 -48.696400 196.977000
71.518300 -49.667500 197.180000
67.952600 -43.556300 202.549000
68.798500 -44.619200 201.041000
70.167200 -45.913100 198.332000
70.735200 -47.200500 197.350000
70.831700 -48.620200 196.944000
70.895800 -49.701700 196.741000
66.206300 -43.330800 204.106000
67.660600 -44.510700 201.437000
68.938100 -45.899200 198.961000
69.906000 -47.322500 197.183000
69.714100 -48.618300 197.033000
70.073700 -49.641400 196.651000
66.533000 -42.340800 201.948000
65.743700 -43.199200 203.586000
66.596700 -44.346900 201.711000
67.887000 -45.845100 199.118000
68.838000 -47.405500 197.312000
69.232300 -48.662900 196.321000
68.953500 -49.563800 196.865000
66.900900 -38.549900 198.392000
66.826000 -42.325600 200.059000
65.878100 -43.279100 201.897000
66.125100 -44.397100 201.040000
66.862000 -45.689300 199.197000
67.847500 -47.269500 197.333000
68.179100 -48.592300 196.895000
67.822200 -49.516500 197.196000
67.059200 -37.624400 196.726000
67.532000 -38.456200 195.893000
67.113800 -43.569100 196.413000
66.106100 -44.468200 199.278000
66.164700 -45.624300 198.727000
66.635300 -47.095900 197.723000
67.103400 -48.496600 197.223000
66.716400 -49.413000 197.816000
66.479700 -36.690500 196.495000
65.926300 -37.453100 197.610000
67.204100 -38.385200 195.290000
66.915400 -43.552400 195.169000
65.942800 -44.495800 197.509000
65.799500 -45.797800 197.638000
65.535900 -47.070900 198.059000
66.104200 -48.298100 197.495000
65.334900 -36.490700 197.320000
64.766700 -37.176900 198.076000
66.721900 -38.269900 194.968000
66.226200 -43.610600 195.016000
65.332000 -44.651900 196.994000
64.941900 -45.825100 197.600000
64.499500 -46.891000 198.647000
64.658100 -48.001200 198.830000
64.323200 -36.380200 197.552000
63.683100 -37.129500 198.474000
65.628700 -43.646400 194.662000
64.523700 -44.646100 196.772000
64.209100 -45.696200 197.506000
63.680500 -29.181900 196.249000
62.966200 -36.357800 198.352000
62.690000 -37.078100 198.833000
63.017100 -44.670700 197.650000
63.735500 -45.485800 196.528000
62.702300 -29.191300 196.924000
62.954400 -29.991200 196.404000
62.307000 -36.342100 197.878000
61.778800 -37.080900 198.937000
62.056100 -44.669800 197.667000
62.429100 -45.409900 197.249000
61.741200 -29.033100 197.213000
61.694800 -30.107900 197.359000
61.245900 -36.210000 198.352000
61.044500 -36.982000 198.269000
61.333800 -44.610300 197.418000
61.267500 -45.375900 197.555000
61.294400 -27.791500 196.359000
60.984000 -29.021100 197.021000
60.553200 -30.436400 197.958000
60.879900 -31.533500 197.159000
60.396300 -33.141300 197.624000
60.262900 -34.600900 197.968000
60.233600 -36.009300 198.330000
59.759600 -37.154300 198.941000
60.324500 -44.519300 197.642000
60.169700 -45.409300 197.640000
60.592200 -26.700400 196.362000
60.279700 -27.698900 196.847000
60.085400 -28.916200 197.268000
60.078500 -30.210700 197.178000
59.961100 -31.723300 197.574000
59.941600 -33.110100 197.133000
59.782400 -34.647800 197.562000
59.297200 -36.194300 198.505000
58.930700 -37.324500 199.041000
59.124500 -38.148900 198.575000
60.481100 -43.563600 195.201000
59.436300 -44.479300 197.520000
59.345600 -45.463700 197.815000
58.422100 -46.211700 199.982000
58.902800 -26.708700 198.412000
58.878200 -27.540300 198.094000
59.354600 -28.808500 197.223000
59.200000 -30.196000 197.595000
59.505400 -31.646200 196.977000
59.693600 -33.018000 196.345000
59.443400 -34.350700 196.819000
59.066600 -35.970100 197.388000
58.195500 -37.259900 199.183000
58.266300 -38.275300 198.678000
59.324900 -43.283900 195.698000
58.702000 -44.300300 197.354000
58.818600 -45.298400 197.179000
57.952600 -26.501500 198.583000
57.908400 -27.494500 198.812000
59.436000 -29.001300 195.725000
57.609800 -37.491000 198.375000
57.246200 -38.652900 198.673000
59.748500 -42.042700 192.725000
58.822600 -42.916200 194.794000
58.162400 -44.140700 196.574000
57.836500 -45.224400 197.033000
57.869600 -25.469700 197.229000
57.224800 -26.356600 198.779000
57.385100 -27.181400 198.441000
56.910600 -37.714300 197.731000
56.612300 -38.695300 198.184000
57.461700 -40.038900 195.975000
58.068300 -41.689800 194.802000
57.633200 -42.925100 195.674000
56.982200 -44.280700 197.038000
56.913100 -45.237900 197.286000
55.979500 -37.759400 197.785000
55.934300 -38.706200 197.930000
56.524900 -39.816100 196.388000
56.914600 -41.466400 195.314000
56.481900 -43.077800 196.268000
56.189200 -44.269100 196.773000
56.141000 -45.204200 197.235000
54.590300 -37.573700 198.728000
55.407400 -38.679900 197.358000
55.840500 -39.957800 196.095000
56.506100 -41.491900 193.762000
55.981900 -42.694900 195.517000
55.638000 -43.972600 196.205000
55.415300 -45.070900 196.824000
53.852700 -36.497500 198.463000
53.591000 -37.402000 199.309000
54.528100 -38.398800 197.217000
56.484900 -40.613300 191.848000
56.116500 -41.533500 192.840000
55.409000 -42.686700 194.906000
54.612500 -44.006500 197.006000
54.455600 -45.059400 197.519000
53.118600 -36.391900 198.504000
53.014600 -37.263800 198.835000
53.990600 -38.196200 196.574000
56.677200 -40.588000 189.886000
55.615700 -41.572700 192.703000
54.639200 -42.791100 195.333000
51.962500 -36.339400 199.536000
51.634600 -37.091400 199.906000
53.398800 -38.145500 196.523000
51.290500 -36.244900 199.320000
50.636500 -37.000800 200.791000
49.075900 -41.719600 203.300000
49.165300 -42.453500 203.165000
50.556300 -37.049800 199.629000
48.103800 -41.636100 204.117000
48.333800 -42.392700 203.816000
48.513100 -37.556900 200.130000
47.442600 -41.339200 203.727000
47.723900 -42.274500 203.176000
47.430200 -37.432000 201.372000
47.940900 -38.544300 200.225000
47.432000 -39.947100 201.752000
47.303600 -41.322800 202.123000
47.928400 -42.556000 199.918000
47.032200 -36.231000 200.635000
46.477400 -37.215500 202.166000
46.770000 -38.509400 201.611000
46.439300 -39.868600 202.841000
47.833200 -41.807800 198.408000
48.231500 -42.759700 197.153000
47.739300 -43.843600 198.068000
47.380700 -44.885600 198.903000
45.916000 -35.404900 202.019000
45.649400 -36.249600 202.784000
46.068000 -37.250700 201.430000
46.008100 -38.315600 201.660000
46.440400 -39.444900 200.982000
48.266700 -41.960800 195.100000
47.444800 -42.855000 197.418000
47.335400 -43.948900 197.019000
47.107100 -44.908200 197.883000
45.390800 -36.239100 201.750000
45.261000 -37.177200 201.936000
46.811700 -42.925200 196.871000
45.146300 -36.993900 200.749000
46.042700 -42.949400 196.154000
45.637000 -44.083700 197.018000
43.458900 -46.753200 202.198000
44.664500 -44.006000 197.613000
42.773300 -47.504800 202.607000
44.597500 -42.839200 195.531000
36.962900 -37.547000 199.742000
36.276300 -37.461600 200.167000
36.894400 -38.305600 198.212000
35.242300 -37.289600 201.222000
35.631400 -38.229200 200.585000
35.784800 -39.091500 200.085000
35.113500 -36.222000 199.291000
34.393600 -37.116900 201.505000
34.860300 -38.084400 200.793000
33.852800 -36.218600 201.213000
33.408700 -37.074800 202.109000
33.937900 -37.946700 200.840000
33.028400 -36.151800 201.191000
32.749100 -37.051800 201.961000
33.013500 -38.026100 200.814000
32.215300 -36.045300 201.291000
32.205900 -36.996200 201.341000
31.595300 -35.894200 200.524000
31.460500 -37.105300 201.283000
29.898100 -37.201400 200.879000
29.785900 -34.518800 198.547000
29.081900 -36.828000 200.782000
29.111700 -34.519500 198.295000
28.346700 -35.682500 200.767000
27.987400 -36.937400 201.691000
28.642200 -38.026500 200.104000
28.135000 -34.571200 198.664000
27.254600 -35.968600 201.861000
27.202200 -36.995700 201.809000
27.560600 -37.851500 201.038000
27.173800 -34.589500 198.868000
26.863700 -35.607200 200.664000
26.472300 -36.785600 201.776000
26.687400 -37.750800 201.303000
26.534300 -34.494300 198.120000
26.146000 -35.613800 200.273000
25.583400 -36.795700 202.418000
25.869900 -37.644100 201.153000
26.093500 -34.418700 197.298000
25.733200 -35.380500 198.893000
25.104400 -36.700700 201.752000
25.208900 -37.729600 201.162000
25.528000 -34.457700 197.564000
25.175600 -35.479200 199.075000
24.358400 -36.977500 202.720000
19.314500 -36.899100 204.889000
19.833900 -37.968100 202.309000
20.370300 -39.240700 199.624000
20.889200 -40.609900 196.874000
20.993300 -42.065800 196.276000
20.378700 -43.473600 199.038000
19.919200 -44.490300 201.256000
19.183800 -34.673500 202.420000
19.259400 -35.733900 202.537000
19.277000 -36.811800 202.571000
19.438100 -38.103200 201.635000
20.113100 -39.441600 198.030000
20.280600 -40.898200 196.960000
20.204400 -42.309100 197.544000
19.961900 -43.521300 197.972000
19.626700 -44.605900 199.793000
18.830500 -34.583400 201.359000
18.642200 -35.585600 202.590000
18.561000 -36.829800 202.759000
18.989500 -38.111800 200.362000
19.589400 -39.545000 196.827000
19.774500 -40.837600 196.120000
19.516400 -42.124100 197.425000
19.254500 -43.455800 197.841000
19.038600 -44.756000 198.930000
18.658900 -45.656200 201.198000
18.278700 -34.694700 201.254000
17.955000 -35.733600 202.666000
17.811000 -36.857100 202.942000
18.368400 -37.963000 200.101000
19.048800 -39.594800 195.005000
18.970300 -40.823400 196.619000
18.791200 -42.265700 196.596000
18.395100 -43.777000 198.560000
18.317100 -45.024600 198.709000
18.088800 -45.902500 200.059000
17.281000 -35.793600 202.951000
17.199600 -36.753600 203.122000
18.226500 -38.576600 195.793000
18.384000 -39.423600 194.617000
18.184500 -40.742600 196.070000
17.883800 -42.205600 196.794000
17.943600 -43.570300 196.904000
17.746500 -44.955400 197.982000
17.827000 -46.082300 197.746000
17.378600 -47.004200 199.444000
16.581000 -36.615300 203.731000
17.709200 -38.512400 195.036000
17.560700 -39.526100 194.958000
17.347400 -40.981000 196.087000
17.088400 -42.283700 197.142000
17.204900 -43.410700 196.938000
17.150900 -44.789500 196.766000
17.010400 -46.132800 197.943000
16.702300 -47.068900 199.335000
17.005500 -38.463200 194.656000
16.819900 -39.343200 194.602000
16.620700 -40.655500 195.569000
16.633200 -42.060400 196.159000
16.442900 -43.469900 196.741000
16.461300 -44.813000 196.419000
16.377700 -45.937300 196.932000
16.052400 -46.959500 199.158000
16.388700 -38.419500 193.565000
16.194100 -39.446700 193.805000
15.645100 -40.758200 196.302000
15.829000 -42.067200 196.368000
15.587600 -43.400900 196.808000
15.642000 -44.777100 196.924000
15.552200 -45.923100 197.170000
15.481300 -38.503000 193.572000
15.266200 -39.635000 194.641000
15.005000 -40.806500 196.017000
14.913000 -42.155700 196.448000
14.892000 -43.731000 196.599000
14.897700 -44.969800 196.817000
14.513400 -45.850000 198.150000
14.661000 -38.381600 193.086000
14.609000 -39.416000 193.948000
14.357600 -40.813400 195.499000
14.240400 -42.243400 195.349000
14.217100 -43.547900 195.888000
14.151600 -44.847000 196.575000
13.671700 -45.704400 199.046000
13.832500 -38.355000 193.323000
14.019500 -39.224600 193.060000
13.647500 -40.450600 194.984000
13.416800 -42.002500 195.661000
13.488800 -43.404500 195.570000
13.533500 -44.602700 195.833000
13.117400 -45.547400 198.497000
12.986400 -38.385300 193.717000
13.250500 -39.331900 193.233000
12.758400 -40.695700 195.105000
12.613500 -42.138500 195.634000
12.670000 -43.286200 196.108000
12.726400 -44.453600 195.890000
12.184600 -38.371900 193.767000
12.316200 -39.368200 194.106000
12.067000 -40.494900 194.563000
11.881700 -41.842800 195.636000
11.887500 -43.322800 195.686000
11.876100 -44.415500 195.968000
11.266200 -38.321700 194.667000
11.599200 -39.315300 193.579000
11.202700 -40.575200 195.444000
11.186500 -42.026400 195.033000
11.030500 -43.330300 195.307000
11.140300 -44.320500 195.732000
10.559600 -38.292100 194.536000
10.640700 -39.298700 194.429000
10.454000 -40.678500 195.074000
10.314500 -42.133600 195.314000
10.415400 -43.330200 194.749000
10.349400 -44.247200 195.230000
9.765090 -38.391200 194.795000
9.681570 -39.482300 195.766000
9.546180 -40.774700 195.596000
9.572360 -42.045900 195.460000
9.564520 -43.235300 195.794000
9.496100 -44.247000 195.365000
8.909890 -38.316900 194.442000
8.955380 -39.445400 195.097000
8.900050 -40.661800 195.163000
8.837330 -41.977200 195.392000
8.916260 -43.314700 195.062000
8.627330 -44.158300 196.611000
8.208370 -38.226100 194.411000
8.223850 -39.235200 194.054000
8.154680 -40.579000 195.703000
8.002290 -41.803800 195.528000
8.102690 -43.021200 195.060000
7.530460 -38.262900 194.104000
7.355350 -39.325200 194.079000
7.483590 -40.559200 194.656000
7.379280 -41.899600 194.552000
7.202450 -42.912800 194.924000
6.674340 -38.303200 193.971000
6.569910 -39.359200 194.206000
6.734470 -40.684700 193.926000
6.577090 -41.985800 194.897000
6.547540 -42.910200 193.726000
5.866230 -38.232000 194.299000
5.849550 -39.234500 193.924000
5.929830 -40.460900 194.182000
5.902350 -41.854000 193.739000
5.759250 -42.861200 194.350000
5.085510 -38.211600 194.196000
5.058190 -39.262200 193.794000
5.177820 -40.588900 193.636000
5.101200 -41.859700 193.807000
5.094370 -42.831000 193.591000
4.365700 -38.136200 194.165000
4.347090 -39.038500 193.903000
4.366150 -40.287400 193.442000
4.315680 -41.756800 193.675000
4.307100 -42.816600 193.603000
3.692860 -38.146000 193.964000
3.632240 -39.155900 193.402000
3.534460 -40.485300 193.798000
3.418540 -41.732100 194.075000
3.453070 -42.789500 194.013000
2.924930 -38.255500 193.643000
2.808420 -39.300100 193.289000
2.789190 -40.628100 193.995000
2.668960 -41.808000 193.868000
2.680870 -42.817000 193.972000
2.028930 -38.258000 193.840000
1.995400 -39.188700 194.199000
2.085340 -40.406500 193.272000
1.924830 -41.658500 193.276000
1.916190 -42.741900 193.495000
1.214940 -38.143000 193.473000
1.405540 -39.153500 193.189000
1.242320 -40.409400 193.571000
1.159620 -41.717300 193.586000
1.158380 -42.739000 192.339000
0.449913 -38.103800 193.701000
0.513448 -39.126100 193.604000
0.446019 -40.499600 193.650000
0.435128 -41.763700 193.002000
0.399226 -42.746700 191.699000
-0.313906 -38.153300 193.637000
-0.270670 -39.340100 193.097000
-0.173774 -40.642800 192.433000
-0.257744 -41.793100 192.134000
-0.325016 -42.740400 191.442000
-1.108460 -38.098200 193.579000
-1.152950 -39.121700 193.525000
-0.968183 -40.529300 192.579000
-0.986604 -41.782700 192.432000
-0.937579 -42.639600 190.687000
-1.913130 -38.084200 193.794000
-1.932380 -39.131100 193.131000
-1.801800 -40.251600 193.111000
-1.743750 -41.483200 192.350000
-2.654040 -38.015800 194.110000
-2.709420 -38.976000 194.095000
-2.631380 -40.265300 192.691000
-2.605120 -41.348900 192.317000
-3.391370 -38.074900 194.248000
-3.480320 -39.155200 193.354000
-3.445590 -40.299600 192.912000
-3.442660 -41.270400 192.816000
-4.145140 -38.156700 193.994000
-4.172610 -39.096100 193.332000
-4.155240 -40.240600 193.139000
-4.097580 -41.243200 192.112000
-4.726800 -38.136200 194.400000
-4.696300 -39.109300 193.276000
-4.709280 -40.203000 193.087000
-4.738570 -41.215400 193.451000
-25.006500 -32.197600 198.624000
-70.912800 -31.452600 196.122000
-68.959400 -32.901300 201.166000
-71.257200 -31.523300 196.782000
-70.370400 -32.585600 199.401000
-69.235400 -33.599400 202.221000
-71.849500 -31.618900 197.216000
-70.963600 -32.650000 199.934000
-70.329500 -33.495300 201.350000
-72.821000 -31.596900 197.085000
-72.015400 -32.567900 199.102000
-71.184500 -33.500600 201.213000
-73.972200 -31.519200 196.263000
-72.897100 -32.515300 198.983000
-72.093500 -33.439400 200.908000
-74.691400 -31.443000 196.585000
-73.886100 -32.433700 198.601000
-73.347700 -33.357100 199.743000
-75.445800 -31.408000 196.593000
-74.677100 -32.383800 198.755000
-74.301400 -33.346500 199.731000
-75.976900 -31.494400 197.426000
-75.138100 -32.592800 199.837000
-74.713300 -33.550300 201.079000
-76.679800 -31.506100 197.757000
-76.123100 -32.484600 199.396000
-75.266700 -33.681100 201.971000
-77.343500 -31.613500 198.021000
-76.658900 -32.675100 200.216000
-75.894100 -33.797900 202.395000
-77.520600 -32.664800 199.878000
-76.907600 -33.581500 201.862000
-78.220600 -32.743400 200.626000
-77.805400 -33.550100 201.673000
-79.226500 -32.625200 200.687000
-78.523000 -33.527000 201.943000
-80.662900 -31.578500 199.021000
-80.115800 -32.466000 200.512000
-79.649200 -33.423600 201.511000
-81.399900 -31.450900 199.293000
-80.687500 -32.603300 201.039000
-80.219100 -33.793000 202.331000
-82.739400 -30.451400 197.788000
-82.330800 -31.261200 198.840000
-81.927100 -32.332800 199.911000
-81.133200 -33.758100 202.074000
-82.896100 -31.464600 199.235000
-82.090800 -32.738200 201.623000
-81.923100 -33.853400 202.081000
-81.848800 -37.933500 202.916000
-83.075800 -32.707600 201.267000
-82.563600 -33.956800 202.449000
-81.448000 -35.473100 205.366000
-81.894100 -36.716300 204.433000
-82.842400 -37.850200 202.359000
-82.182000 -38.960100 203.828000
-83.838800 -32.806700 201.849000
-83.610000 -33.570200 201.909000
-82.103300 -35.384200 205.828000
-82.022300 -36.444800 205.836000
-83.255300 -37.584400 203.038000
-83.439400 -38.866800 202.903000
-82.055900 -40.348500 205.994000
-81.104800 -41.670300 208.461000
-84.785100 -32.938000 201.749000
-84.347700 -33.750000 202.385000
-83.138700 -35.201200 205.692000
-82.713900 -36.335400 206.141000
-84.491100 -37.956000 201.998000
-85.263500 -38.832100 200.532000
-85.277900 -39.670900 200.544000
-82.205700 -41.832000 207.860000
-81.808600 -42.948700 208.790000
-81.536800 -44.097300 209.698000
-85.969700 -32.884800 200.999000
-84.876800 -33.964300 203.182000
-83.896200 -35.209500 205.673000
-83.737600 -36.398900 206.039000
-85.040300 -37.862800 202.539000
-86.125200 -38.807600 199.934000
-86.916600 -39.698900 198.043000
-83.068800 -42.093200 207.880000
-82.759800 -42.985100 208.628000
-87.065000 -32.697700 200.455000
-86.025500 -33.710900 202.445000
-84.499500 -35.227400 205.957000
-84.181400 -36.330300 207.389000
-85.421500 -37.728700 203.004000
-83.568600 -43.097400 208.798000
-87.861700 -32.682700 200.468000
-87.721200 -33.476700 200.759000
-85.075500 -35.586700 206.888000
-84.692600 -36.402000 207.820000
-85.564500 -37.026000 205.792000
-88.644500 -32.771700 200.669000
-88.051200 -33.838300 202.218000
-86.515700 -35.352200 205.678000
-85.287400 -36.369000 207.987000
-87.315400 -37.219400 204.684000
-89.346000 -32.862700 201.274000
-88.919500 -33.743500 201.905000
-87.800800 -35.038300 204.664000
-86.950800 -36.319400 206.385000
-88.064900 -37.176800 204.259000
-90.093700 -32.831200 201.393000
-89.531200 -33.842000 202.398000
-88.399400 -35.090400 205.012000
-87.842400 -36.191500 206.110000
-88.678600 -37.141300 204.154000
-90.776200 -32.749100 201.212000
-90.184900 -33.725500 202.411000
-89.290200 -34.980300 204.313000
-88.080300 -36.083200 207.015000
239.469000 -66.604400 226.233000
239.302000 -66.567400 225.275000
234.669000 -68.152800 227.851000
233.732000 -69.241100 228.164000
232.303000 -68.571600 227.660000
232.280000 -69.432200 227.602000
234.614000 -67.688600 224.206000
232.159000 -68.682000 226.231000
231.975000 -69.533800 226.553000
233.985000 -70.703000 225.388000
234.905000 -71.854900 225.221000
234.273000 -67.730400 223.442000
232.187000 -68.485300 224.850000
231.691000 -69.566900 225.240000
234.127000 -70.808500 224.100000
231.438000 -68.593900 224.005000
230.580000 -69.618300 224.172000
232.841000 -70.677500 223.258000
232.459000 -67.933900 222.122000
229.890000 -68.714300 223.242000
229.497000 -69.748700 223.402000
231.135000 -70.844300 222.568000
227.350000 -67.851500 223.316000
228.638000 -68.700200 222.545000
228.972000 -69.629100 222.558000
229.073000 -70.883700 222.330000
229.496000 -72.124200 222.052000
229.959000 -73.131100 221.680000
227.350000 -68.767900 221.999000
227.375000 -69.692800 222.213000
226.723000 -70.891000 222.223000
227.136000 -72.090400 222.210000
228.026000 -73.071100 221.851000
227.290000 -68.975000 220.449000
225.737000 -69.740600 221.753000
225.696000 -70.877400 221.475000
225.739000 -72.061300 221.520000
226.750000 -73.044800 221.278000
227.420000 -69.086400 218.965000
225.173000 -69.903700 220.522000
224.874000 -71.186600 220.665000
224.772000 -72.225000 220.806000
224.546000 -73.036400 221.033000
224.905000 -69.833800 219.141000
224.630000 -71.018700 219.260000
224.200000 -72.299400 219.823000
225.745000 -73.302800 218.871000
225.999000 -69.117300 216.997000
223.997000 -69.923300 218.210000
222.693000 -71.015700 218.863000
223.339000 -72.218700 218.776000
223.713000 -73.227300 218.810000
223.986000 -69.114300 216.960000
222.346000 -69.991400 217.767000
221.726000 -71.034500 218.276000
221.923000 -72.112000 218.209000
222.717000 -73.209600 217.784000
222.537000 -69.100800 216.365000
221.134000 -69.994300 216.976000
221.350000 -71.129900 217.267000
221.487000 -72.412900 217.001000
222.445000 -73.398600 216.503000
219.559000 -69.045100 216.628000
219.915000 -70.058800 216.331000
220.431000 -71.306300 216.266000
220.140000 -72.500200 216.396000
221.800000 -73.471000 215.589000
217.374000 -68.989800 216.504000
219.195000 -69.980500 215.475000
219.280000 -71.181700 215.500000
219.667000 -72.436100 215.339000
219.971000 -73.389500 215.392000
216.432000 -69.011200 215.855000
218.114000 -69.979800 214.776000
218.620000 -71.071800 214.584000
218.564000 -72.396100 214.478000
218.726000 -73.403200 214.710000
213.421000 -68.582500 215.645000
217.445000 -70.038400 213.937000
217.706000 -71.233600 213.621000
217.703000 -72.602900 213.497000
217.861000 -73.604300 213.563000
210.235000 -67.541100 216.799000
211.984000 -68.494200 215.603000
215.408000 -69.954400 213.675000
218.205000 -71.406900 211.827000
217.907000 -72.529100 212.050000
217.365000 -73.691700 212.436000
217.408000 -74.749900 212.281000
210.814000 -67.640000 215.195000
210.081000 -68.402300 215.681000
212.198000 -69.395000 214.524000
217.410000 -71.678000 210.999000
217.067000 -72.828900 211.302000
216.532000 -73.961000 211.558000
214.899000 -75.048000 212.542000
211.950000 -76.232800 214.455000
210.036000 -77.631500 216.214000
211.514000 -81.645400 215.925000
212.314000 -82.715300 215.415000
210.542000 -67.697100 214.000000
208.832000 -68.422400 215.225000
210.658000 -69.319500 214.161000
217.358000 -71.975600 209.480000
215.875000 -72.903000 210.554000
215.043000 -74.133900 211.259000
213.140000 -75.223100 212.465000
209.944000 -76.369100 214.680000
209.543000 -77.587300 215.238000
212.411000 -82.741000 214.206000
208.229000 -68.613200 214.157000
208.740000 -69.535800 213.868000
215.330000 -72.019100 209.550000
214.184000 -72.842700 210.288000
214.062000 -73.984500 210.467000
211.243000 -75.222300 212.387000
208.779000 -76.277100 214.097000
208.694000 -77.529700 214.451000
213.419000 -67.044600 208.078000
206.191000 -68.711700 213.978000
208.032000 -69.788900 212.835000
210.302000 -71.210200 211.293000
213.367000 -72.820200 209.547000
212.603000 -73.866800 209.917000
212.858000 -66.181400 207.373000
213.333000 -67.007100 207.183000
204.721000 -68.703000 213.749000
206.012000 -69.658600 212.760000
208.324000 -71.105700 211.297000
211.282000 -72.652800 209.471000
210.798000 -73.730100 209.505000
210.799000 -65.298500 207.601000
211.811000 -66.106600 207.015000
211.556000 -66.970900 207.237000
204.476000 -68.769300 212.623000
205.236000 -69.670700 211.877000
206.720000 -70.767600 210.903000
210.268000 -72.766600 208.581000
208.436000 -74.070200 209.745000
207.177000 -75.281800 210.799000
216.048000 -63.685200 201.607000
211.938000 -65.310900 205.424000
209.992000 -66.107400 206.988000
209.190000 -67.123200 207.415000
205.027000 -68.862400 210.668000
204.885000 -69.904800 210.871000
207.335000 -71.399000 209.006000
208.906000 -72.914800 208.108000
207.531000 -73.933400 208.954000
206.724000 -75.192100 209.729000
213.893000 -63.749200 202.148000
214.848000 -64.552100 201.575000
210.098000 -66.028200 205.287000
208.537000 -67.121800 206.643000
206.371000 -68.372000 208.155000
204.905000 -69.930200 209.237000
206.064000 -71.464100 208.416000
207.137000 -72.771700 208.002000
206.565000 -74.029200 208.323000
205.632000 -75.360500 208.981000
210.689000 -63.783600 203.204000
211.560000 -64.702400 202.902000
209.877000 -65.872000 203.924000
207.857000 -67.135500 205.595000
205.160000 -68.550900 207.563000
203.458000 -69.878100 208.614000
204.294000 -71.296000 208.281000
205.468000 -72.747400 207.781000
207.424000 -63.726800 204.091000
209.057000 -64.737900 203.284000
208.104000 -65.973700 203.863000
207.423000 -67.140100 204.365000
203.165000 -68.963000 207.708000
202.507000 -69.934800 207.957000
202.591000 -71.168500 207.926000
205.160000 -63.588200 204.270000
206.895000 -64.729300 203.321000
206.482000 -65.950700 203.722000
206.278000 -66.804100 203.808000
201.943000 -69.147400 207.210000
201.585000 -70.162500 207.351000
201.816000 -71.288000 207.199000
201.568000 -72.508200 207.397000
206.842000 -84.416100 203.514000
203.307000 -63.497500 204.317000
203.543000 -64.393800 204.271000
205.310000 -65.585500 203.251000
197.720000 -69.133400 208.389000
199.993000 -70.143600 207.076000
200.625000 -71.289900 206.833000
200.188000 -72.507800 206.954000
206.945000 -83.323900 202.250000
202.275000 -63.492800 203.701000
202.432000 -64.363900 203.857000
198.607000 -70.247800 206.577000
198.771000 -71.372300 206.709000
198.929000 -72.778900 206.656000
200.518000 -63.436600 203.420000
201.150000 -64.215300 203.260000
196.098000 -70.328600 207.101000
197.056000 -71.348600 206.453000
197.381000 -72.726800 206.369000
200.336000 -78.466700 204.233000
198.081000 -63.328900 204.168000
200.014000 -64.125500 202.773000
195.596000 -71.432400 206.104000
196.041000 -72.480000 205.964000
196.597000 -73.911900 205.561000
198.230000 -75.561000 204.228000
199.000000 -77.072100 203.686000
198.505000 -64.118700 202.924000
194.518000 -71.574900 205.518000
195.343000 -72.631400 204.983000
196.350000 -74.117600 204.125000
198.407000 -75.739900 202.570000
200.070000 -77.363100 201.375000
194.239000 -71.769800 204.493000
195.584000 -72.929800 203.284000
196.453000 -74.274600 202.549000
199.312000 -75.969800 200.483000
194.434000 -71.993500 203.115000
196.451000 -73.230900 201.207000
197.914000 -74.400000 199.849000
144.944000 -52.650100 201.779000
146.222000 -53.575400 200.342000
147.864000 -54.903300 198.458000
148.252000 -56.286700 198.007000
148.336000 -57.618300 197.750000
146.259000 -52.660300 199.449000
145.856000 -53.682800 199.747000
147.369000 -54.900600 197.764000
147.533000 -56.368400 197.703000
147.988000 -57.773400 197.032000
147.979000 -59.055600 196.852000
147.827000 -60.331000 196.760000
147.974000 -52.642700 195.794000
146.225000 -53.647700 197.999000
145.926000 -54.789800 197.812000
146.531000 -56.258200 197.333000
146.563000 -57.576500 197.458000
146.730000 -58.909900 197.065000
147.432000 -60.297200 196.140000
148.705000 -61.473400 194.569000
145.493000 -53.494200 197.100000
144.603000 -54.639700 197.811000
144.623000 -56.125500 197.739000
145.471000 -57.720900 197.083000
146.259000 -59.276500 196.087000
147.094000 -60.566200 195.106000
148.287000 -61.553600 193.791000
145.386000 -52.267500 195.624000
144.446000 -53.364300 196.707000
143.764000 -54.751400 197.295000
143.141000 -56.187000 197.715000
144.262000 -57.606100 196.749000
144.740000 -58.969300 196.403000
145.439000 -60.245500 195.515000
147.047000 -61.402700 193.840000
144.789000 -51.212900 194.954000
144.129000 -52.177900 195.736000
143.431000 -53.344600 196.332000
142.463000 -54.849200 197.156000
142.611000 -56.181600 197.027000
142.332000 -57.490800 197.280000
143.502000 -58.933100 196.356000
144.972000 -60.133600 194.736000
142.485000 -52.126600 196.066000
141.879000 -53.322400 196.483000
141.092000 -54.735900 197.075000
141.384000 -56.158800 197.093000
141.122000 -57.521300 196.982000
142.197000 -58.811400 196.251000
140.587000 -51.212900 196.733000
141.582000 -52.119500 195.594000
140.672000 -53.302200 196.304000
139.776000 -54.667700 196.974000
140.404000 -56.131600 196.612000
139.767000 -57.493900 196.898000
140.594000 -58.642000 196.223000
140.084000 -52.175900 195.876000
139.086000 -53.293400 196.585000
138.628000 -54.523200 196.825000
138.560000 -56.084200 196.990000
138.535000 -57.474000 197.018000
139.147000 -58.514400 196.354000
139.556000 -59.513900 196.186000
138.147000 -52.261400 196.478000
137.896000 -53.301700 196.426000
136.897000 -54.624100 197.401000
136.618000 -56.009100 197.514000
137.260000 -57.351300 197.179000
136.233000 -58.285800 198.225000
130.298000 -59.851900 203.894000
136.904000 -52.301400 196.283000
135.902000 -53.349400 197.202000
135.661000 -54.622000 197.315000
134.977000 -55.857000 197.918000
135.205000 -57.133900 197.892000
130.476000 -58.854600 202.763000
128.992000 -59.811800 204.397000
135.294000 -52.280700 196.459000
134.712000 -53.378500 197.161000
134.209000 -54.581900 197.531000
134.022000 -55.957400 197.666000
131.737000 -57.424700 200.260000
129.290000 -58.802100 203.006000
128.774000 -59.840200 203.544000
129.090000 -60.700900 203.215000
134.492000 -52.151800 195.864000
133.860000 -53.201200 196.609000
132.865000 -54.555500 197.573000
131.706000 -56.010100 198.840000
129.489000 -57.453600 201.327000
128.528000 -58.816100 202.668000
128.665000 -59.751700 202.541000
132.597000 -52.166600 196.724000
131.813000 -53.226200 197.410000
131.206000 -54.550200 197.982000
129.786000 -55.979400 199.545000
128.187000 -57.247100 201.321000
128.525000 -58.466600 201.182000
130.889000 -52.210200 197.232000
130.431000 -53.219300 197.499000
128.782000 -54.554800 199.327000
127.518000 -55.995900 200.685000
127.330000 -57.294300 201.121000
128.528000 -58.191900 199.638000
129.210000 -52.228000 197.785000
128.476000 -53.277400 198.386000
127.091000 -54.598800 199.836000
126.634000 -55.834600 200.232000
126.530000 -57.058000 200.517000
127.952000 -52.334500 198.021000
125.857000 -53.561200 200.173000
125.684000 -54.813900 200.126000
125.616000 -56.023500 200.202000
126.879000 -57.244200 198.183000
128.855000 -58.453400 195.402000
123.675000 -54.838700 201.336000
125.106000 -55.981500 199.444000
126.270000 -57.143500 197.575000
127.998000 -58.349200 195.343000
129.185000 -59.378000 193.835000
124.535000 -56.099900 198.676000
125.988000 -57.319300 196.507000
127.611000 -58.363600 194.514000
124.465000 -56.280100 196.925000
125.571000 -57.311300 195.645000
127.342000 -58.375800 193.626000
122.938000 -56.162500 197.261000
123.923000 -56.968600 195.951000
122.433000 -56.061000 196.388000
123.058000 -56.835600 195.263000
121.430000 -55.971200 195.843000
122.280000 -56.793400 194.812000
119.157000 -55.013000 197.265000
120.132000 -55.787200 195.837000
121.393000 -56.705600 194.513000
118.502000 -54.900500 196.607000
119.529000 -55.732400 195.251000
119.973000 -56.615900 194.682000
116.964000 -54.838900 196.992000
118.605000 -55.749600 194.997000
119.535000 -56.697400 193.629000
115.727000 -54.875400 197.213000
117.490000 -55.706900 194.929000
117.945000 -56.758100 194.112000
113.901000 -54.674000 197.244000
116.555000 -55.852800 194.566000
117.045000 -57.003300 193.588000
118.199000 -57.774300 192.396000
113.437000 -54.688900 196.756000
115.004000 -55.612500 194.965000
112.612000 -54.646400 196.473000
113.333000 -55.633800 195.843000
111.269000 -54.615800 196.849000
112.293000 -55.649500 195.542000
111.706000 -55.777400 194.757000
47.834700 -42.690700 198.045000
47.841000 -43.437600 198.005000
47.422200 -44.262000 199.146000
47.582300 -43.348000 196.978000
47.415800 -44.118500 197.536000
45.439200 -44.432900 197.923000
45.275900 -43.528600 196.312000
35.004800 -36.373600 199.058000
33.867500 -36.539200 201.207000
33.952100 -37.509000 200.573000
33.621200 -35.484000 200.123000
33.402300 -36.468400 200.624000
33.317500 -37.640900 200.387000
32.699400 -35.529600 200.623000
32.519400 -36.636300 201.111000
32.447200 -37.730100 201.119000
32.021600 -35.305600 199.890000
31.783000 -36.410000 201.161000
33.266300 -28.707100 192.343000
33.596400 -29.484000 191.142000
33.292300 -30.702500 192.077000
32.637100 -32.111400 194.039000
31.892900 -29.063500 194.933000
32.315400 -29.949500 193.777000
32.596400 -31.003900 192.560000
31.822200 -32.552700 194.817000
30.752300 -29.196900 196.240000
31.290100 -29.988900 194.652000
31.486400 -31.252100 194.176000
30.567200 -33.049100 196.720000
29.414500 -37.364200 200.494000
29.848400 -29.256500 196.725000
30.089600 -30.130000 196.063000
30.377400 -31.329200 195.208000
29.907100 -32.739700 196.011000
29.154800 -34.623700 198.985000
28.529100 -36.258300 200.878000
28.421300 -37.301400 201.297000
29.010100 -29.429700 197.266000
29.334700 -30.098000 196.091000
29.470900 -31.284600 195.313000
28.900100 -32.988600 196.722000
28.378300 -34.843200 198.740000
27.552800 -36.423000 201.839000
27.647200 -37.260200 201.305000
28.741400 -30.303300 195.213000
28.406700 -31.658500 196.238000
28.432200 -32.645300 195.352000
27.988700 -34.012000 196.961000
26.858200 -36.520800 201.689000
26.899200 -37.288600 201.333000
28.211200 -30.312500 194.043000
28.000400 -31.495600 194.727000
27.652300 -32.849800 195.659000
27.154500 -34.133200 196.728000
26.074000 -36.474900 201.073000
26.071800 -37.389600 201.552000
27.449300 -31.435900 194.433000
27.103000 -32.892900 195.176000
26.344800 -34.417600 197.481000
25.775900 -35.896100 199.494000
25.267600 -37.319600 201.406000
25.829200 -34.627100 197.552000
24.991600 -36.288700 200.522000
24.719100 -37.405600 201.304000
24.598600 -38.258700 201.639000
19.546400 -36.751600 204.746000
19.902800 -37.548000 202.963000
20.131000 -38.543200 201.753000
20.973900 -39.939900 197.152000
21.081200 -41.114500 196.339000
20.581100 -42.363800 198.630000
19.571800 -35.575300 202.359000
19.574600 -36.509400 202.051000
19.636600 -37.697100 202.002000
20.005300 -38.743600 199.694000
20.638100 -39.822900 196.054000
20.654800 -41.058300 195.526000
20.474100 -42.300400 196.164000
18.956500 -35.564600 202.301000
18.708000 -36.522000 202.652000
19.079000 -37.632100 201.607000
19.596300 -38.701800 198.329000
19.951200 -39.903400 195.625000
19.896800 -41.377200 195.744000
19.597600 -42.658500 196.983000
19.327900 -43.570300 198.511000
18.256000 -35.546800 202.036000
17.980500 -36.480000 202.638000
18.241300 -37.454400 201.997000
19.286300 -38.825900 195.833000
19.281500 -39.753200 194.914000
19.234500 -41.033300 194.979000
18.940600 -42.521700 196.641000
18.845600 -43.560400 197.420000
17.251200 -36.559000 203.127000
17.303300 -37.294400 202.349000
18.696800 -38.787800 194.278000
18.552900 -39.956000 194.865000
18.467300 -41.112400 195.196000
18.325100 -42.288200 195.829000
18.027600 -43.527600 197.169000
16.546200 -36.538900 202.338000
16.393400 -37.352900 202.911000
17.985100 -38.555800 193.348000
17.871700 -39.713100 194.281000
17.720400 -41.193500 195.274000
17.346800 -42.650200 197.024000
17.185200 -43.702200 196.523000
15.957800 -36.586300 201.679000
15.872000 -37.307300 202.054000
17.342200 -38.448300 192.820000
17.104000 -39.506500 194.070000
16.954600 -40.873800 194.819000
16.649400 -42.579900 196.174000
16.518300 -43.812800 196.358000
16.154300 -44.848700 197.828000
15.350000 -36.531200 202.122000
15.747600 -37.029300 199.713000
16.521600 -38.574200 192.951000
16.284300 -39.823900 194.289000
15.974100 -41.325800 195.868000
15.804400 -42.620200 196.572000
15.729600 -43.800100 196.703000
15.420200 -44.901900 198.324000
15.856300 -38.349100 191.672000
15.582100 -39.601800 193.703000
15.366600 -40.983500 195.305000
15.188800 -42.399000 195.879000
15.015600 -43.637800 196.135000
14.760200 -44.806700 198.237000
15.271600 -38.198000 190.934000
14.818100 -39.388700 193.538000
14.635100 -40.842600 194.789000
14.302600 -42.422300 196.199000
14.437000 -43.520400 195.680000
14.353400 -38.381500 192.196000
14.079600 -39.555000 193.217000
13.655700 -41.089000 195.567000
13.572200 -42.260200 195.950000
13.377400 -38.505000 192.746000
13.152900 -39.766000 193.903000
12.901000 -41.112900 195.698000
12.508100 -42.124600 197.705000
12.708900 -38.292000 191.990000
12.398500 -39.431000 193.652000
12.112700 -40.827800 195.176000
11.800500 -38.452300 193.030000
11.335400 -39.735900 194.946000
11.212800 -40.971800 195.396000
11.078500 -41.953400 196.728000
10.736500 -38.682400 194.244000
10.463500 -39.772900 195.846000
10.430600 -40.857200 195.578000
10.459300 -41.895300 196.003000
9.914350 -38.508500 193.856000
9.792750 -39.739600 195.423000
9.760590 -40.848000 195.224000
9.695820 -41.785200 195.547000
9.235580 -38.384300 193.407000
9.104800 -39.456600 194.436000
9.019940 -40.765500 195.379000
8.833490 -41.820500 196.369000
8.548730 -38.366700 192.827000
8.252310 -39.669700 195.063000
8.184620 -40.833800 196.019000
7.795110 -38.295200 192.762000
7.618180 -39.313300 193.758000
7.245010 -40.598100 196.502000
7.104320 -38.309700 192.524000
6.731890 -39.411400 194.139000
6.499340 -40.511500 196.014000
6.264290 -38.387800 192.708000
5.956200 -39.367700 193.767000
5.854280 -40.397700 194.794000
5.362900 -38.372400 192.908000
5.227840 -39.419300 193.725000
5.111140 -40.415300 194.666000
4.638170 -38.231100 192.575000
4.540670 -39.187800 193.104000
4.321320 -40.290100 194.566000
3.918060 -38.261500 192.738000
3.731200 -39.239200 193.278000
3.377710 -40.319400 195.125000
3.099150 -38.378900 192.979000
2.889600 -39.341800 193.586000
2.613630 -40.334300 195.147000
2.160210 -38.353200 193.575000
2.102980 -39.383300 194.368000
1.868270 -40.304700 196.044000
1.358090 -38.043900 192.562000
1.323970 -39.131200 194.280000
0.435453 -37.414000 195.283000
0.615106 -38.011000 193.101000
0.450384 -39.018900 194.900000
-0.714369 -37.267400 195.872000
-0.022769 -37.893900 192.773000
-0.227909 -38.784600 193.757000
-1.250650 -37.293100 195.877000
-0.918976 -37.834500 193.325000
-1.111270 -38.783100 193.861000
-1.782380 -37.874400 193.394000
-1.868690 -38.810000 193.950000
-2.712740 -37.206800 195.503000
-2.596010 -37.754500 193.029000
-2.598910 -38.690900 193.686000
-3.449530 -37.157000 195.514000
-3.218610 -37.722500 192.913000
-3.398380 -38.757100 195.200000
-4.221150 -37.058000 196.215000
-3.917650 -37.623500 193.359000
-4.777720 -36.963200 196.331000
-4.596100 -37.540700 193.964000
-59.146300 -30.599700 204.006000
233.255000 -66.427800 228.277000
234.113000 -65.470400 226.670000
233.072000 -66.249700 227.134000
233.093000 -67.248700 227.131000
234.533000 -68.450000 226.290000
233.008000 -66.163100 226.079000
232.764000 -67.049700 225.972000
232.720000 -68.301700 225.784000
234.046000 -69.617200 225.122000
235.729000 -72.027400 224.260000
232.740000 -66.228200 224.828000
232.008000 -67.213000 224.872000
232.228000 -68.311600 224.695000
232.328000 -69.429000 224.555000
233.921000 -70.670900 224.011000
232.066000 -66.246900 223.725000
232.642000 -67.035300 223.018000
231.808000 -68.226500 223.543000
231.801000 -69.460700 223.241000
232.001000 -70.396400 223.448000
232.486000 -66.192600 222.002000
231.942000 -67.168600 221.971000
231.279000 -68.437600 222.378000
230.416000 -69.496800 222.810000
230.947000 -70.391500 222.406000
232.790000 -66.234400 220.284000
232.969000 -67.119700 219.815000
230.976000 -68.246400 221.115000
230.211000 -69.463100 221.702000
229.524000 -70.575500 221.698000
231.442000 -71.263000 220.849000
233.302000 -67.063300 218.221000
231.975000 -68.138600 219.000000
229.425000 -69.496200 220.615000
226.903000 -70.743100 221.864000
226.960000 -71.691200 221.715000
226.134000 -72.634100 221.923000
233.648000 -67.083700 216.296000
233.038000 -67.962200 216.822000
228.660000 -69.468100 219.580000
227.020000 -70.577100 220.638000
225.827000 -71.773100 221.129000
225.495000 -72.697000 221.245000
232.625000 -67.097000 215.465000
232.605000 -67.933700 215.587000
229.531000 -69.211600 217.488000
226.628000 -70.659500 219.358000
224.493000 -71.820800 220.485000
225.029000 -72.695000 220.323000
231.056000 -67.114700 215.235000
232.850000 -67.840900 214.132000
230.582000 -68.810100 215.437000
226.332000 -70.483000 217.860000
224.123000 -71.644100 219.437000
223.939000 -72.599200 219.441000
231.250000 -68.004400 213.822000
228.639000 -69.138000 215.099000
226.206000 -70.328800 216.392000
223.357000 -71.636500 218.296000
222.423000 -72.663400 218.907000
229.857000 -68.251200 213.128000
227.694000 -69.247700 214.199000
224.840000 -70.467100 215.889000
222.202000 -71.729300 217.369000
222.285000 -72.805400 217.456000
206.823000 -65.386500 225.784000
228.782000 -68.338300 212.276000
226.355000 -69.347400 213.587000
223.831000 -70.595800 215.034000
221.116000 -71.806800 216.706000
220.737000 -72.834300 217.129000
221.074000 -73.986100 216.572000
222.606000 -75.012300 215.382000
205.422000 -65.196700 226.012000
207.927000 -66.134700 224.042000
226.350000 -69.205300 212.311000
223.912000 -70.234600 213.615000
220.876000 -71.563400 215.445000
220.597000 -72.891300 215.856000
220.331000 -73.974800 215.732000
219.844000 -74.907400 216.117000
204.250000 -64.425200 225.730000
205.444000 -65.356400 224.693000
207.404000 -66.155300 223.236000
224.247000 -69.346800 212.116000
222.354000 -70.400400 213.040000
219.778000 -71.577300 214.789000
219.780000 -72.794900 214.848000
220.052000 -73.998200 214.496000
205.666000 -64.469400 223.399000
205.003000 -65.276400 223.801000
206.019000 -66.186000 222.768000
221.958000 -69.424600 211.996000
221.938000 -70.178500 211.952000
219.167000 -71.582200 213.859000
218.881000 -72.922100 213.719000
219.675000 -74.092700 213.049000
205.076000 -65.404800 222.417000
205.652000 -66.347700 221.483000
207.566000 -67.070600 220.175000
219.091000 -69.527000 212.547000
219.210000 -70.346600 212.563000
218.287000 -71.602100 212.885000
218.655000 -72.803300 212.362000
218.196000 -73.977400 212.634000
220.347000 -74.977300 211.222000
205.574000 -65.638600 220.633000
205.598000 -66.454500 220.323000
206.787000 -67.254200 219.287000
217.560000 -70.584300 212.214000
218.350000 -71.785300 211.362000
218.007000 -72.945300 211.586000
217.404000 -73.965500 211.764000
217.621000 -74.918200 211.598000
207.089000 -66.591800 218.153000
206.911000 -67.459100 217.926000
208.749000 -68.300300 216.352000
218.489000 -71.720900 209.804000
217.161000 -72.850300 210.823000
216.405000 -73.980900 211.054000
215.276000 -74.946700 211.580000
209.421000 -77.037900 215.840000
209.554000 -78.028200 215.773000
215.324000 -63.268700 210.393000
216.185000 -64.306900 209.601000
207.673000 -67.655100 216.017000
207.709000 -68.512900 215.637000
218.135000 -71.774000 208.505000
216.227000 -72.786300 209.861000
214.705000 -74.010600 210.701000
214.234000 -75.055300 210.850000
209.550000 -76.823900 214.245000
208.903000 -77.880300 214.629000
214.797000 -63.339000 209.589000
214.214000 -64.322600 210.037000
216.213000 -65.161800 208.531000
207.406000 -67.851900 214.554000
207.385000 -68.590200 214.696000
208.465000 -69.441500 213.646000
216.340000 -71.860800 208.388000
214.109000 -72.866400 209.671000
213.443000 -74.109100 210.242000
211.825000 -75.371700 211.241000
207.239000 -78.007200 214.598000
214.688000 -63.205400 208.471000
213.399000 -64.384100 209.279000
207.841000 -67.923200 212.845000
206.940000 -68.693400 213.567000
207.552000 -69.496200 213.026000
214.246000 -71.851200 208.296000
213.548000 -72.704000 208.513000
213.339000 -73.864800 208.840000
209.392000 -75.452600 211.435000
216.054000 -62.882600 206.611000
212.820000 -64.607700 208.051000
