# .PCD v0.7 - Point Cloud Data file format
VERSION 0.7
FIELDS x y z
SIZE 4 4 4
TYPE F F F
COUNT 1 1 1
WIDTH 1084
HEIGHT 1
VIEWPOINT 0 0 0 1 0 0 0
POINTS 1084
DATA ascii
1.83512 -0.261985 1.9625919
1.8417101 -0.235917 1.9633769
1.81445 -0.261415 1.9272059
1.8157401 -0.25038499 1.9274781
1.8101801 -0.31514099 1.9198569
1.81646 -0.26051199 1.9195759
1.8191701 -0.31772301 1.91431
1.8139999 -0.303983 1.9122839
1.8225 -0.317581 1.907112
1.8159801 -0.301 1.904218
1.84815 -0.25382999 1.9097099
1.85748 -0.254706 1.9049069
1.84843 -0.26411802 1.892736
1.8533599 -0.254547 1.8959559
1.9139501 -0.23565599 1.9112641
1.85885 -0.25549299 1.8888969
1.8532201 -0.32062998 1.8799829
1.84297 -0.29409999 1.876771
1.84457 -0.27991101 1.8762211
1.85141 -0.265811 1.876771
1.84886 -0.254619 1.8772448
1.85392 -0.27751198 1.869863
1.8769799 -0.252621 1.8661499
1.8466901 -0.32072899 1.979798
1.84918 -0.33128899 1.971854
1.83784 -0.31982201 1.9673529
1.8161501 -0.263073 1.9478229
1.85572 -0.241623 1.9473999
1.9149801 -0.22753401 1.9661648
1.81796 -0.26356199 1.9309949
1.8575301 -0.24428301 1.939111
1.8149 -0.264772 1.9208909
1.86002 -0.243679 1.931644
1.9122701 -0.228459 1.9446359
1.8100101 -0.30626801 1.91342
1.81967 -0.26498601 1.912691
1.8640199 -0.24416901 1.9241359
1.8256199 -0.32351699 1.9091558
1.86614 -0.246703 1.917106
1.8640699 -0.261668 1.908227
1.84852 -0.273491 1.8846229
1.84392 -0.28549901 1.8763249
1.85052 -0.271144 1.876704
1.8761901 -0.26374 1.8815979
1.85006 -0.272744 1.8690219
1.8797799 -0.24782901 1.872673
1.8352001 -0.243595 1.963472
1.8569599 -0.23456499 1.968403
1.8445101 -0.246453 1.957109
1.8690699 -0.236472 1.9629529
1.8398499 -0.24856199 1.9467829
1.86261 -0.239575 1.952379
1.87982 -0.24149901 1.9475808
1.9106599 -0.225363 1.955542
1.8197701 -0.25679502 1.923131
1.8150001 -0.31811801 1.919305
1.85111 -0.250976 1.9211539
1.87982 -0.24213101 1.929046
1.8169099 -0.317691 1.911184
1.84158 -0.262326 1.9112709
1.8654801 -0.25249901 1.9163499
1.8497 -0.262674 1.904323
1.8701401 -0.25338301 1.908597
1.88133 -0.24338301 1.912038
1.8207401 -0.32005 1.8934659
1.86461 -0.25501001 1.898338
1.85034 -0.26490802 1.8878009
1.86617 -0.25590599 1.889563
1.8810899 -0.245189 1.8932579
1.84094 -0.280092 1.8773849
1.87536 -0.25514999 1.883515
1.85041 -0.281849 1.8700299
1.87123 -0.25670499 1.8743539
1.88825 -0.24550301 1.8767051
1.84209 -0.23255199 1.9679399
1.8308501 -0.24309 1.9575878
1.85615 -0.234579 1.963457
1.84576 -0.244808 1.9524789
1.86385 -0.23517001 1.9569349
1.86842 -0.23787701 1.9491789
1.92318 -0.218629 1.961533
1.8182001 -0.25474799 1.926904
1.8596201 -0.23716499 1.9367709
1.8984599 -0.22182101 1.945792
1.80858 -0.32953203 1.926033
1.81564 -0.319621 1.9239329
1.8575599 -0.238388 1.9267899
1.8586 -0.25053599 1.919446
1.86669 -0.23777398 1.9210528
1.8478799 -0.25004801 1.908042
1.8719299 -0.241723 1.913269
1.85357 -0.251147 1.8994609
1.8769299 -0.24161899 1.9053971
1.81829 -0.319065 1.887583
1.84623 -0.26391 1.88858
1.85104 -0.24856199 1.8886299
1.88351 -0.24392299 1.897736
1.84044 -0.27914101 1.8806939
1.8553901 -0.25246501 1.8813699
1.8691299 -0.242264 1.8849809
1.8386199 -0.26286501 1.8689309
1.8506399 -0.25287902 1.871217
1.87352 -0.243421 1.876702
1.84187 -0.26088399 1.964057
1.83943 -0.26242101 1.9541429
1.87034 -0.25925699 1.9523278
1.8707299 -0.25862199 1.9419669
1.8640801 -0.25945801 1.931205
1.85672 -0.269012 1.902954
1.8504699 -0.26998699 1.8809799
1.85532 -0.269205 1.8743509
1.8889999 -0.268659 1.880905
1.85304 -0.27117598 1.8656279
1.9016299 -0.26797101 1.8743531
1.9144701 -0.23244101 1.9480469
1.91171 -0.26040301 1.9550369
1.9196 -0.27142599 1.9442478
1.91283 -0.263226 1.937488
1.9184899 -0.271357 1.9287078
1.9203399 -0.27098802 1.92019
1.91794 -0.28516799 1.922459
1.92153 -0.25215998 1.9092059
1.91837 -0.27213299 1.9125459
1.91444 -0.30125701 1.9107419
1.9191499 -0.27239099 1.8786249
1.92081 -0.27153999 1.870123
1.91228 -0.29233602 1.968066
1.9196 -0.23311199 1.9472619
1.91356 -0.26675999 1.9550869
1.9101501 -0.29563299 1.9611139
1.91401 -0.26455799 1.946581
1.9049801 -0.30056199 1.9552491
1.91427 -0.26596701 1.938298
1.9082201 -0.29663098 1.9458439
1.9082201 -0.30681601 1.939337
1.9193 -0.27518901 1.9224719
1.9178901 -0.261114 1.9139659
1.9212899 -0.275157 1.913009
1.92313 -0.27417201 1.9045219
1.9210401 -0.25848302 1.8886639
1.9104401 -0.31067801 1.897773
1.9152 -0.250377 1.881321
1.9168899 -0.26444599 1.8826599
1.9141001 -0.308047 1.8892881
1.92107 -0.25848901 1.873199
1.92214 -0.27434701 1.874554
1.91537 -0.30626401 1.8806109
1.9185201 -0.264442 1.970739
1.91398 -0.26372299 1.9649969
1.9165801 -0.277134 1.9652851
1.9188401 -0.26511699 1.9558799
1.9111099 -0.29237199 1.961587
1.90263 -0.30639601 1.9678799
1.9164799 -0.27809098 1.950454
1.90948 -0.29473302 1.954519
1.91892 -0.27674901 1.9406769
1.90677 -0.295479 1.9479508
1.90643 -0.30587199 1.950658
1.8740401 -0.232355 1.9353509
1.9192599 -0.235451 1.9207699
1.92388 -0.27462 1.9242359
1.9086 -0.30532801 1.933956
1.91877 -0.23595501 1.913862
1.91825 -0.26153201 1.916382
1.9182299 -0.30027598 1.9224049
1.9209801 -0.26027399 1.907609
1.9176601 -0.300143 1.9060429
1.91898 -0.26307499 1.8939248
1.9168401 -0.25221902 1.885694
1.9227 -0.261329 1.8849969
1.92172 -0.27402499 1.8862829
1.92059 -0.301597 1.8901619
1.9248101 -0.27284598 1.8781189
1.9201699 -0.31156501 1.88397
1.9227 -0.258497 1.8694849
1.92494 -0.2888 1.872243
1.91711 -0.305132 1.8765919
1.9203501 -0.22705001 1.971617
1.92364 -0.225982 1.9631749
1.91655 -0.26135901 1.969187
1.9104899 -0.29170701 1.9669009
1.90657 -0.302899 1.9706049
1.91436 -0.26332101 1.955477
1.9175301 -0.286908 1.956919
1.90929 -0.302665 1.96144
1.9093201 -0.29234201 1.953424
1.9043201 -0.304813 1.955291
1.89489 -0.318068 1.960376
1.88773 -0.32206699 1.9556251
1.91221 -0.26286501 1.934216
1.9012399 -0.30716601 1.9416848
1.9205201 -0.23607099 1.920197
1.9253399 -0.27034 1.9218199
1.92134 -0.28390601 1.9246039
1.91295 -0.30100098 1.929215
1.9209599 -0.235038 1.9121739
1.9212199 -0.27322799 1.916539
1.91871 -0.26109999 1.9087861
1.93187 -0.28051299 1.907414
1.92033 -0.270776 1.902034
1.9201 -0.26030502 1.8929529
1.92399 -0.26914498 1.8916479
1.91977 -0.26267201 1.885551
1.9247999 -0.27067 1.8839729
1.91605 -0.26139 1.879223
1.93811 -0.27456799 1.873735
1.9260299 -0.27850902 1.8705429
1.92697 -0.22766599 1.9645309
1.91742 -0.25494802 1.97094
1.91427 -0.26863301 1.9725769
1.9222901 -0.27918699 1.961409
1.9213201 -0.26692301 1.954852
1.92181 -0.277879 1.954343
1.9154899 -0.291677 1.9582529
1.9037499 -0.30590299 1.9651278
1.9158299 -0.25633201 1.949841
1.91664 -0.268134 1.9493079
1.91382 -0.29220399 1.951363
1.90619 -0.30454001 1.956144
1.90391 -0.21446301 1.9419639
1.9071699 -0.222395 1.94292
1.9169999 -0.269095 1.9415039
1.9090899 -0.29522601 1.9458129
1.9063699 -0.306604 1.9474739
1.9199001 -0.278983 1.9342819
1.92259 -0.279064 1.925437
1.9221201 -0.26926202 1.9182609
1.92477 -0.27976599 1.917912
1.92634 -0.26803699 1.910318
1.9223399 -0.280292 1.9117
1.9267501 -0.281394 1.8950529
1.95227 -0.23193899 1.8674879
1.92944 -0.281362 1.8799579
1.91584 -0.30491301 1.885304
1.9203999 -0.302818 1.8761799
1.9149001 -0.31577 1.8715979
1.8834701 -0.23207301 1.9635609
1.8424801 -0.318187 1.9577709
1.8776 -0.23151501 1.9589109
1.81969 -0.313097 1.91756
1.85181 -0.237728 1.9098411
1.8189501 -0.31360099 1.909301
1.8344901 -0.246383 1.906752
1.87351 -0.236632 1.895761
1.8306799 -0.25933301 1.8993149
1.8495899 -0.247346 1.8941181
1.8472501 -0.260573 1.8852769
1.85502 -0.246795 1.8846879
1.8405499 -0.27508301 1.878508
1.8587199 -0.24884 1.8743179
1.8396699 -0.28837499 1.8698599
1.83936 -0.275004 1.870705
1.85127 -0.250027 1.867043
1.87299 -0.229477 1.9691629
1.85209 -0.236881 1.9658068
1.83364 -0.24718201 1.962567
1.8446699 -0.23866801 1.959281
1.86452 -0.228045 1.9572549
1.83937 -0.31120801 1.938435
1.8252901 -0.306918 1.925838
1.82328 -0.306169 1.918947
1.84701 -0.241679 1.9149269
1.84469 -0.252314 1.9065239
1.8572099 -0.24457 1.902211
1.84899 -0.25359401 1.896673
1.85944 -0.24558201 1.8925749
1.8501401 -0.254255 1.887584
1.8599299 -0.245681 1.8837079
1.85356 -0.25498599 1.8776
1.8628501 -0.246269 1.874074
1.84313 -0.281602 1.871174
1.85276 -0.25437501 1.8691778
1.8624899 -0.24618 1.8654
1.86923 -0.236579 1.9694389
1.84075 -0.259002 1.9657528
1.87099 -0.23625 1.9605091
1.86183 -0.236434 1.954832
1.8341299 -0.25772101 1.9504249
1.8177699 -0.265533 1.937554
1.82042 -0.25408301 1.927789
1.85118 -0.235026 1.9201449
1.8186301 -0.31286699 1.9136299
1.84597 -0.243782 1.9134529
1.8761001 -0.23752399 1.906377
1.8180299 -0.31178302 1.9053749
1.83986 -0.246034 1.90617
1.87722 -0.239617 1.8972268
1.85504 -0.248455 1.8932399
1.88534 -0.240749 1.8850659
1.84312 -0.25916401 1.886618
1.8619299 -0.248559 1.8818439
1.85414 -0.24782801 1.875831
1.84556 -0.27769399 1.8663429
1.8582699 -0.25033101 1.866097
1.86684 -0.233428 1.9697409
1.8400501 -0.25575101 1.9666519
1.85808 -0.23284201 1.9633648
1.83789 -0.25883999 1.957477
1.8405299 -0.24255301 1.959569
1.8252499 -0.250487 1.9513919
1.8200999 -0.26422301 1.9343179
1.8151801 -0.2642 1.9272189
1.82295 -0.25184301 1.927608
1.8477299 -0.24668501 1.919395
1.8673199 -0.23663001 1.913093
1.8538201 -0.246471 1.908875
1.8803799 -0.237894 1.9027619
1.8350999 -0.25561702 1.9047859
1.84793 -0.246121 1.901624
1.86869 -0.239833 1.897651
1.84308 -0.257283 1.893135
1.8629601 -0.24930499 1.8899798
1.8794701 -0.239925 1.8858069
1.84464 -0.25865701 1.8843979
1.8581599 -0.247766 1.8819799
1.8368499 -0.286993 1.875049
1.84551 -0.27422002 1.873281
1.8465899 -0.26000401 1.8758819
1.8565899 -0.249449 1.872502
1.8399401 -0.26199999 1.9685888
1.83803 -0.26464 1.961355
1.84034 -0.25029001 1.961506
1.8386 -0.26420701 1.952612
1.82149 -0.255077 1.929003
1.8474801 -0.24954501 1.9150659
1.8558 -0.24106 1.911737
1.84473 -0.250799 1.906026
1.8659199 -0.246409 1.899888
1.8482699 -0.22722299 1.9079621
1.82985 -0.25972798 1.899389
1.85234 -0.25378999 1.893945
1.869 -0.24874599 1.888881
1.8567101 -0.256046 1.8832339
1.8682699 -0.249134 1.8796829
1.8366799 -0.29654601 1.875314
1.8586301 -0.256982 1.8733649
1.8681799 -0.24917299 1.870383
1.83715 -0.27976102 1.8693939
1.88403 -0.23538099 1.9731469
1.9116 -0.26066402 1.9646469
1.9067199 -0.29366699 1.9589028
1.91519 -0.25521699 1.9580259
1.9145799 -0.27074102 1.9553419
1.8797001 -0.231815 1.9239
1.9156799 -0.27131599 1.923834
1.8957001 -0.310987 1.9114769
1.9017799 -0.30737901 1.906214
1.91827 -0.27026799 1.9086229
1.9135499 -0.273164 1.8992249
1.90417 -0.21879299 1.8871089
1.9187399 -0.26932698 1.874715
1.9173801 -0.256019 1.976958
1.9024 -0.30080402 1.9658179
1.9189301 -0.281299 1.965858
1.9014101 -0.30097902 1.9583899
1.9157801 -0.25528699 1.9617959
1.91995 -0.26751199 1.960598
1.92213 -0.27887699 1.958715
1.90987 -0.29622 1.953539
1.91848 -0.25577 1.9550409
1.91606 -0.283041 1.9488029
1.9111999 -0.29589501 1.9461859
1.92177 -0.25261602 1.948562
1.9181199 -0.26970699 1.935949
1.9247301 -0.26525399 1.931258
1.92235 -0.27853 1.928705
1.9188401 -0.268989 1.92173
1.92548 -0.27901399 1.922148
1.92318 -0.27996701 1.9126951
1.9206901 -0.252716 1.908658
1.9228901 -0.26591298 1.906824
1.9258701 -0.278456 1.9048709
1.9180499 -0.25531098 1.899718
1.9188401 -0.269106 1.89677
1.9195501 -0.26725599 1.8893759
1.9236599 -0.27986202 1.8892419
1.9200301 -0.25389001 1.8845569
1.92261 -0.267845 1.883134
1.91693 -0.30626401 1.8746669
1.91693 -0.25651899 1.874498
1.92247 -0.26551801 1.8762879
1.9221699 -0.26680201 1.8678209
1.9270599 -0.28007799 1.8667898
1.90259 -0.304827 1.9679109
1.91162 -0.29227901 1.9646
1.89869 -0.30785 1.9582869
1.9203501 -0.22750999 1.9668908
1.92343 -0.261112 1.965066
1.92693 -0.27172801 1.964458
1.91661 -0.28771099 1.9593281
1.9027001 -0.30583701 1.952997
1.9184101 -0.228214 1.9587799
1.9236799 -0.25911 1.958033
1.9255099 -0.27227101 1.956484
1.9116299 -0.29237199 1.9499279
1.90283 -0.30618501 1.9465339
1.92364 -0.25978002 1.950654
1.91337 -0.30014899 1.942641
1.9216 -0.260842 1.941427
1.9240601 -0.27440399 1.9404058
1.92696 -0.25828201 1.935943
1.92514 -0.28413799 1.932435
1.91864 -0.29693198 1.9273269
1.92528 -0.259372 1.9277989
1.9221801 -0.27469701 1.925477
1.9035499 -0.22164302 1.9184669
1.9255099 -0.27285299 1.918474
1.92444 -0.25947499 1.9120109
1.92628 -0.272737 1.9106009
1.9279 -0.283719 1.910996
1.92419 -0.258589 1.904148
1.92858 -0.26896298 1.9045799
1.9303501 -0.28236499 1.9034599
1.9311501 -0.23018499 1.902473
1.92757 -0.27147999 1.896512
1.92839 -0.29648 1.892633
1.91799 -0.30955499 1.8872529
1.92698 -0.27274299 1.887912
1.9333299 -0.28239799 1.88911
1.91676 -0.3109 1.8781949
1.9228101 -0.273489 1.877926
1.93135 -0.28328699 1.881475
1.9186 -0.26216802 1.8715019
1.92602 -0.27197599 1.8711419
1.93015 -0.28425699 1.872177
1.9386799 -0.22573401 1.8752769
1.9305 -0.26987898 1.866387
1.91538 -0.253517 1.9694999
1.91579 -0.26506001 1.9679869
1.91724 -0.254691 1.962621
1.9244299 -0.26482999 1.96426
1.92996 -0.273258 1.965368
1.9166901 -0.25219899 1.9548489
1.92365 -0.26325801 1.95698
1.92919 -0.273642 1.958792
1.9106899 -0.30035901 1.9489769
1.9160299 -0.25291598 1.947714
1.9155999 -0.26431802 1.9462709
1.9232601 -0.27534801 1.9490809
1.9242301 -0.26244101 1.942156
1.9200599 -0.276254 1.939276
1.9231 -0.26262799 1.9345399
1.9209 -0.27558801 1.932417
1.92477 -0.28523198 1.932117
1.92617 -0.272993 1.927243
1.9310601 -0.28299299 1.9266958
1.92026 -0.26368999 1.9186389
1.9280499 -0.27353799 1.9200009
1.9175999 -0.25355601 1.911978
1.92356 -0.26322702 1.9124961
1.9286301 -0.27389601 1.912645
1.9305999 -0.28438601 1.9110888
1.93478 -0.223391 1.9138899
1.9383999 -0.2326 1.9128158
1.9236799 -0.27528799 1.9033749
1.9253999 -0.26242501 1.899142
1.92514 -0.27473301 1.896376
1.93413 -0.2915 1.89747
1.92311 -0.26289999 1.8895729
1.9314101 -0.274317 1.8912419
1.9358701 -0.28354201 1.892175
1.93558 -0.29172 1.8899209
1.93433 -0.22392599 1.8905429
1.9196299 -0.25177899 1.882062
1.92592 -0.27309099 1.8819389
1.93239 -0.28391302 1.8828889
1.9302901 -0.29335698 1.880699
1.9193699 -0.25227699 1.8730289
1.92849 -0.26191899 1.876977
1.92579 -0.27585399 1.8741909
1.9367501 -0.28254998 1.8772349
1.9323399 -0.29205799 1.8742399
1.9299699 -0.27236199 1.869319
1.9323599 -0.28326401 1.868395
1.9196401 -0.251636 1.966126
1.9225399 -0.26104799 1.966311
1.9306301 -0.27132699 1.968344
1.9185899 -0.252233 1.958428
1.9315699 -0.27346301 1.9620301
1.9151601 -0.25329301 1.9493289
1.9213699 -0.26323 1.9515148
1.9308 -0.27329701 1.9549829
1.91597 -0.262245 1.9424109
1.92541 -0.27356398 1.9448481
1.9237399 -0.28595102 1.9431469
1.92515 -0.27342698 1.936817
1.9272701 -0.28450599 1.937654
1.91982 -0.264878 1.9289299
1.93024 -0.27457199 1.932009
1.94082 -0.227879 1.932861
1.93705 -0.23719101 1.9298419
1.9146401 -0.25205201 1.9195809
1.92159 -0.26159599 1.923064
1.9230901 -0.27274001 1.9223579
1.9242101 -0.261446 1.916279
1.9306901 -0.27339199 1.917282
1.93478 -0.229698 1.9162899
1.9246401 -0.26435101 1.90877
1.93366 -0.27259099 1.9115869
1.93812 -0.23722099 1.9083459
1.92654 -0.261857 1.902161
1.93064 -0.27290899 1.9041029
1.94028 -0.235888 1.9020499
1.92067 -0.261098 1.892275
1.9261301 -0.27288401 1.894166
1.9330001 -0.2834 1.894809
1.93516 -0.29522899 1.895044
1.9254899 -0.26287702 1.8863358
1.9296601 -0.274524 1.887697
1.9362301 -0.28438199 1.889578
1.93344 -0.29529801 1.8860699
1.9259801 -0.26319098 1.8790219
1.92979 -0.27230102 1.881127
1.93367 -0.28316 1.88139
1.9339999 -0.29453501 1.87909
1.92153 -0.263641 1.8703799
1.9307201 -0.272634 1.8746018
1.93176 -0.28489 1.8723689
1.92621 -0.27357599 1.8650579
1.84174 -0.31632298 1.9743689
1.81639 -0.249011 1.9253339
1.84149 -0.25170499 1.9165559
1.83561 -0.25140101 1.906176
1.8119999 -0.301617 1.894093
1.8321 -0.26095501 1.896387
1.84153 -0.25199801 1.8993679
1.8435299 -0.25141501 1.891221
1.8372501 -0.261724 1.881187
1.86134 -0.24780701 1.8874429
1.8343899 -0.27524501 1.8724099
1.83752 -0.261978 1.8727989
1.8488901 -0.25216201 1.8755139
1.84778 -0.252653 1.8669291
1.80854 -0.26166299 1.9536358
1.81312 -0.24890101 1.925815
1.91021 -0.22643101 1.9515779
1.85101 -0.24088301 1.9274869
1.90567 -0.22663799 1.9424739
1.8571299 -0.24178401 1.9208409
1.87421 -0.244799 1.9169569
1.84998 -0.25445601 1.9030108
1.83248 -0.266817 1.8877009
1.8313699 -0.269292 1.879431
1.83935 -0.256605 1.880026
1.83778 -0.26816699 1.871879
1.84286 -0.254336 1.871769
1.8640801 -0.24649499 1.8767979
1.8549299 -0.244177 1.866467
1.8979801 -0.219882 1.8761119
1.85168 -0.23463699 1.9658741
1.85935 -0.23507001 1.959505
1.8657601 -0.23705201 1.951612
1.86071 -0.23656799 1.9404309
1.7999099 -0.323338 1.9229529
1.8178999 -0.25898099 1.920784
1.85975 -0.23988301 1.9319919
1.90069 -0.223454 1.9408859
1.8644999 -0.23913699 1.9244249
1.84163 -0.24738 1.9105741
1.87464 -0.24009001 1.91719
1.81155 -0.30231002 1.897244
1.84317 -0.248899 1.900686
1.8760899 -0.24154601 1.9080549
1.83894 -0.26234999 1.892378
1.84507 -0.25086901 1.891923
1.86826 -0.242799 1.8977109
1.8396201 -0.26322201 1.8830609
1.8522301 -0.250292 1.8860129
1.8746699 -0.24103399 1.8899009
1.83447 -0.26253998 1.871436
1.85392 -0.25086299 1.8772339
1.87868 -0.24289399 1.882334
1.8507401 -0.25323001 1.8667549
1.8811901 -0.243918 1.8741139
1.84944 -0.231553 1.96892
1.84841 -0.23395799 1.95935
1.863 -0.235348 1.954118
1.8668801 -0.238547 1.9473028
1.81706 -0.253196 1.9250339
1.86783 -0.239351 1.939489
1.8708099 -0.240201 1.9297159
1.84612 -0.24637699 1.9142609
1.87429 -0.24075599 1.9205359
1.8430499 -0.25 1.9046719
1.8706501 -0.24267 1.9109399
1.83533 -0.26089898 1.894639
1.85195 -0.249319 1.8970129
1.8827499 -0.24250099 1.9049929
1.8273599 -0.27147999 1.884957
1.8412399 -0.26015198 1.886795
1.85429 -0.249466 1.8880229
1.87883 -0.24302799 1.8947378
1.82582 -0.274176 1.8760099
1.83718 -0.26294699 1.87806
1.8465401 -0.25013 1.8775339
1.87902 -0.244689 1.8858161
1.8386099 -0.26378402 1.869162
1.84948 -0.25029498 1.8684089
1.87591 -0.245114 1.876303
1.8806599 -0.24545401 1.8675979
1.87067 -0.229186 1.973164
1.8449299 -0.237391 1.9590669
1.8757499 -0.23256901 1.964533
1.86563 -0.24024999 1.954666
1.86707 -0.242208 1.9452039
1.8110299 -0.254513 1.9233811
1.8488699 -0.241623 1.9311179
1.85838 -0.242341 1.9240509
1.8116601 -0.324985 1.9154348
1.84358 -0.25083899 1.912408
1.85776 -0.242457 1.9149029
1.83706 -0.25076401 1.901293
1.8638901 -0.244592 1.9078989
1.83649 -0.25171301 1.8917428
1.86334 -0.247411 1.8988469
1.8252901 -0.26583001 1.8812839
1.8360001 -0.25324899 1.8825749
1.8624899 -0.24580799 1.888109
1.8341299 -0.26559699 1.8745549
1.84793 -0.25430501 1.8763829
1.86703 -0.24711399 1.88002
1.84329 -0.256791 1.866563
1.86935 -0.24953699 1.8716669
1.89737 -0.254336 1.969173
1.89828 -0.25551099 1.961726
1.90442 -0.22225501 1.9503239
1.88799 -0.25381398 1.957804
1.89676 -0.28069299 1.9541088
1.8867999 -0.29361498 1.9577279
1.8937 -0.254942 1.9473079
1.8909 -0.25332299 1.9402429
1.8961799 -0.25499499 1.930985
1.89019 -0.303743 1.9341779
1.8821601 -0.24356899 1.929458
1.8983099 -0.253645 1.9227989
1.8973399 -0.30173799 1.924417
1.89914 -0.25575599 1.9157559
1.89192 -0.30401301 1.918615
1.8808299 -0.31283501 1.9225639
1.87262 -0.24543801 1.9170349
1.90136 -0.26514602 1.9077561
1.89899 -0.30199802 1.908415
1.89203 -0.311876 1.9118309
1.86584 -0.246434 1.9136779
1.9053 -0.26736099 1.89849
1.92203 -0.22735901 1.8868949
1.89531 -0.25670499 1.8945858
1.90276 -0.26689801 1.8911099
1.87823 -0.24722099 1.8926349
1.8821499 -0.245406 1.8839549
1.8975799 -0.256585 1.879411
1.9058099 -0.26800099 1.8771319
1.9007699 -0.30395499 1.878736
1.87755 -0.24397899 1.878026
1.8730701 -0.24524401 1.8723199
1.888 -0.25426 1.868214
1.8713499 -0.24617201 1.8662089
1.8997099 -0.26049998 1.970557
1.91131 -0.22721201 1.9604599
1.88832 -0.236044 1.9679589
1.8994401 -0.24942499 1.9644139
1.91123 -0.225096 1.9525299
1.8991799 -0.26043901 1.955725
1.9001199 -0.27434298 1.9558679
1.8918401 -0.28707799 1.958185
1.88605 -0.298136 1.9598979
1.91373 -0.224617 1.94383
1.89359 -0.24904899 1.95086
1.88665 -0.29757798 1.9521739
1.89766 -0.25980601 1.9419999
1.88757 -0.29719001 1.9442329
1.90485 -0.27464801 1.930172
1.90422 -0.28700501 1.930155
1.8781199 -0.30945802 1.940137
1.90416 -0.285157 1.92299
1.89677 -0.29612899 1.926362
1.89214 -0.30678099 1.9274781
1.8462 -0.32064098 1.942434
1.87707 -0.23349001 1.925231
1.8745599 -0.31099099 1.9252719
1.8664999 -0.23514999 1.9220529
1.88622 -0.246427 1.915397
1.9009399 -0.26105401 1.9103611
1.89709 -0.29895398 1.909948
1.8829401 -0.30952999 1.914982
1.86432 -0.235856 1.9163419
1.89965 -0.260609 1.903248
1.9046299 -0.27189502 1.90139
1.89765 -0.260288 1.8966379
1.90873 -0.274793 1.8921559
1.88411 -0.311663 1.8997769
1.9014701 -0.263226 1.887659
1.9073801 -0.27446401 1.8855189
1.90837 -0.28527001 1.8849421
1.8866701 -0.24778099 1.8854129
1.8962899 -0.25933799 1.882134
1.9064 -0.27417099 1.8784409
1.90785 -0.28834298 1.8778579
1.89003 -0.24778099 1.878129
1.9034899 -0.261255 1.8726099
1.90917 -0.27443898 1.868974
1.90391 -0.29931101 1.8722639
1.8977799 -0.249935 1.962793
1.8947799 -0.25083402 1.957352
1.88186 -0.30039102 1.9346139
1.84287 -0.31893 1.947354
1.86239 -0.235324 1.9372369
1.8836399 -0.248696 1.9296609
1.89645 -0.30195001 1.9229269
1.87248 -0.24802901 1.9266369
1.8983099 -0.262503 1.9169819
1.9024 -0.275361 1.914404
1.87916 -0.25214702 1.9169558
1.90153 -0.26601899 1.9086359
1.8840801 -0.31004101 1.9113959
1.85765 -0.24257798 1.911032
1.9036701 -0.26581401 1.900161
1.9086599 -0.27708399 1.8965499
1.9099499 -0.28965101 1.896082
1.85287 -0.23292601 1.908234
1.87744 -0.24768101 1.9004399
1.8283299 -0.325757 1.9123199
1.87683 -0.23516399 1.8949829
1.88483 -0.24970101 1.890553
1.91028 -0.291742 1.881142
1.8987 -0.30253598 1.8847799
1.82662 -0.32655999 1.903837
1.8825799 -0.24812599 1.883938
1.90381 -0.26343 1.876982
1.9033501 -0.30131099 1.87631
1.87737 -0.23487301 1.878794
1.8892701 -0.24972901 1.8744919
1.88586 -0.25033 1.867437
1.85429 -0.23303699 1.8691249
1.8744701 -0.24708299 1.8635719
1.85194 -0.23286 1.8631048
1.91759 -0.22652 1.9612499
1.89411 -0.284637 1.9657019
1.88683 -0.28563699 1.959599
1.88539 -0.294404 1.9592319
1.9002 -0.27326402 1.948297
1.90151 -0.28837201 1.931026
1.89122 -0.297952 1.9331009
1.8426199 -0.31304002 1.94877
1.8894299 -0.29839501 1.92655
1.8853199 -0.246012 1.9239099
1.90247 -0.26283601 1.91747
1.8881199 -0.29940701 1.919452
1.90142 -0.21962601 1.9138049
1.87726 -0.245499 1.9198489
1.8967 -0.26096001 1.9114701
1.89517 -0.29929 1.908924
1.8759599 -0.24568599 1.9148841
1.8939199 -0.299088 1.901035
1.9099699 -0.27728701 1.8910379
1.9075 -0.27441701 1.884263
1.9099699 -0.28959599 1.883226
1.92268 -0.21900299 1.876842
1.91833 -0.22580299 1.877861
1.90387 -0.26269799 1.8788409
1.8729601 -0.232668 1.8825541
1.90257 -0.300419 1.8684729
1.88719 -0.24631001 1.8706321
1.91388 -0.27257499 1.9666981
1.91313 -0.225932 1.956532
1.9187801 -0.27418199 1.940429
1.91245 -0.23528601 1.938936
1.91816 -0.27418801 1.9328369
1.90439 -0.22350401 1.929588
1.87219 -0.234459 1.934399
1.8989999 -0.25843599 1.9185199
1.88306 -0.24096599 1.8998469
1.90144 -0.25755301 1.8865069
1.9348599 -0.23896798 1.9675338
1.94488 -0.24673401 1.9574798
1.9304299 -0.23542 1.9443159
1.9459599 -0.24480399 1.950539
1.9499099 -0.24488701 1.943891
1.94039 -0.238589 1.9244189
1.94101 -0.23976 1.909158
1.9278301 -0.27004001 1.903074
1.9458299 -0.280727 1.9101399
1.94759 -0.2483 1.905916
1.9276299 -0.27088699 1.8955929
1.94419 -0.28255302 1.9030091
1.9266701 -0.27074802 1.887547
1.93434 -0.28272498 1.891724
1.9596601 -0.313274 1.9016581
1.9249201 -0.27073202 1.8790509
1.9363099 -0.28275201 1.884769
1.93976 -0.29468501 1.8866159
1.94424 -0.31375301 1.889578
1.92617 -0.27056399 1.8718649
1.93664 -0.28223199 1.877268
1.94566 -0.31397802 1.882679
1.92836 -0.27055299 1.864906
1.9317501 -0.28113702 1.8680201
1.94267 -0.314069 1.8731699
1.92713 -0.31688601 1.9708229
1.8987399 -0.32821301 1.960757
1.93498 -0.30594999 1.9660989
1.9311999 -0.31654799 1.9641669
1.9419501 -0.29592898 1.9619899
1.93828 -0.306732 1.9598269
1.9279699 -0.317871 1.956087
1.9422799 -0.296819 1.9538291
1.93384 -0.30842501 1.950799
1.92401 -0.31889701 1.9478859
1.8906599 -0.33706501 1.9358358
1.88314 -0.34615502 1.9337479
1.93765 -0.306438 1.944191
1.9283501 -0.31861499 1.9417319
1.89105 -0.339459 1.9291589
1.8746699 -0.34677202 1.9220799
1.93926 -0.30755299 1.937827
1.93536 -0.316847 1.936384
1.91998 -0.328881 1.9305561
1.9000101 -0.33967 1.9246421
1.87352 -0.34638402 1.914598
1.94341 -0.31023002 1.9332639
1.9315801 -0.31996 1.92739
1.9253399 -0.33038199 1.9247558
1.90731 -0.33836299 1.9199508
1.88034 -0.34562999 1.9107128
1.9405099 -0.32032397 1.924435
1.9342999 -0.32966802 1.920821
1.91236 -0.33791301 1.9147749
1.9405099 -0.238086 1.9096589
1.9396601 -0.32216001 1.9169071
1.91924 -0.33698899 1.9097409
1.9515401 -0.24685401 1.908824
1.9228599 -0.26650998 1.8820568
1.94015 -0.276721 1.8907559
1.91713 -0.26493201 1.871388
1.9414301 -0.27765599 1.8864679
1.88169 -0.32707402 1.961151
1.9238 -0.27186501 1.965703
1.88362 -0.32937199 1.9550229
1.92171 -0.259821 1.9571469
1.92059 -0.27103701 1.9558851
1.9331 -0.299362 1.96321
1.9332299 -0.31101 1.9639789
1.92161 -0.320034 1.960441
1.88833 -0.32783198 1.9489028
1.92257 -0.26123899 1.950166
1.92496 -0.27171001 1.9500809
1.93451 -0.31141001 1.957773
1.8947501 -0.32872599 1.943284
1.93056 -0.27445498 1.9446219
1.9311301 -0.31111801 1.9478439
1.8935001 -0.33089802 1.9366189
1.9263201 -0.27307099 1.9353369
1.93213 -0.31132999 1.939265
1.92575 -0.32242402 1.9388958
1.8966701 -0.331377 1.9300259
1.87879 -0.34047601 1.9241719
1.86765 -0.34697497 1.9188499
1.9216701 -0.274562 1.9267169
1.9393899 -0.31357598 1.9347569
1.8847901 -0.33984298 1.917991
1.86067 -0.34651798 1.9078469
1.94222 -0.312345 1.9293389
1.9309399 -0.323053 1.9177029
1.9136 -0.33108398 1.9117839
1.89543 -0.33930302 1.9055068
1.9344299 -0.31273198 1.909906
1.92654 -0.32309601 1.908595
1.9147301 -0.33305901 1.904476
1.89175 -0.33815899 1.896129
1.93892 -0.31162101 1.9048638
1.9338001 -0.321926 1.9030839
1.91896 -0.33195099 1.898118
1.9031799 -0.33964002 1.892535
1.928 -0.32392502 1.8930829
1.91666 -0.33357102 1.889365
1.89565 -0.33876401 1.8816429
1.9374601 -0.32270899 1.888566
1.9178599 -0.33198503 1.881806
1.9043201 -0.33982199 1.877045
1.94438 -0.31450099 1.8824579
1.9275999 -0.32401299 1.8770679
1.94355 -0.313647 1.8746799
1.9365801 -0.32291001 1.8727249
1.89089 -0.32602701 1.970166
1.9349201 -0.239885 1.9704349
1.91593 -0.25404498 1.964655
1.87019 -0.33413899 1.9559169
1.9243201 -0.25865701 1.960176
1.9185201 -0.27032602 1.960573
1.93461 -0.29983401 1.9678099
1.93101 -0.31022301 1.9676349
1.8970599 -0.32894501 1.957848
1.9214301 -0.257541 1.951776
1.9253399 -0.27171099 1.9541659
1.89142 -0.33004397 1.9483758
1.93016 -0.27253202 1.9467899
1.9283 -0.28540301 1.9489279
1.92588 -0.309138 1.949725
1.90022 -0.32939997 1.9430809
1.9336901 -0.236904 1.9398971
1.93539 -0.24833201 1.9402089
1.9310001 -0.28558502 1.941705
1.92896 -0.31175801 1.943181
1.90028 -0.33034199 1.935105
1.89331 -0.33856401 1.935949
1.9240601 -0.25781199 1.9287369
1.92381 -0.269301 1.928869
1.9284301 -0.283342 1.932542
1.93415 -0.312392 1.9375349
1.90149 -0.32899103 1.9274269
1.8997799 -0.33874699 1.9292608
1.91808 -0.27023801 1.9193629
1.9316001 -0.31159601 1.92896
1.9178799 -0.32265201 1.9250541
1.9105901 -0.33223802 1.923319
1.89809 -0.33842099 1.9195459
1.87086 -0.34143001 1.908916
1.9244 -0.25942698 1.9129089
1.9253501 -0.27252501 1.9140539
1.9309 -0.32342097 1.9217509
1.9137801 -0.33302897 1.9168799
1.89493 -0.33862701 1.9113159
1.92502 -0.259114 1.90605
1.92054 -0.269104 1.9044719
1.9309599 -0.28470001 1.9108139
1.93532 -0.31456399 1.9146609
1.9309399 -0.326507 1.91431
1.9132899 -0.332993 1.9080049
1.90725 -0.3407 1.9081799
1.9207699 -0.25903299 1.897644
1.93387 -0.31168199 1.9056948
1.9249899 -0.33345199 1.904991
1.90859 -0.33955801 1.8993499
1.9173801 -0.26045999 1.886917
1.9216299 -0.27283201 1.889607
1.9315 -0.32374901 1.8991181
1.91886 -0.33353198 1.8946509
1.90864 -0.3407 1.890615
1.91748 -0.259514 1.8785269
1.93067 -0.286529 1.88683
1.93644 -0.314134 1.8918439
1.93032 -0.32690701 1.890448
1.9058701 -0.34063703 1.882553
1.91891 -0.258497 1.8707379
1.9296899 -0.28334799 1.877496
1.9351699 -0.31138301 1.8825459
1.93361 -0.324608 1.8829069
1.9278901 -0.335787 1.8823889
1.90543 -0.339935 1.875249
1.93864 -0.31586599 1.876351
1.93914 -0.32680699 1.8777289
1.9180599 -0.25957301 1.9738209
1.9209801 -0.260023 1.9671849
1.8802299 -0.32818699 1.961563
1.92 -0.26238599 1.959939
1.93019 -0.307188 1.9686829
1.92328 -0.31627899 1.9665979
1.87949 -0.330495 1.953851
1.92653 -0.261967 1.954543
1.92834 -0.277257 1.9556409
1.9275301 -0.305915 1.960084
1.92239 -0.31741601 1.9595819
1.88627 -0.33046201 1.9480969
1.9459801 -0.24449101 1.9501998
1.9320301 -0.279953 1.948653
1.93485 -0.30600899 1.954854
1.92416 -0.31631398 1.9522209
1.94464 -0.24209499 1.9408609
1.9314901 -0.27760801 1.940343
1.9346601 -0.306752 1.9472979
1.92416 -0.31703401 1.9435459
1.88985 -0.33326098 1.9345089
1.93845 -0.22920799 1.929865
1.9283999 -0.26478499 1.9300129
1.9339501 -0.279369 1.934063
1.9372799 -0.30746499 1.9394848
1.92651 -0.31800699 1.9361069
1.90539 -0.336009 1.9311839
1.8816701 -0.34161702 1.9245219
1.92479 -0.26396999 1.920331
1.8939301 -0.335729 1.9197769
1.87895 -0.34258801 1.916044
1.8682899 -0.347747 1.911644
1.9365401 -0.22969101 1.9123619
1.9469399 -0.243746 1.9182249
1.93787 -0.30914602 1.9243569
1.93196 -0.31874299 1.9218109
1.9215801 -0.327896 1.9195819
1.90848 -0.33733001 1.916585
1.88589 -0.343261 1.9101869
1.86463 -0.345615 1.9024589
1.94763 -0.245977 1.910412
1.92194 -0.26057699 1.902446
1.92514 -0.274378 1.906832
1.93472 -0.30799201 1.9145869
1.92575 -0.31872201 1.912957
1.91768 -0.328886 1.910309
1.90402 -0.33794799 1.9078279
1.88482 -0.341748 1.900975
1.9199201 -0.25894502 1.893503
1.9338901 -0.30601498 1.904815
1.9247099 -0.32953799 1.9046119
1.90907 -0.33766201 1.9007981
1.88599 -0.34035 1.891647
1.91923 -0.26121598 1.885564
1.93171 -0.28126898 1.893311
1.93042 -0.31877801 1.8986899
1.9077801 -0.33759102 1.8914789
1.88605 -0.340601 1.8831239
1.92125 -0.260957 1.877972
1.93054 -0.278707 1.884335
1.9360601 -0.29516801 1.888958
1.90291 -0.33666098 1.881062
1.88991 -0.34197798 1.8772609
1.9292301 -0.278337 1.876411
1.92958 -0.29036799 1.877798
1.91461 -0.328904 1.8775129
1.9106599 -0.33795398 1.8759838
1.8497599 -0.32058498 1.9790889
1.85803 -0.32931599 1.969564
1.84135 -0.32486498 1.9727719
1.84092 -0.31194201 1.9720368
1.8617599 -0.328852 1.9601159
1.8468499 -0.32321998 1.9633279
1.8116601 -0.33425 1.9184719
1.83516 -0.33878699 1.8872989
1.84275 -0.31303301 1.9797339
1.8649601 -0.329983 1.9661499
1.85356 -0.32279998 1.9682801
1.84121 -0.31332999 1.9714839
1.86343 -0.330852 1.9582058
1.84957 -0.323504 1.960939
1.8339101 -0.312388 1.9646559
1.83532 -0.31308901 1.9548099
1.8696699 -0.24166501 1.939708
1.86292 -0.233823 1.941227
1.8683299 -0.244514 1.934348
1.82541 -0.33261901 1.8968949
1.8166701 -0.32009497 1.8907499
1.8331 -0.27544799 1.871727
1.85772 -0.32697201 1.975273
1.84355 -0.318701 1.979218
1.8541901 -0.32824001 1.966561
1.84647 -0.31802902 1.9695029
1.85997 -0.25854501 1.9613589
1.85804 -0.329092 1.957871
1.8502901 -0.32042703 1.959655
1.8334199 -0.30916899 1.963563
1.8591299 -0.25817201 1.9540759
1.8402001 -0.32146499 1.953841
1.85904 -0.25848201 1.9452549
1.8549 -0.249576 1.9388919
1.8179201 -0.268318 1.9314849
1.8090601 -0.32697701 1.910665
1.82146 -0.33865201 1.899256
1.88396 -0.32706299 1.973515
1.8808501 -0.235754 1.9699409
1.88091 -0.32861301 1.9665009
1.8595599 -0.32247001 1.9700259
1.8438801 -0.31204098 1.9738649
1.8751199 -0.32958499 1.9596289
1.85172 -0.32150799 1.963685
1.83476 -0.310368 1.96864
1.88025 -0.24203199 1.9558049
1.86308 -0.33097199 1.9537219
1.8331399 -0.31038001 1.960465
1.8805799 -0.241704 1.9491559
1.81194 -0.31423199 1.9222541
1.81164 -0.32636201 1.916021
1.82946 -0.33866799 1.901817
1.84317 -0.312987 1.9769719
1.8491901 -0.32141799 1.967083
1.8429201 -0.259159 1.967361
1.85006 -0.323226 1.9572181
1.8346601 -0.31205601 1.962473
1.8435899 -0.25838801 1.9590659
1.83679 -0.31579798 1.953082
1.8496001 -0.25836501 1.9485049
1.8292799 -0.251562 1.9518219
1.85317 -0.25914401 1.939041
1.8311 -0.32704601 1.9382609
1.8307201 -0.33761102 1.8942239
1.8122001 -0.30184299 1.892401
1.87977 -0.256448 1.865253
