# .PCD v0.7 - Point Cloud Data file format
VERSION 0.7
FIELDS x y z
SIZE 4 4 4
TYPE F F F
COUNT 1 1 1
WIDTH 114
HEIGHT 1
VIEWPOINT 0 0 0 1 0 0 0
POINTS 114
DATA ascii
2.0048199 -0.229012 0.41581595
2.0069599 -0.21865 0.41727898
2.0036099 -0.219065 0.40731993
2.0021698 -0.21830299 0.39735994
2.0024002 -0.217825 0.38680795
2.0106199 -0.21767201 0.37054992
2.0180001 -0.21655799 0.35641998
2.0372999 -0.20997299 0.34766999
2.0229599 -0.21520799 0.34480995
2.02948 -0.207084 0.34078994
2.0269501 -0.21423599 0.33171996
2.0313401 -0.205722 0.32740998
2.0294099 -0.20629299 0.31630996
2.0373199 -0.20828199 0.30072999
2.0391901 -0.217649 0.41610092
2.0172601 -0.22519501 0.41373894
2.01794 -0.21292201 0.41475296
2.0103998 -0.22172199 0.40769395
2.0247099 -0.214249 0.39986396
2.0148699 -0.22393999 0.39497399
2.0211 -0.213965 0.39004791
2.02196 -0.21360201 0.37828392
2.0251501 -0.213699 0.36712098
2.02827 -0.214968 0.35670999
2.02195 -0.214183 0.3518199
2.0594702 -0.237573 0.31847993
2.0232699 -0.22506201 0.41567695
2.0220499 -0.22475599 0.40546998
2.0187199 -0.22285101 0.39697593
2.0462501 -0.22003599 0.38670999
2.0129201 -0.22255599 0.38885596
2.01227 -0.22245198 0.37792993
2.0476601 -0.21712901 0.35593995
2.0504 -0.21806 0.34632996
2.0381 -0.22553499 0.34348992
2.04826 -0.21753901 0.33671996
2.04913 -0.21792001 0.32423997
2.0486901 -0.21677099 0.31314996
2.05288 -0.217527 0.30123994
2.03245 -0.226252 0.38970292
2.02858 -0.22343799 0.38025191
2.0327599 -0.224226 0.36719993
2.03053 -0.222913 0.35828996
2.0064199 -0.21256 0.41951591
1.99999 -0.223538 0.41362396
2.0118201 -0.213121 0.40623796
2.0041499 -0.222588 0.40117797
2.0114901 -0.21309401 0.39560691
2.0012701 -0.224121 0.39122498
2.0132899 -0.213071 0.38378793
2.0162499 -0.212705 0.37292299
2.0318801 -0.222433 0.35610992
2.0137801 -0.21157199 0.36606696
2.0151401 -0.211023 0.35809997
2.0496099 -0.22275899 0.30610994
2.02459 -0.20917499 0.31200996
2.0313201 -0.208671 0.30018997
2.0034301 -0.22787599 0.41053596
1.9910201 -0.21492501 0.41960999
1.99832 -0.21651301 0.40559998
1.99414 -0.216215 0.39657593
2.0053301 -0.217925 0.37999594
2.0111301 -0.217641 0.36778596
2.02421 -0.218612 0.35390991
2.0111098 -0.22560801 0.40787393
2.0532601 -0.219119 0.38353392
2.0220699 -0.22471701 0.39083198
2.0460899 -0.21792601 0.37929696
2.0388699 -0.21699899 0.37310997
2.0286999 -0.22531201 0.36567399
2.0396399 -0.216518 0.36180091
2.05654 -0.22896901 0.34317994
2.0374999 -0.21483201 0.35417992
2.0420799 -0.21522599 0.34442994
2.0471001 -0.21552601 0.31785995
2.0563099 -0.228337 0.30411994
2.04211 -0.215721 0.31288993
2.04405 -0.215771 0.30258995
2.0302901 -0.210261 0.41391098
2.0257401 -0.209245 0.40774292
2.0078199 -0.21674101 0.40665793
2.02233 -0.20785101 0.39915094
2.0036399 -0.21305799 0.39812699
2.0250001 -0.20846 0.38700494
2.0070601 -0.214964 0.38558891
2.0235 -0.207873 0.37681091
2.02584 -0.220028 0.36461693
2.0255098 -0.208125 0.36600295
2.0573301 -0.242505 0.33354995
2.0364399 -0.22412901 0.34722993
2.02722 -0.209455 0.35510993
2.0685699 -0.24680099 0.31806991
2.04655 -0.22863199 0.33053994
2.03497 -0.21291599 0.33822998
2.0272901 -0.209299 0.33096993
2.0311599 -0.21074601 0.31841996
2.0280299 -0.210115 0.30876991
2.0374498 -0.21459401 0.41329497
2.00897 -0.21845101 0.41825691
2.0324299 -0.213061 0.40805694
2.0032799 -0.215974 0.40963295
2.02683 -0.211657 0.40088692
2.0071299 -0.21558501 0.39836997
2.01949 -0.208957 0.39205092
2.0139501 -0.22004299 0.38331595
2.0269701 -0.211481 0.37665597
2.0289299 -0.223452 0.36363998
2.02965 -0.211827 0.36555091
2.04427 -0.22914401 0.34437996
2.0288401 -0.211687 0.35603997
2.0524001 -0.23429801 0.32930991
2.0328798 -0.21440001 0.34378996
2.05775 -0.23841101 0.31391999
2.03565 -0.216344 0.33404991
