# .PCD v0.7 - Point Cloud Data file format
VERSION 0.7
FIELDS x y z
SIZE 4 4 4
TYPE F F F
COUNT 1 1 1
WIDTH 1622
HEIGHT 1
VIEWPOINT 0 0 0 1 0 0 0
POINTS 1622
DATA ascii
1.8219501 -0.30275401 1.9339389
1.80173 -0.33459401 1.9297529
1.8112301 -0.314504 1.9278859
1.8209599 -0.30092099 1.925244
1.8287399 -0.234154 1.925828
1.89834 -0.22105499 1.903706
1.9067999 -0.21245001 1.901906
1.9071499 -0.20288 1.901839
1.81707 -0.32487801 1.9175509
1.81969 -0.313097 1.91756
1.81541 -0.29849398 1.9177699
1.81883 -0.24460301 1.919634
1.91021 -0.223167 1.893785
1.9117199 -0.21169701 1.8948419
1.9330901 -0.20412901 1.888073
1.81519 -0.324523 1.907864
1.8189501 -0.31360099 1.909301
1.8125501 -0.299905 1.90916
1.8127699 -0.25700399 1.913056
1.8344901 -0.246383 1.906752
1.9081 -0.22543699 1.885224
1.9132401 -0.21169399 1.886441
1.9334599 -0.203803 1.880754
1.80655 -0.324729 1.9012129
1.81433 -0.31433499 1.9010959
1.81251 -0.30076098 1.901039
1.90951 -0.226817 1.87582
1.9202499 -0.21421601 1.8748568
1.92555 -0.20354 1.8751979
1.81209 -0.33652303 1.8912349
1.8045501 -0.32444301 1.8941389
1.81556 -0.31277502 1.8929749
1.91322 -0.228029 1.866581
1.91565 -0.214939 1.866993
1.92436 -0.20388399 1.8655699
1.79941 -0.33571997 1.8866299
1.79839 -0.32458699 1.8870139
1.8094299 -0.31240201 1.886611
1.89193 -0.237477 1.865466
1.8150799 -0.35046798 1.873492
1.79662 -0.336685 1.8802179
1.79064 -0.324588 1.8827369
1.81144 -0.313622 1.877947
1.81625 -0.35182998 1.8671958
1.8017501 -0.33925599 1.8726699
1.79011 -0.313099 1.8788949
1.8955499 -0.219392 1.9714561
1.8911 -0.21891399 1.9648
1.9139999 -0.21315901 1.959949
1.8940401 -0.21875401 1.9569949
1.90192 -0.21132798 1.956221
1.8805499 -0.217766 1.954865
1.8030701 -0.338368 1.942757
1.834 -0.33387798 1.9374179
1.79998 -0.33895099 1.9386659
1.8261501 -0.33435199 1.931671
1.8237801 -0.30627599 1.9339859
1.80496 -0.34089601 1.9324108
1.83964 -0.33418098 1.9201269
1.82804 -0.31979501 1.9248619
1.8192301 -0.24819201 1.929971
1.8233099 -0.236534 1.9301
1.8255 -0.226707 1.9300599
1.8964701 -0.219871 1.906711
1.8302499 -0.318786 1.916344
1.82328 -0.306169 1.918947
1.82935 -0.24931601 1.9193798
1.92081 -0.233888 1.8932559
1.91034 -0.22369699 1.8970529
1.81354 -0.30168 1.9116849
1.82085 -0.26088899 1.912995
1.9197099 -0.232834 1.8865219
1.91459 -0.224079 1.8885849
1.8207899 -0.31694499 1.8978959
1.8236099 -0.26026401 1.9045
1.9186301 -0.23378 1.878201
1.91479 -0.225143 1.8797789
1.80313 -0.33924198 1.892947
1.8043699 -0.328574 1.893857
1.82487 -0.32173002 1.8886369
1.92318 -0.23385599 1.8679109
1.9153999 -0.224426 1.870692
1.8010001 -0.33864799 1.8876458
1.7994299 -0.32806501 1.888409
1.91131 -0.224198 1.863297
1.78877 -0.335686 1.8838829
1.7949201 -0.32853401 1.8814769
1.78886 -0.33695802 1.875986
1.78176 -0.32727799 1.878256
1.79003 -0.33813599 1.869352
1.91427 -0.20798099 1.9774719
1.9021801 -0.21587799 1.9727139
1.91642 -0.20822799 1.968033
1.9010201 -0.216033 1.963201
1.91319 -0.20773399 1.960968
1.84813 -0.337127 1.955331
1.8294001 -0.32195899 1.960362
1.8985801 -0.21608299 1.9556929
1.9034101 -0.206278 1.956129
1.84084 -0.343297 1.949566
1.8311501 -0.33112499 1.9535871
1.83772 -0.325223 1.9517239
1.88653 -0.21296801 1.953236
1.8014799 -0.33267602 1.9497299
1.83024 -0.331568 1.945681
1.8341701 -0.32367298 1.945622
1.8097399 -0.32636699 1.9416519
1.82935 -0.32206199 1.9389451
1.8060499 -0.324655 1.9343909
1.8105701 -0.31269699 1.9338809
1.8177699 -0.265533 1.937554
1.82846 -0.24333799 1.934281
1.80698 -0.32278302 1.926996
1.8123 -0.31137502 1.9244009
1.82042 -0.25408301 1.927789
1.87491 -0.22533199 1.9132049
1.89985 -0.217115 1.9067459
1.9139301 -0.208776 1.903302
1.80194 -0.32004201 1.920419
1.8186301 -0.31286699 1.9136299
1.81493 -0.26666099 1.9204979
1.9031199 -0.22965099 1.8986059
1.90724 -0.216452 1.899166
1.9169 -0.208717 1.895779
1.81367 -0.32406399 1.905831
1.8180299 -0.31178302 1.9053749
1.82107 -0.26864201 1.909801
1.9091201 -0.23213899 1.8874979
1.9064101 -0.216675 1.8917428
1.9187601 -0.209282 1.8868129
1.7996899 -0.331146 1.9007349
1.80504 -0.32361498 1.899547
1.8153701 -0.31359601 1.8975519
1.81153 -0.296249 1.9012709
1.91321 -0.23303899 1.8771149
1.9054401 -0.21707501 1.88278
1.92015 -0.20993 1.877098
1.79813 -0.332304 1.8928059
1.80855 -0.32420897 1.891287
1.8157201 -0.31419301 1.8890399
1.9131 -0.23291402 1.869247
1.9115 -0.21920601 1.8713669
1.92134 -0.209849 1.86752
1.81354 -0.35361698 1.875737
1.8138499 -0.34256801 1.8778169
1.8099 -0.32541198 1.8823619
1.8143699 -0.31074601 1.8823459
1.91091 -0.232804 1.8610559
1.90982 -0.216984 1.8630451
1.80935 -0.35211399 1.8708969
1.81488 -0.34419301 1.869529
1.8140401 -0.35379699 1.8611389
1.89494 -0.218035 1.974605
1.8932201 -0.21832199 1.966363
1.8924 -0.218078 1.9603031
1.81652 -0.338186 1.950936
1.82426 -0.332766 1.950762
1.8016601 -0.33213797 1.948275
1.81582 -0.329018 1.9465889
1.80452 -0.31558999 1.9519899
1.8252499 -0.250487 1.9513919
1.81022 -0.326242 1.9399339
1.8259101 -0.32302898 1.937061
1.81593 -0.27754501 1.9429278
1.8171 -0.31780899 1.9316789
1.8200999 -0.26422301 1.9343179
1.79562 -0.31731302 1.9266189
1.80584 -0.30712998 1.9258599
1.8151801 -0.2642 1.9272189
1.82295 -0.25184301 1.927608
1.8994501 -0.23158599 1.9051731
1.90027 -0.22059999 1.9063859
1.81323 -0.325699 1.911364
1.8028101 -0.30716401 1.916398
1.8224001 -0.252312 1.918087
1.9110899 -0.233991 1.895299
1.90276 -0.22108001 1.8996199
1.80847 -0.33434701 1.903622
1.8029699 -0.32048598 1.9060049
1.80681 -0.30757999 1.906234
1.81858 -0.265854 1.90894
1.9111199 -0.23519899 1.886366
1.9094599 -0.223405 1.8898909
1.7966599 -0.330212 1.8984571
1.7999099 -0.320173 1.898245
1.8060899 -0.309551 1.898837
1.8152499 -0.29730099 1.896928
1.9120101 -0.236 1.8762571
1.90906 -0.22372 1.880631
1.78333 -0.32706699 1.8936909
1.793 -0.32010502 1.8918409
1.8069299 -0.31020799 1.8895569
1.9131399 -0.23616 1.8666539
1.9099201 -0.22406201 1.8709639
1.78174 -0.327672 1.8853509
1.79817 -0.32134202 1.882215
1.82085 -0.31273499 1.8764889
1.9121001 -0.22444001 1.8612438
1.786 -0.341162 1.8754109
1.77552 -0.32550701 1.8805969
1.8054401 -0.32382402 1.8735629
1.78116 -0.33959702 1.8710949
1.81192 -0.349397 1.9448669
1.80185 -0.342264 1.9412259
1.8097 -0.344226 1.931816
1.79065 -0.30909801 1.931747
1.8138901 -0.267809 1.9294739
1.82149 -0.255077 1.929003
1.8300301 -0.24348199 1.928823
1.84141 -0.234009 1.926258
1.7926199 -0.30651 1.9221019
1.8184199 -0.270033 1.91825
1.82585 -0.25645101 1.9194609
1.8200301 -0.334728 1.8990909
1.80625 -0.314118 1.9061619
1.82412 -0.25964701 1.909717
1.80435 -0.32850102 1.8961209
1.81129 -0.31733701 1.895887
1.81306 -0.34685901 1.8841919
1.80173 -0.33101001 1.888183
1.80879 -0.31995001 1.8879999
1.81356 -0.303545 1.8883719
1.81832 -0.28672099 1.891019
1.8200101 -0.26984599 1.892702
1.79839 -0.34054297 1.880733
1.7963699 -0.32807899 1.881942
1.8165801 -0.32049701 1.8772219
1.79075 -0.337127 1.8755538
1.7927901 -0.32649201 1.876032
1.79837 -0.34165099 1.8666849
1.9226899 -0.22750601 1.9797959
1.9227201 -0.22876801 1.9715959
1.9292599 -0.224333 1.9661909
1.92194 -0.229123 1.9558679
1.9242799 -0.227258 1.9484658
1.92022 -0.227608 1.938732
1.9186599 -0.24158101 1.936066
1.8763299 -0.22485901 1.9187149
1.8955799 -0.225824 1.9240658
1.9212199 -0.22430401 1.9321519
1.91923 -0.238176 1.9295839
1.88622 -0.220466 1.9156768
1.9019501 -0.22136101 1.919883
1.9159199 -0.227173 1.922668
1.91765 -0.24201201 1.9214119
1.88518 -0.221572 1.907596
1.9039199 -0.22082399 1.913501
1.92117 -0.22416599 1.9155929
1.91922 -0.24126801 1.9133279
1.90813 -0.22054 1.906014
1.9254401 -0.221775 1.9100589
1.91959 -0.23794201 1.9055809
1.90773 -0.220203 1.8963418
1.9261999 -0.222297 1.9027139
1.9211501 -0.240657 1.897366
1.87837 -0.22277099 1.8781971
1.90417 -0.21879299 1.8871089
1.9250799 -0.21924801 1.8941269
1.92459 -0.23435499 1.89159
1.88736 -0.218329 1.875596
1.90988 -0.21642099 1.8823209
1.92988 -0.218685 1.8879199
1.92422 -0.236435 1.8829169
1.90084 -0.211877 1.8722169
1.91746 -0.21465799 1.8769449
1.93139 -0.220164 1.8808399
1.92451 -0.237591 1.8747541
1.89771 -0.21232501 1.8618149
1.91468 -0.214065 1.867806
1.93085 -0.219643 1.87256
1.9228101 -0.24019699 1.8656079
1.93032 -0.216675 1.8649399
1.92629 -0.233953 1.860078
1.9274899 -0.227909 1.97594
1.92861 -0.22610599 1.9690188
1.9207201 -0.239335 1.964913
1.9295501 -0.22584 1.9620349
1.92709 -0.22664499 1.9522491
1.9211301 -0.240145 1.9493579
1.9084899 -0.22428301 1.93963
1.9286901 -0.22349301 1.944883
1.92362 -0.23913099 1.9429801
1.9090401 -0.222763 1.9326249
1.9293801 -0.22196199 1.938615
1.92925 -0.23356399 1.9371039
1.9138499 -0.22005101 1.92693
1.9254401 -0.22437401 1.9297378
1.9236901 -0.239371 1.926899
1.91345 -0.220431 1.919052
1.9296499 -0.221779 1.9239749
1.9284101 -0.233358 1.9217839
1.92222 -0.25007901 1.9170839
1.91558 -0.219712 1.911184
1.93005 -0.22215 1.9172111
1.92948 -0.23474899 1.914359
1.91028 -0.221432 1.901014
1.92854 -0.22395901 1.9080648
1.9207001 -0.24110299 1.9034729
1.91164 -0.220382 1.8944529
1.9307899 -0.22106101 1.900329
1.92259 -0.239427 1.896251
1.91347 -0.21911401 1.887585
1.93222 -0.22017799 1.8935269
1.9317999 -0.23197399 1.891686
1.88499 -0.218713 1.8689299
1.9053301 -0.21975201 1.8761249
1.93521 -0.21868901 1.8868669
1.92865 -0.23699301 1.8818049
1.8854201 -0.219249 1.8629889
1.91596 -0.215985 1.8727909
1.93506 -0.21846099 1.879213
1.9351 -0.230555 1.8774179
1.91903 -0.253232 1.867813
1.8995301 -0.21355 1.8600879
1.91258 -0.21764 1.86342
1.93082 -0.22152399 1.870065
1.92838 -0.236369 1.8667789
1.93039 -0.219787 1.862471
1.9211999 -0.227057 1.9747299
1.9281 -0.2332 1.9775079
1.9203501 -0.22750999 1.9668908
1.92338 -0.235285 1.9687171
1.9184101 -0.228214 1.9587799
1.9216499 -0.23614201 1.960526
1.92407 -0.22580601 1.9532249
1.9223801 -0.235838 1.9531009
1.92559 -0.225152 1.9468399
1.92617 -0.234447 1.9460889
1.9261501 -0.224446 1.9397559
1.9316499 -0.23213699 1.9406979
1.89526 -0.22384001 1.920877
1.92168 -0.223553 1.930155
1.9287399 -0.23282601 1.9320929
1.9035499 -0.22164302 1.9184669
1.9272799 -0.222505 1.925779
1.93677 -0.229469 1.927797
1.9238299 -0.246768 1.921265
1.92967 -0.221332 1.920437
1.9319 -0.23079 1.9190189
1.8965 -0.22217199 1.896647
1.9327099 -0.220854 1.913703
1.92513 -0.234493 1.9077491
1.9029601 -0.22015801 1.893815
1.9260001 -0.22132601 1.9025619
1.9311501 -0.23018499 1.902473
1.9235801 -0.24717599 1.8982179
1.92837 -0.25871798 1.8991739
1.90605 -0.219813 1.8886139
1.93152 -0.21986601 1.8979419
1.92939 -0.23187201 1.894648
1.92147 -0.24786501 1.888729
1.9287 -0.25832999 1.8921061
1.90865 -0.21854299 1.880972
1.9308701 -0.21986499 1.8903689
1.93231 -0.23073401 1.8881069
1.9182601 -0.249294 1.8797519
1.9267 -0.258728 1.883203
1.9114 -0.217296 1.8746909
1.9323 -0.218795 1.882213
1.93813 -0.227962 1.883402
1.91216 -0.217418 1.8675699
1.93867 -0.21592501 1.877275
1.9386799 -0.22573401 1.8752769
1.9305 -0.26987898 1.866387
1.9360499 -0.21707399 1.8694609
1.9355299 -0.22771299 1.8660769
1.9337399 -0.21831699 1.8608381
1.93086 -0.22872299 1.9782029
1.9215699 -0.24015899 1.9731588
1.9300599 -0.22839399 1.9703839
1.9031199 -0.22445601 1.9520611
1.92862 -0.22664699 1.9614619
1.9207201 -0.23878402 1.9572439
1.90762 -0.223019 1.9477021
1.92673 -0.22736299 1.9537439
1.92081 -0.240861 1.9504759
1.9043201 -0.222819 1.9399269
1.9271899 -0.22452401 1.9471229
1.92597 -0.23608801 1.945383
1.9067 -0.222528 1.933938
1.93116 -0.22491199 1.940997
1.9258701 -0.238423 1.93741
1.9157699 -0.22135 1.9287391
1.9349201 -0.22570601 1.9349029
1.9273599 -0.23775101 1.9313699
1.9253399 -0.24913299 1.9297509
1.91504 -0.22066799 1.9201599
1.93879 -0.22307301 1.929198
1.9289 -0.236976 1.9255871
1.92422 -0.25023299 1.9216049
1.91644 -0.22012199 1.9133201
1.93679 -0.222369 1.9216778
1.93408 -0.23511299 1.919234
1.91427 -0.22054501 1.9052169
1.93478 -0.223391 1.9138899
1.9383999 -0.2326 1.9128158
1.9289501 -0.26237601 1.9077269
1.9145799 -0.220332 1.898443
1.9335999 -0.223735 1.9054869
1.93413 -0.23555401 1.9037329
1.9359 -0.28218499 1.8985919
1.91581 -0.22089899 1.8913598
1.9376601 -0.22473301 1.8991519
1.9326601 -0.237822 1.8956709
1.9358701 -0.28354201 1.892175
1.93558 -0.29172 1.8899209
1.91756 -0.21917601 1.8836399
1.93433 -0.22392599 1.8905429
1.9419701 -0.232356 1.893116
1.9196299 -0.25177899 1.882062
1.89911 -0.21319599 1.8683659
1.91224 -0.218757 1.8735778
1.9340401 -0.222479 1.883449
1.93425 -0.23435 1.8823669
1.9193699 -0.25227699 1.8730289
1.92849 -0.26191899 1.876977
1.9367501 -0.28254998 1.8772349
1.91048 -0.210417 1.8668309
1.9139199 -0.21863399 1.8673569
1.9344001 -0.223851 1.8759478
1.93172 -0.237773 1.8727479
1.91837 -0.253463 1.8649869
1.92607 -0.26223001 1.8679429
1.9167399 -0.217061 1.8615969
1.9333099 -0.223425 1.8676939
1.93778 -0.23330098 1.8689929
1.9402901 -0.29148999 1.8617849
1.9383399 -0.23311399 1.861546
1.93371 -0.229247 1.979283
1.9253 -0.239033 1.9759588
1.9285899 -0.29506901 1.97303
1.9314599 -0.229912 1.9713959
1.9344901 -0.22907801 1.9653289
1.92571 -0.238934 1.9617749
1.9328599 -0.22998101 1.9575338
1.92709 -0.240357 1.9549469
1.93299 -0.230133 1.9496139
1.93595 -0.23706 1.9516269
1.93312 -0.22951201 1.942327
1.93101 -0.23882401 1.9424319
1.94145 -0.22735901 1.939186
1.9364301 -0.236159 1.936914
1.94082 -0.227879 1.932861
1.93705 -0.23719101 1.9298419
1.93918 -0.22890601 1.925202
1.9385099 -0.237029 1.9230139
1.93659 -0.284004 1.919179
1.93479 -0.294312 1.9162799
1.93478 -0.229698 1.9162899
1.9322701 -0.238345 1.913493
1.93366 -0.27259099 1.9115869
1.93488 -0.28310302 1.911335
1.93696 -0.22928801 1.9098359
1.93812 -0.23722099 1.9083459
1.9420301 -0.29362699 1.904971
1.9423 -0.22801299 1.904631
1.94028 -0.235888 1.9020499
1.93516 -0.29522899 1.895044
1.93268 -0.307616 1.8932589
1.94216 -0.228029 1.8972589
1.93721 -0.237243 1.893486
1.9362301 -0.28438199 1.889578
1.9371099 -0.305098 1.8880889
1.9433099 -0.22810601 1.890372
1.9359801 -0.23760299 1.885679
1.94171 -0.227834 1.88203
1.94244 -0.23501499 1.8807369
1.93681 -0.30494899 1.872231
1.94289 -0.22568101 1.8738209
1.94899 -0.23151501 1.8763499
1.94426 -0.22424601 1.867005
1.9475399 -0.231071 1.8691159
1.94675 -0.23047899 1.861817
1.8035201 -0.27083901 1.967742
1.81339 -0.25765601 1.9630799
1.8133299 -0.31445399 1.956738
1.8125399 -0.257597 1.953727
1.81058 -0.30029899 1.946834
1.8051699 -0.29998502 1.93472
1.79344 -0.310321 1.923035
1.80829 -0.30025199 1.9270909
1.81639 -0.249011 1.9253339
1.77428 -0.31992 1.9104509
1.79526 -0.312345 1.915082
1.81539 -0.258908 1.918154
1.83018 -0.25031501 1.920947
1.77057 -0.318555 1.9032691
1.80741 -0.31331301 1.9094789
1.80345 -0.301557 1.90802
1.7804899 -0.32235599 1.8905789
1.80847 -0.313593 1.9004239
1.80627 -0.29859 1.900427
1.78633 -0.33382902 1.886799
1.79039 -0.32420799 1.8869439
1.80898 -0.31362599 1.8920701
1.8119999 -0.301617 1.894093
1.81285 -0.28704202 1.893909
1.8212399 -0.27320701 1.894522
1.8965601 -0.228781 1.9089719
1.7830499 -0.33397597 1.8790689
1.78826 -0.325829 1.8784509
1.8157699 -0.316733 1.885421
1.81446 -0.30044702 1.886084
1.81609 -0.28533599 1.8861319
1.8932401 -0.227302 1.90177
1.7835499 -0.33429798 1.871915
1.80735 -0.32725602 1.8766209
1.8952299 -0.226779 1.8947378
1.79185 -0.33518001 1.868333
1.9008099 -0.22758101 1.8889259
1.908 -0.219207 1.8900809
1.9019099 -0.23596901 1.8817639
1.9027499 -0.226732 1.880289
1.9085699 -0.23574699 1.8731929
1.9003199 -0.226364 1.8695788
1.9159 -0.23721901 1.866564
1.8976101 -0.22652501 1.8610749
1.9017799 -0.21859199 1.86155
1.8007001 -0.328908 1.9585719
1.82582 -0.30654201 1.971422
1.81706 -0.30629399 1.959543
1.80854 -0.26166299 1.9536358
1.8081599 -0.30594802 1.9482189
1.80847 -0.306537 1.939536
1.7963001 -0.314071 1.9249021
1.8003999 -0.30395001 1.9278389
1.81312 -0.24890101 1.925815
1.83373 -0.241688 1.930444
1.91021 -0.22643101 1.9515779
1.80678 -0.317269 1.918139
1.8019999 -0.30276099 1.9183381
1.8279899 -0.251017 1.9217269
1.90567 -0.22663799 1.9424739
1.7867999 -0.323699 1.9043149
1.8096001 -0.319258 1.911239
1.8067 -0.30586201 1.910392
1.8195399 -0.26309201 1.9112469
1.91064 -0.225949 1.9351279
1.78625 -0.32574901 1.8962529
1.8085201 -0.32049 1.903114
1.8133299 -0.30917001 1.9045739
1.82091 -0.26584899 1.9025329
1.9026401 -0.22277001 1.9232469
1.7905999 -0.32867402 1.8899609
1.79496 -0.31941798 1.8906579
1.81429 -0.308644 1.8954359
1.8043801 -0.29113501 1.891785
1.81552 -0.279331 1.894357
1.92348 -0.243167 1.922869
1.89539 -0.21866399 1.911973
1.9227699 -0.21489599 1.920141
1.7911301 -0.32975799 1.8820099
1.8069201 -0.32093298 1.88553
1.8177099 -0.307946 1.886364
1.81549 -0.29307801 1.8871731
1.90668 -0.21773399 1.905412
1.9126601 -0.211401 1.9087059
1.7810299 -0.33783299 1.8727859
1.79564 -0.330789 1.8763418
1.8147501 -0.31994599 1.8795481
1.89959 -0.21700799 1.89377
1.9144599 -0.21103701 1.899758
1.79194 -0.34131598 1.8702999
1.8979 -0.21962999 1.884267
1.9136599 -0.211798 1.889259
1.88658 -0.23375 1.8742709
1.8979801 -0.219882 1.8761119
1.9142799 -0.212043 1.8808649
1.8937 -0.23181801 1.8679609
1.8945301 -0.21961799 1.8657719
1.91751 -0.213001 1.873107
1.90622 -0.21152599 1.8604379
1.82059 -0.25733298 1.9677179
1.7989399 -0.33198202 1.9576149
1.8066001 -0.26802 1.947309
1.8918099 -0.22035101 1.958811
1.80138 -0.31463599 1.9307441
1.79721 -0.29952201 1.928093
1.8925101 -0.22139901 1.9490939
1.7999099 -0.323338 1.9229529
1.8053999 -0.313393 1.9239689
1.8178999 -0.25898099 1.920784
1.82658 -0.24630399 1.9229089
1.90069 -0.223454 1.9408859
1.7992301 -0.32341301 1.912136
1.8047999 -0.312401 1.9143909
1.90784 -0.223911 1.933458
1.79171 -0.323834 1.9002739
1.80553 -0.31471398 1.9049759
1.80678 -0.299932 1.9048591
1.9076401 -0.223363 1.9255021
1.7876101 -0.33422199 1.8927029
1.78676 -0.32403901 1.891008
1.80679 -0.31697902 1.8959399
1.81155 -0.30231002 1.897244
1.8057899 -0.28456801 1.895541
1.8167701 -0.273931 1.8952609
1.90327 -0.22301599 1.9161649
1.7895399 -0.33588201 1.8853619
1.8021699 -0.32767799 1.8878859
1.81401 -0.318106 1.8899369
1.81507 -0.30384001 1.888615
1.8173399 -0.288214 1.889769
1.8980701 -0.222638 1.9045819
1.78974 -0.33741 1.878467
1.79536 -0.32818699 1.8791789
1.8135 -0.31724 1.88148
1.8931199 -0.230483 1.8942169
1.9026101 -0.22166701 1.8962549
1.8039399 -0.34314001 1.8768359
1.88959 -0.23125799 1.883582
1.89556 -0.218016 1.8847089
1.8952 -0.232412 1.876467
1.9011099 -0.218768 1.876423
1.9283299 -0.20930201 1.8833139
1.9397 -0.19985399 1.885892
1.8928101 -0.231534 1.8668039
1.9020599 -0.21695499 1.8672699
1.91571 -0.20695201 1.8710579
1.9252601 -0.19787599 1.874213
1.90731 -0.20592399 1.8604
1.92564 -0.19902201 1.8642509
1.82026 -0.25519198 1.9733161
1.7990299 -0.34000197 1.962175
1.81393 -0.268087 1.9648399
1.81578 -0.251941 1.961924
1.81424 -0.26835501 1.955614
1.88422 -0.217503 1.968345
1.8016499 -0.32122698 1.946259
1.88515 -0.217638 1.9586009
1.88817 -0.21809798 1.949932
1.9155201 -0.216399 1.957793
1.80372 -0.314928 1.9281099
1.81706 -0.253196 1.9250339
1.89539 -0.21980499 1.9434439
1.79837 -0.32371601 1.919588
1.7984101 -0.31206802 1.91781
1.8194001 -0.25638902 1.9165078
1.83254 -0.24513201 1.9194549
1.89311 -0.21953301 1.933566
1.79685 -0.32178602 1.9095639
1.80316 -0.31326598 1.910604
1.8264101 -0.25590599 1.909953
1.8953 -0.222138 1.9251869
1.793 -0.32160401 1.898698
1.7960401 -0.30924699 1.899527
1.82441 -0.25979799 1.9007069
1.89402 -0.222029 1.91526
1.77525 -0.32742199 1.8849109
1.7767799 -0.317516 1.8853999
1.7944701 -0.31283 1.8899069
1.80424 -0.29916599 1.8904529
1.80976 -0.28367501 1.8921499
1.8227401 -0.27284402 1.892996
1.89889 -0.22349301 1.9074249
1.78302 -0.32072699 1.879483
1.7975301 -0.312179 1.881662
1.81317 -0.301121 1.882746
1.81776 -0.285909 1.884353
1.9025999 -0.235714 1.9007089
1.89983 -0.22299699 1.8980829
1.7758 -0.32913503 1.871187
1.7901801 -0.32297501 1.874072
1.8114101 -0.31380302 1.876689
1.8214799 -0.30267599 1.8763241
1.82149 -0.28864598 1.8757609
1.90601 -0.22459999 1.889802
1.7825199 -0.33203 1.8670329
1.89671 -0.23530599 1.880425
1.90681 -0.222481 1.879545
1.9180299 -0.215709 1.882473
1.9059501 -0.23481399 1.872541
1.90319 -0.219945 1.8703079
1.9147099 -0.21323499 1.8725569
1.9045799 -0.238185 1.863186
1.9067 -0.221884 1.8624039
1.91313 -0.212237 1.863084
1.8179801 -0.27526599 1.9665039
1.8127999 -0.258921 1.96232
1.89631 -0.20836399 1.97901
1.8986099 -0.198652 1.9796618
1.89788 -0.210943 1.9716139
1.8944299 -0.21263599 1.9592729
1.8955499 -0.212409 1.949801
1.80248 -0.32149899 1.9293089
1.8007699 -0.30609801 1.9270771
1.8110299 -0.254513 1.9233811
1.8282001 -0.24788201 1.9267009
1.89065 -0.222882 1.9386079
1.8960099 -0.21287599 1.9410999
1.80401 -0.33239201 1.9240429
1.79842 -0.31683299 1.919294
1.8310001 -0.24934 1.918988
1.8897301 -0.222122 1.928992
1.89754 -0.214073 1.9319389
1.7756599 -0.32049999 1.8999989
1.8116601 -0.324985 1.9154348
1.80618 -0.30812299 1.9107449
1.81647 -0.25822002 1.9058409
1.89557 -0.22696599 1.9223078
1.89671 -0.21387899 1.921294
1.7751 -0.32000598 1.8936479
1.7927201 -0.31587601 1.8984189
1.7979699 -0.30059999 1.898675
1.82231 -0.261356 1.897172
1.89548 -0.223773 1.912517
1.8987801 -0.21315399 1.911832
1.7877201 -0.32601601 1.8893329
1.7958901 -0.31664199 1.889621
1.80058 -0.30474401 1.890985
1.80617 -0.28947601 1.890444
1.8159801 -0.27565399 1.889081
1.82472 -0.26244199 1.8891069
1.8983799 -0.22749901 1.9048389
1.89888 -0.213034 1.9017639
1.78694 -0.32602701 1.8809869
1.79602 -0.317754 1.880957
1.8056101 -0.30514601 1.882766
1.81522 -0.29174101 1.8834701
1.82104 -0.27989301 1.8816409
1.8252901 -0.26583001 1.8812839
1.8937601 -0.225869 1.8937298
1.8974 -0.21028799 1.8908589
1.8979499 -0.199278 1.8909189
1.79538 -0.32937199 1.8761079
1.81871 -0.326695 1.878754
1.82099 -0.313402 1.877311
1.8189399 -0.29409599 1.875074
1.8225399 -0.27748001 1.873139
1.89185 -0.22212601 1.883432
1.8940899 -0.20875999 1.8803859
1.90149 -0.199661 1.8830769
1.88907 -0.223573 1.873331
1.89499 -0.21045999 1.871707
1.89483 -0.19733 1.8709239
1.89627 -0.224958 1.8654059
1.89168 -0.207276 1.862108
1.9132401 -0.203768 1.865538
1.90416 -0.22184901 1.97355
1.90488 -0.221294 1.9661729
1.9047501 -0.222433 1.9590188
1.90442 -0.22225501 1.9503239
1.91287 -0.220413 1.9392051
1.89903 -0.21131 1.937803
1.91588 -0.219409 1.9313599
1.9103501 -0.22882999 1.934787
1.8970599 -0.21136101 1.9323258
1.91839 -0.21963699 1.9244059
1.9070899 -0.22952801 1.928653
1.91491 -0.22145501 1.9187931
1.9062899 -0.232379 1.9212719
1.9155499 -0.22190599 1.9099021
1.90931 -0.23018299 1.913373
1.9174 -0.22177 1.9015919
1.91273 -0.22946301 1.9053169
1.9200901 -0.221397 1.8932469
1.9161301 -0.227818 1.8964779
1.9243801 -0.22114201 1.884572
1.92203 -0.22735901 1.8868949
1.9246001 -0.22157601 1.877836
1.92356 -0.22835301 1.8782818
1.9208 -0.22204901 1.8719139
1.91239 -0.231702 1.874074
1.9250101 -0.22179399 1.8628699
1.9179 -0.228734 1.8664099
1.9135801 -0.216777 1.97496
1.9115199 -0.226539 1.9749839
1.91017 -0.21626 1.9689859
1.9147201 -0.225436 1.966861
1.9086 -0.21664801 1.9617959
1.91131 -0.22721201 1.9604599
1.9064599 -0.21544901 1.9549179
1.91123 -0.225096 1.9525299
1.90957 -0.214322 1.9463519
1.91373 -0.224617 1.94383
1.89508 -0.20063899 1.944899
1.9117399 -0.214564 1.9389039
1.90851 -0.22580601 1.9384059
1.84121 -0.32691002 1.9566199
1.9081399 -0.21361999 1.933404
1.90747 -0.22547199 1.9305589
1.84403 -0.328522 1.9493148
1.91093 -0.21670799 1.923429
1.9132 -0.22589399 1.9219319
1.8323101 -0.328284 1.946893
1.8971001 -0.215106 1.920918
1.9077901 -0.22488301 1.917007
1.8399299 -0.328628 1.937572
1.8979601 -0.215075 1.9139439
1.9061199 -0.224223 1.909634
1.9030299 -0.215903 1.904534
1.91294 -0.225247 1.898931
1.9177099 -0.21781 1.8916969
1.91847 -0.22668301 1.889717
1.8379101 -0.32829103 1.9143089
1.9192901 -0.21731701 1.8827039
1.9235801 -0.227101 1.8815629
1.8991499 -0.23577699 1.8895481
1.89726 -0.204172 1.882347
1.92116 -0.215662 1.8753989
1.91682 -0.22607 1.876563
1.8943801 -0.20272699 1.8778698
1.9157699 -0.214203 1.870737
1.9214599 -0.225844 1.8670999
1.8984801 -0.236119 1.874166
1.89045 -0.20156999 1.874509
1.91581 -0.227925 1.8618751
1.89776 -0.237404 1.866989
1.9086099 -0.206301 1.978851
1.91522 -0.21701799 1.9741549
1.90757 -0.20613301 1.9714569
1.9195501 -0.21676201 1.964818
1.9087601 -0.206462 1.963273
1.9139501 -0.217355 1.9590859
1.9149801 -0.20820299 1.953198
1.9113801 -0.21622299 1.951787
1.90483 -0.22675501 1.954422
1.90845 -0.206595 1.94765
1.91822 -0.21772601 1.9416929
1.9078701 -0.22580601 1.9462059
1.91291 -0.208022 1.9384129
1.91573 -0.21738 1.935022
1.9075799 -0.227635 1.9383889
1.8368201 -0.32707402 1.954103
1.91177 -0.208536 1.9315839
1.9184599 -0.217848 1.9278699
1.91196 -0.226147 1.92924
1.8361701 -0.32853803 1.94765
1.9165801 -0.218851 1.922253
1.9085699 -0.226348 1.9228839
1.8388901 -0.32887 1.9404749
1.8149899 -0.33480701 1.947956
1.9121801 -0.21907601 1.914682
1.8972099 -0.22303399 1.9192209
1.83834 -0.32930303 1.9336849
1.91356 -0.218895 1.9055569
1.90088 -0.223395 1.911064
1.8379401 -0.32801399 1.925259
1.92036 -0.21932699 1.894942
1.9004101 -0.222727 1.9031329
1.83218 -0.32713401 1.9190838
1.9098101 -0.20815901 1.891817
1.9211099 -0.21870001 1.888327
1.90602 -0.22510901 1.892686
1.8283299 -0.325757 1.9123199
1.9126199 -0.20816499 1.884457
1.9173801 -0.21822099 1.8825001
1.9016299 -0.22712401 1.8865449
1.82662 -0.32655999 1.903837
1.9189999 -0.20938401 1.8751019
1.91664 -0.21867399 1.8749379
1.90719 -0.22710399 1.878428
1.80265 -0.32581198 1.9031889
1.9151601 -0.208207 1.8689209
1.9196 -0.21805401 1.866722
1.9063499 -0.228055 1.871057
1.81707 -0.31973201 1.891548
1.80768 -0.32710898 1.8947378
1.79338 -0.33390701 1.898797
1.915 -0.20834999 1.8616018
1.9122 -0.22668301 1.861712
1.88073 -0.23576401 1.8700479
1.8131599 -0.319552 1.8856779
1.81067 -0.32764 1.886287
1.7880499 -0.33370399 1.892784
1.85429 -0.23303699 1.8691249
1.8079201 -0.31962901 1.8796899
1.7960401 -0.32743901 1.882972
1.78265 -0.33445799 1.886705
1.85194 -0.23286 1.8631048
1.81248 -0.319913 1.871915
1.78977 -0.325652 1.87823
1.7928901 -0.335206 1.8775669
1.7982401 -0.31757998 1.870739
1.7824299 -0.332854 1.8751149
1.9140601 -0.21332198 1.9799119
1.91198 -0.202978 1.975174
1.91682 -0.213212 1.9710069
1.9122 -0.224314 1.9717549
1.9151199 -0.20386 1.9655409
1.91873 -0.21493201 1.9633709
1.91759 -0.22652 1.9612499
1.90931 -0.20208 1.95996
1.91851 -0.21445499 1.955835
1.92177 -0.22737101 1.9517169
1.9080299 -0.20302999 1.95338
1.92338 -0.217283 1.946442
1.92144 -0.22689301 1.944818
1.91953 -0.217702 1.9400669
1.9142101 -0.226882 1.9408679
1.82765 -0.32404301 1.956949
1.91871 -0.21792699 1.9312079
1.91263 -0.22637899 1.933895
1.82974 -0.32337001 1.9508491
1.8119099 -0.33129397 1.9556689
1.80532 -0.34031799 1.9556979
1.91664 -0.217281 1.924686
1.91107 -0.22496599 1.9260309
1.83038 -0.323493 1.9433819
1.8090401 -0.33195099 1.9497739
1.91493 -0.21702601 1.9184299
1.9031199 -0.22203501 1.9206749
1.8317599 -0.32376802 1.9365078
1.90582 -0.21394199 1.9128119
1.90142 -0.21962601 1.9138049
1.9131199 -0.21625799 1.9015779
1.9020599 -0.21992399 1.906238
1.9190401 -0.21845199 1.8917069
1.9128101 -0.22463699 1.89413
1.7967501 -0.325414 1.9250059
1.92251 -0.219051 1.883427
1.91968 -0.226952 1.884869
1.88998 -0.232278 1.8923059
1.92268 -0.21900299 1.876842
1.91833 -0.22580299 1.877861
1.87409 -0.23110901 1.8894559
1.9242101 -0.219312 1.8694819
1.9260499 -0.22704099 1.866976
1.8729601 -0.232668 1.8825541
1.86127 -0.22894 1.8799369
1.9133501 -0.22591299 1.979327
1.91545 -0.226266 1.971324
1.9102299 -0.225114 1.9653039
1.91313 -0.225932 1.956532
1.91556 -0.22707899 1.9482939
1.91511 -0.227154 1.9406419
1.91245 -0.23528601 1.938936
1.91039 -0.225394 1.934616
1.90439 -0.22350401 1.929588
1.8968401 -0.22061799 1.9263899
1.8469599 -0.21422701 1.9374219
1.8419 -0.220873 1.936693
1.83857 -0.21095501 1.932513
1.83002 -0.21493201 1.9341959
1.9014599 -0.22261401 1.89965
1.84077 -0.21161501 1.9261069
1.8276 -0.21487899 1.9294989
1.91053 -0.22619699 1.8913178
1.89823 -0.23220301 1.8948849
1.9087 -0.225522 1.884995
1.8986501 -0.231575 1.8883851
1.91267 -0.226776 1.8761829
1.90602 -0.23388299 1.8785919
1.91697 -0.227026 1.867431
1.9091201 -0.234191 1.870528
1.91205 -0.21153499 1.8608021
1.905 -0.23237601 1.8639009
1.9385899 -0.239095 1.976728
1.9348599 -0.23896798 1.9675338
1.94807 -0.24690399 1.9735659
1.93575 -0.25373 1.9675698
1.9296499 -0.23797101 1.958546
1.9469501 -0.24661699 1.9652981
1.93484 -0.254143 1.9598728
1.9097099 -0.22725099 1.941592
1.9363099 -0.23737 1.953512
1.94488 -0.24673401 1.9574798
1.91064 -0.22729701 1.9361579
1.9304299 -0.23542 1.9443159
1.9459599 -0.24480399 1.950539
1.9388601 -0.23706301 1.9400369
1.9499099 -0.24488701 1.943891
1.93995 -0.23822901 1.9313819
1.95327 -0.24593599 1.9368539
1.94039 -0.238589 1.9244189
1.9497099 -0.24636 1.928062
1.9469 -0.25562799 1.925579
1.94547 -0.23970899 1.9192749
1.95653 -0.24833401 1.923949
1.94261 -0.25713101 1.9172291
1.94899 -0.26764402 1.918295
1.94101 -0.23976 1.909158
1.95358 -0.248559 1.916016
1.94136 -0.25841102 1.909918
1.9458299 -0.280727 1.9101399
1.93998 -0.23934601 1.900759
1.94759 -0.2483 1.905916
1.93865 -0.25915599 1.9012889
1.94419 -0.28255302 1.9030091
1.9482601 -0.294361 1.903886
1.94961 -0.30521199 1.9030719
1.9412199 -0.23844101 1.8939099
1.94502 -0.248015 1.8962039
1.93458 -0.25990999 1.8924519
1.9409801 -0.29467499 1.8946849
1.94664 -0.30539599 1.896662
1.9596601 -0.313274 1.9016581
1.9287601 -0.22787701 1.879295
1.94231 -0.23731101 1.8862829
1.9513099 -0.247447 1.890882
1.93558 -0.25841299 1.8851238
1.9363099 -0.28275201 1.884769
1.93976 -0.29468501 1.8866159
1.9450901 -0.305574 1.8890599
1.94424 -0.31375301 1.889578
1.9312301 -0.22738101 1.8742999
1.9455 -0.23625499 1.880651
1.94846 -0.247161 1.882165
1.93612 -0.259808 1.8776639
1.93664 -0.28223199 1.877268
1.9407401 -0.29421699 1.8791778
1.9405 -0.30547702 1.8793969
1.94566 -0.31397802 1.882679
1.9329699 -0.22699301 1.867762
1.94593 -0.23596101 1.873517
1.95538 -0.246702 1.8767309
1.93687 -0.25843298 1.8698939
1.9425999 -0.292698 1.8722999
1.94484 -0.30502701 1.872672
1.94267 -0.314069 1.8731699
1.9519099 -0.237885 1.8680289
1.95539 -0.24898 1.8700628
1.93558 -0.25986499 1.8607759
1.93935 -0.28264701 1.8630179
1.9466499 -0.29587901 1.8662889
1.94484 -0.30617201 1.8652399
1.94803 -0.315074 1.8659478
1.94875 -0.29415801 1.8600969
1.90363 -0.32538399 1.9792939
1.8482801 -0.33916301 1.956193
1.9306599 -0.283618 1.9792169
1.9271899 -0.30524501 1.978121
1.92054 -0.31632501 1.976346
1.91203 -0.32532701 1.973794
1.8450199 -0.338745 1.949743
1.8286901 -0.34488499 1.9449829
1.9434199 -0.27701598 1.975697
1.9364799 -0.28388301 1.974484
1.9383 -0.294514 1.974473
1.93458 -0.30513701 1.9727679
1.92713 -0.31688601 1.9708229
1.86323 -0.33844399 1.9492149
1.84955 -0.34539002 1.946227
1.93808 -0.28567699 1.967399
1.94181 -0.29609001 1.969021
1.93498 -0.30594999 1.9660989
1.9311999 -0.31654799 1.9641669
1.9094701 -0.32756302 1.9568629
1.8658299 -0.34585899 1.944459
1.9408001 -0.28732401 1.959515
1.9419501 -0.29592898 1.9619899
1.93828 -0.306732 1.9598269
1.9279699 -0.317871 1.956087
1.9114701 -0.328082 1.9495169
1.8692399 -0.34562802 1.9377201
1.9511701 -0.28899401 1.956242
1.9422799 -0.296819 1.9538291
1.93384 -0.30842501 1.950799
1.92401 -0.31889701 1.9478859
1.9167 -0.328136 1.944328
1.88314 -0.34615502 1.9337479
1.93221 -0.29594001 1.9431659
1.93765 -0.306438 1.944191
1.9283501 -0.31861499 1.9417319
1.91019 -0.33033001 1.9352241
1.89105 -0.339459 1.9291589
1.8746699 -0.34677202 1.9220799
1.9426199 -0.29973498 1.939718
1.93926 -0.30755299 1.937827
1.93536 -0.316847 1.936384
1.91998 -0.328881 1.9305561
1.9000101 -0.33967 1.9246421
1.87352 -0.34638402 1.914598
1.94341 -0.31023002 1.9332639
1.9315801 -0.31996 1.92739
1.9253399 -0.33038199 1.9247558
1.90731 -0.33836299 1.9199508
1.88034 -0.34562999 1.9107128
1.94756 -0.23897199 1.9174449
1.9405099 -0.32032397 1.924435
1.9342999 -0.32966802 1.920821
1.91236 -0.33791301 1.9147749
1.9405099 -0.238086 1.9096589
1.95297 -0.247081 1.914688
1.9396601 -0.32216001 1.9169071
1.93856 -0.330369 1.9159579
1.91924 -0.33698899 1.9097409
1.93907 -0.23781601 1.902705
1.9515401 -0.24685401 1.908824
1.94182 -0.25479999 1.903559
1.94472 -0.33844101 1.9137869
1.93775 -0.23762199 1.8954929
1.95409 -0.24775499 1.902517
1.93532 -0.25555599 1.8940049
1.94558 -0.239189 1.891801
1.9521401 -0.2489 1.894045
1.93613 -0.25761101 1.8874519
1.94015 -0.276721 1.8907559
1.94469 -0.239766 1.882887
1.95597 -0.25057301 1.888557
1.9272 -0.25699699 1.8764991
1.9414301 -0.27765599 1.8864679
1.9258599 -0.224858 1.8632691
1.94206 -0.23701701 1.872412
1.9489399 -0.24930499 1.877802
1.9244901 -0.257193 1.867959
1.93861 -0.234441 1.8633161
1.95201 -0.246806 1.8710809
1.9260001 -0.256589 1.8601059
1.94929 -0.246567 1.862066
1.94464 -0.29255199 1.8603721
1.9143801 -0.31898502 1.9793649
1.93866 -0.255146 1.977479
1.93435 -0.29799199 1.9792138
1.9297301 -0.309273 1.977127
1.91624 -0.318892 1.9732621
1.8478199 -0.33621103 1.949366
1.83279 -0.34491599 1.94427
1.93539 -0.25417399 1.9685578
1.93964 -0.28920701 1.9725119
1.85317 -0.335298 1.94603
1.85078 -0.34709901 1.9448609
1.8280901 -0.35281101 1.937803
1.9456199 -0.25620601 1.964788
1.9354401 -0.28597701 1.9634548
1.9331 -0.299362 1.96321
1.9332299 -0.31101 1.9639789
1.92161 -0.320034 1.960441
1.8618801 -0.33775002 1.94147
1.8519901 -0.34815499 1.937973
1.8506501 -0.35617298 1.9392099
1.9403701 -0.25609401 1.956545
1.93396 -0.28649402 1.9545028
1.93187 -0.29961902 1.9546189
1.93451 -0.31141001 1.957773
1.91751 -0.32073298 1.951353
1.88298 -0.33826801 1.9404999
1.87234 -0.34871602 1.9375159
1.8573599 -0.35638303 1.93367
1.93767 -0.28785601 1.9479159
1.9357699 -0.29841998 1.9491459
1.9311301 -0.31111801 1.9478439
1.86868 -0.348281 1.9283299
1.9313999 -0.26562202 1.9383289
1.93636 -0.29886201 1.9414979
1.93213 -0.31132999 1.939265
1.92575 -0.32242402 1.9388958
1.86765 -0.34697497 1.9188499
1.93381 -0.26766899 1.9315889
1.9419999 -0.29038799 1.934956
1.93919 -0.30225402 1.9345469
1.9393899 -0.31357598 1.9347569
1.92812 -0.321459 1.932305
1.86067 -0.34651798 1.9078469
1.9367599 -0.287729 1.925419
1.93951 -0.30018699 1.9270689
1.94222 -0.312345 1.9293389
1.9292101 -0.32265702 1.9247639
1.8434199 -0.34624401 1.8935709
1.9371001 -0.28823099 1.9189639
1.94054 -0.29930601 1.919855
1.93299 -0.311418 1.9176329
1.9309399 -0.323053 1.9177029
1.8392999 -0.34769002 1.8860059
1.81584 -0.35269201 1.876079
1.94458 -0.29361498 1.914095
1.94222 -0.30328599 1.9128389
1.9344299 -0.31273198 1.909906
1.92654 -0.32309601 1.908595
1.9147301 -0.33305901 1.904476
1.8156199 -0.346017 1.8701999
1.8125 -0.35313702 1.868734
1.94827 -0.304447 1.907616
1.93892 -0.31162101 1.9048638
1.9338001 -0.321926 1.9030839
1.91896 -0.33195099 1.898118
1.8075399 -0.353825 1.861854
1.95727 -0.30687299 1.9034259
1.9433399 -0.31339198 1.8983639
1.928 -0.32392502 1.8930829
1.9530001 -0.30665502 1.8947181
1.9445 -0.31313401 1.8903619
1.9374601 -0.32270899 1.888566
1.95383 -0.30703899 1.886971
1.94438 -0.31450099 1.8824579
1.9275999 -0.32401299 1.8770679
1.9444001 -0.23027501 1.8634349
1.9483099 -0.30529699 1.8754059
1.94355 -0.313647 1.8746799
1.9365801 -0.32291001 1.8727249
1.92322 -0.33285499 1.8680871
1.9674801 -0.243743 1.8683299
1.9561501 -0.296152 1.870026
1.9409801 -0.30123198 1.863541
1.9449699 -0.31404901 1.8678349
1.9329 -0.32490501 1.8635679
1.92343 -0.33467498 1.8603259
1.9302601 -0.247547 1.977351
1.91361 -0.32019901 1.9776829
1.8022799 -0.33579102 1.9411169
1.8040199 -0.34433103 1.9427209
1.9349201 -0.239885 1.9704349
1.93724 -0.25048798 1.972374
1.93279 -0.300015 1.9743289
1.9137 -0.320288 1.970575
1.9024401 -0.328107 1.9672269
1.83644 -0.34155801 1.9462298
1.81119 -0.34515801 1.9396199
1.9371201 -0.238969 1.962786
1.93049 -0.24709401 1.9618908
1.93409 -0.28810301 1.966169
1.93461 -0.29983401 1.9678099
1.93101 -0.31022301 1.9676349
1.8479201 -0.341748 1.942466
1.8224699 -0.34594798 1.936415
1.94332 -0.230518 1.9543461
1.9348301 -0.23704 1.953421
1.93153 -0.24872299 1.954163
1.93012 -0.29885098 1.9596629
1.92381 -0.31025898 1.9571949
1.84797 -0.34211299 1.935645
1.8358501 -0.34758499 1.93308
1.94512 -0.23119101 1.9496799
1.9309399 -0.23476 1.9451779
1.93564 -0.24655199 1.9477021
1.9292799 -0.25840798 1.9469249
1.92588 -0.309138 1.949725
1.91845 -0.32000801 1.9482789
1.8640199 -0.34372899 1.9348129
1.9336901 -0.236904 1.9398971
1.93539 -0.24833201 1.9402089
1.93659 -0.261392 1.9410729
1.92896 -0.31175801 1.943181
1.89331 -0.33856401 1.935949
1.9365 -0.23988199 1.932673
1.9375701 -0.25019801 1.933041
1.93151 -0.29916999 1.9356419
1.93415 -0.312392 1.9375349
1.9273399 -0.322357 1.936052
1.8997799 -0.33874699 1.9292608
1.93924 -0.241915 1.925156
1.93808 -0.251057 1.926176
1.93751 -0.28974199 1.928987
1.9371699 -0.30115402 1.930167
1.9316001 -0.31159601 1.92896
1.9105901 -0.33223802 1.923319
1.9513699 -0.24660601 1.9222909
1.93533 -0.25032198 1.9178009
1.9375501 -0.30085799 1.92328
1.9320799 -0.31085101 1.920607
1.9309 -0.32342097 1.9217509
1.9137801 -0.33302897 1.9168799
1.93142 -0.250889 1.90897
1.93358 -0.29945099 1.9127719
1.93532 -0.31456399 1.9146609
1.9309399 -0.326507 1.91431
1.9132899 -0.332993 1.9080049
1.90725 -0.3407 1.9081799
1.93496 -0.29977599 1.9051529
1.93387 -0.31168199 1.9056948
1.9303999 -0.32334 1.9067149
1.9249899 -0.33345199 1.904991
1.90859 -0.33955801 1.8993499
1.9339999 -0.300019 1.897009
1.93086 -0.311582 1.897177
1.9315 -0.32374901 1.8991181
1.91886 -0.33353198 1.8946509
1.90864 -0.3407 1.890615
1.93891 -0.30190098 1.890517
1.93644 -0.314134 1.8918439
1.93032 -0.32690701 1.890448
1.91856 -0.33550701 1.8867979
1.9351699 -0.31138301 1.8825459
1.93361 -0.324608 1.8829069
1.9278901 -0.335787 1.8823889
1.93513 -0.253396 1.8683929
1.93565 -0.289013 1.8725679
1.93759 -0.30252999 1.874728
1.93864 -0.31586599 1.876351
1.93914 -0.32680699 1.8777289
1.9307201 -0.33489799 1.875437
1.9375501 -0.25177899 1.8607869
1.93677 -0.29990301 1.8667729
1.93527 -0.31249702 1.866346
1.93199 -0.325822 1.8676019
1.9276601 -0.33632702 1.8672349
1.93213 -0.227686 1.975459
1.93073 -0.23672301 1.9760879
1.93225 -0.250949 1.9787129
1.90757 -0.32237899 1.9788519
1.9353 -0.22957399 1.968508
1.9392301 -0.242981 1.971628
1.93102 -0.252516 1.9706929
1.91903 -0.31484401 1.973461
1.8219299 -0.32848099 1.94238
1.8333099 -0.34142199 1.94712
1.8124601 -0.343721 1.9411569
1.9340401 -0.22890399 1.959971
1.9432601 -0.24275601 1.9640548
1.93364 -0.25314599 1.963501
1.9319701 -0.29535401 1.96752
1.93019 -0.307188 1.9686829
1.92328 -0.31627899 1.9665979
1.8529899 -0.33588201 1.9471829
1.844 -0.34423301 1.9456118
1.81666 -0.34468201 1.937283
1.93668 -0.230133 1.952914
1.94791 -0.24455699 1.9581518
1.9389999 -0.253034 1.956234
1.9325999 -0.29343399 1.9595139
1.9275301 -0.305915 1.960084
1.92239 -0.31741601 1.9595819
1.86803 -0.33835 1.9442369
1.8524801 -0.34525099 1.9419018
1.93418 -0.21630698 1.9397889
1.93542 -0.22754499 1.9431159
1.9459801 -0.24449101 1.9501998
1.9421699 -0.25534499 1.950213
1.93125 -0.264366 1.94743
1.93485 -0.30600899 1.954854
1.92416 -0.31631398 1.9522209
1.87916 -0.34042001 1.9396619
1.8665601 -0.34786302 1.936745
1.92602 -0.21316601 1.931022
1.9310001 -0.22384501 1.934502
1.94464 -0.24209499 1.9408609
1.9436799 -0.25570101 1.943826
1.93241 -0.292348 1.9433519
1.9346601 -0.306752 1.9472979
1.92416 -0.31703401 1.9435459
1.87341 -0.341059 1.929823
1.8697701 -0.349446 1.9294111
1.93845 -0.22920799 1.929865
1.94433 -0.24369 1.932706
1.9425 -0.25546801 1.935082
1.9339501 -0.279369 1.934063
1.9372799 -0.30746499 1.9394848
1.92651 -0.31800699 1.9361069
1.90539 -0.336009 1.9311839
1.8816701 -0.34161702 1.9245219
1.8713299 -0.349235 1.9216559
1.93545 -0.22873801 1.9196799
1.94945 -0.24422899 1.9274299
1.94346 -0.25572398 1.9261649
1.93513 -0.28145 1.927179
1.94065 -0.29798701 1.931156
1.93024 -0.307529 1.9294
1.92698 -0.31893998 1.9280809
1.8682899 -0.347747 1.911644
1.9365401 -0.22969101 1.9123619
1.9469399 -0.243746 1.9182249
1.94469 -0.25530601 1.9179139
1.9363699 -0.29480401 1.9211119
1.93787 -0.30914602 1.9243569
1.93196 -0.31874299 1.9218109
1.9215801 -0.327896 1.9195819
1.90848 -0.33733001 1.916585
1.86463 -0.345615 1.9024589
1.94382 -0.233081 1.90733
1.94763 -0.245977 1.910412
1.9363699 -0.25424802 1.9079459
1.9353999 -0.29237899 1.9116139
1.93472 -0.30799201 1.9145869
1.92575 -0.31872201 1.912957
1.91768 -0.328886 1.910309
1.9414901 -0.231536 1.8980719
1.95192 -0.24531901 1.9037
1.93799 -0.25291499 1.9002949
1.9338901 -0.30601498 1.904815
1.92941 -0.319139 1.9067301
1.9247099 -0.32953799 1.9046119
1.90907 -0.33766201 1.9007981
1.94493 -0.233785 1.8915908
1.9520301 -0.24703899 1.8968339
1.93804 -0.25373399 1.8919809
1.93776 -0.29632899 1.8976129
1.93042 -0.31877801 1.8986899
1.9464301 -0.234648 1.8831999
1.9528999 -0.24733299 1.8893809
1.9399099 -0.25440499 1.8845279
1.9360601 -0.29516801 1.888958
1.94795 -0.23510499 1.8753239
1.95278 -0.246705 1.881017
1.9385201 -0.251838 1.8754269
1.9343801 -0.306187 1.8818219
1.93159 -0.32062098 1.8815669
1.9485699 -0.235606 1.8671789
1.95279 -0.24628299 1.872468
1.9451801 -0.25241101 1.8689139
1.9425399 -0.29786801 1.87577
1.9378301 -0.308606 1.874328
1.93356 -0.320746 1.873103
1.95595 -0.247403 1.8648219
1.94595 -0.25234401 1.8613299
1.93936 -0.29652798 1.865826
1.93699 -0.30908301 1.8653799
1.92722 -0.331893 1.865232
1.94407 -0.31119201 1.861033
1.9383999 -0.32141 1.860345
1.84135 -0.32486498 1.9727719
1.8263099 -0.31546 1.966745
1.8506799 -0.33233699 1.9546809
1.83516 -0.32574502 1.956829
1.8236901 -0.31487399 1.9581109
1.82927 -0.33878502 1.9502269
1.8259101 -0.327261 1.95
1.8219 -0.31315601 1.9495469
1.8143699 -0.34477699 1.944471
1.82355 -0.331007 1.942803
1.8184199 -0.31805301 1.941676
1.8100901 -0.345745 1.9364429
1.81502 -0.33341399 1.936399
1.8092799 -0.32093897 1.9344651
1.8155701 -0.30317602 1.9324849
1.8145399 -0.27120599 1.9313339
1.81493 -0.34456298 1.9259949
1.80538 -0.33545899 1.9295239
1.8018401 -0.32316101 1.9287879
1.80897 -0.30631599 1.925275
1.84746 -0.34693298 1.907185
1.82979 -0.34144297 1.9128338
1.8116601 -0.33425 1.9184719
1.80275 -0.32191601 1.9206799
1.81058 -0.30456901 1.916899
1.8422501 -0.33881 1.9017189
1.8180799 -0.33379701 1.9078889
1.8042101 -0.32288399 1.9111609
1.80485 -0.30658901 1.9109169
1.84162 -0.33888698 1.89476
1.81862 -0.33515301 1.899377
1.80639 -0.324388 1.9015368
1.7990601 -0.309634 1.902887
1.83516 -0.33878699 1.8872989
1.80827 -0.33536997 1.892478
1.8027099 -0.32178298 1.8941269
1.80597 -0.30553901 1.8910331
1.80424 -0.29283801 1.889535
1.82752 -0.34095401 1.8796508
1.8036 -0.33833 1.8847319
1.80209 -0.32261503 1.884601
1.8168401 -0.30111098 1.8790729
1.83877 -0.347197 1.8699319
1.81182 -0.34632701 1.875582
1.8080701 -0.33518201 1.875801
1.8046401 -0.32318401 1.8742709
1.8101699 -0.305639 1.8717659
1.81952 -0.344311 1.863995
1.8132401 -0.33446601 1.8651929
1.8133701 -0.317752 1.862254
1.8017999 -0.30809799 1.865132
1.7855 -0.303965 1.868605
1.7834101 -0.30441001 1.862098
1.85427 -0.33346403 1.952301
1.8431799 -0.32601503 1.953203
1.8384199 -0.33670199 1.946914
1.83717 -0.32576197 1.946936
1.82873 -0.31438199 1.946762
1.8214799 -0.342426 1.9417568
1.8254601 -0.32917401 1.9410089
1.8181 -0.316571 1.940835
1.81373 -0.34626302 1.935878
1.81461 -0.33562002 1.93515
1.8166901 -0.319731 1.932882
1.82163 -0.3017 1.931109
1.82213 -0.34416699 1.924997
1.8186001 -0.33270302 1.9250599
1.81016 -0.32002398 1.925076
1.81226 -0.30517098 1.924991
1.8306799 -0.352357 1.9133469
1.8203599 -0.34361801 1.9167498
1.81248 -0.33196098 1.918035
1.8033999 -0.32095 1.9188299
1.80528 -0.30678901 1.9181991
1.8511901 -0.348591 1.898694
1.8335299 -0.342464 1.9042189
1.8185099 -0.33253601 1.9081008
1.8023801 -0.32341099 1.912397
1.80058 -0.30907401 1.910614
1.85798 -0.34774601 1.8883178
1.82541 -0.33261901 1.8968949
1.80476 -0.321603 1.9029019
1.79775 -0.30921 1.903064
1.81431 -0.33522099 1.8904469
1.8166701 -0.32009497 1.8907499
1.81064 -0.30560198 1.890779
1.80586 -0.29255301 1.8911619
1.85532 -0.34768 1.87423
1.82823 -0.34400901 1.880242
1.80959 -0.33685002 1.883624
1.80976 -0.321859 1.88353
1.81963 -0.30335101 1.878346
1.81666 -0.29028201 1.8793778
1.83032 -0.352979 1.8744969
1.8131 -0.346459 1.8769159
1.80225 -0.33661997 1.877885
1.8150101 -0.317561 1.871835
1.8121001 -0.34424099 1.8681329
1.81644 -0.33083302 1.8638879
1.81384 -0.318396 1.8639309
1.81478 -0.30506599 1.8626059
1.78597 -0.30173001 1.861225
1.7802901 -0.292974 1.861174
1.8291 -0.30879602 1.972896
1.84569 -0.34260398 1.9509109
1.8510201 -0.33137 1.9517469
1.8309 -0.34547099 1.9484509
1.8391 -0.33407602 1.947112
1.83155 -0.32246101 1.9472159
1.82476 -0.309852 1.9466369
1.8333 -0.33380699 1.9405119
1.8202699 -0.32349098 1.940985
1.8172301 -0.311744 1.941259
1.81787 -0.29879001 1.9405938
1.81876 -0.33506402 1.9343109
1.81767 -0.32477 1.9337599
1.8141201 -0.31201598 1.9338859
1.8179201 -0.268318 1.9314849
1.8133 -0.33692798 1.927186
1.8139501 -0.32598001 1.926675
1.80564 -0.31400099 1.926592
1.8114101 -0.29812801 1.9256059
1.8257201 -0.34639001 1.912197
1.81387 -0.33724201 1.9179
1.80387 -0.32586801 1.920439
1.7994599 -0.31488299 1.9209169
1.7929699 -0.304288 1.922442
1.8355 -0.34553 1.9027619
1.8196499 -0.338301 1.9076059
1.8090601 -0.32697701 1.910665
1.79865 -0.31403199 1.913492
1.8498399 -0.34298697 1.8927289
1.82146 -0.33865201 1.899256
1.8106101 -0.329036 1.9024649
1.80722 -0.314432 1.901336
1.81785 -0.33793801 1.8909869
1.81955 -0.32604501 1.890651
1.8142101 -0.31206301 1.889608
1.80334 -0.300235 1.893721
1.8102299 -0.277197 1.888983
1.8378501 -0.34217203 1.8786479
1.8149699 -0.33650199 1.883909
1.81898 -0.32348999 1.882001
1.8230001 -0.30945998 1.878304
1.81668 -0.29843301 1.881532
1.80907 -0.28811601 1.8832089
1.8099 -0.33713901 1.8767329
1.81768 -0.32448301 1.873179
1.8154401 -0.335899 1.8666229
1.8152901 -0.32611501 1.8646328
1.8210601 -0.31181201 1.86272
1.84078 -0.34666303 1.947986
1.8493299 -0.334584 1.9477099
1.8298199 -0.348243 1.944912
1.83907 -0.338157 1.943023
1.8405401 -0.32537201 1.9423339
1.83638 -0.33654299 1.9363099
1.8238001 -0.32488999 1.9369559
1.8235099 -0.31069601 1.9360729
1.81791 -0.33716801 1.9311479
1.8158901 -0.32696602 1.931131
1.8150001 -0.31469801 1.9303399
1.8214799 -0.298655 1.9287339
1.8135699 -0.339477 1.9226329
1.8141999 -0.327966 1.9235939
1.81194 -0.31423199 1.9222541
1.8110601 -0.301615 1.9237889
1.8223 -0.34846297 1.911456
1.81698 -0.33826199 1.914306
1.81164 -0.32636201 1.916021
1.8014901 -0.314913 1.916729
1.8033201 -0.300569 1.917179
1.8454801 -0.347321 1.8969619
1.82946 -0.33866799 1.901817
1.80636 -0.32730401 1.9088739
1.7990899 -0.314446 1.909699
1.80056 -0.302578 1.910094
1.85966 -0.34665099 1.886523
1.83973 -0.33858398 1.8910151
1.81785 -0.32800499 1.8960528
1.80976 -0.314004 1.89894
1.8276601 -0.347399 1.8879739
1.8197701 -0.33763599 1.887972
1.82198 -0.325757 1.886025
1.82239 -0.31288001 1.8863429
1.80274 -0.301422 1.8933259
1.8182001 -0.285772 1.886843
1.8029699 -0.33885801 1.8836119
1.8040601 -0.329422 1.884294
1.82552 -0.313995 1.876832
1.8197399 -0.29929599 1.878746
1.7941201 -0.34027302 1.8783299
1.8078301 -0.32798401 1.873825
1.79877 -0.340891 1.868414
1.80909 -0.328866 1.8639538
1.81727 -0.313636 1.8613499
1.84237 -0.33686799 1.9491769
1.84077 -0.337304 1.9433949
1.84192 -0.32769001 1.9437299
1.84129 -0.33711499 1.9363691
1.8311 -0.32704601 1.9382609
1.82681 -0.314376 1.938525
1.81962 -0.30185699 1.939574
1.8189 -0.33802798 1.9331819
1.82459 -0.32647499 1.9320301
1.81739 -0.314224 1.932519
1.8213699 -0.299732 1.932112
1.81302 -0.34012699 1.9252419
1.81741 -0.32879299 1.9252739
1.8158001 -0.31607699 1.9243
1.8130299 -0.30091801 1.9255871
1.8149201 -0.348878 1.9168849
1.8130299 -0.339275 1.9178699
1.8139 -0.32745498 1.9181349
1.80914 -0.31401899 1.9177929
1.8207 -0.33868399 1.9069269
1.8122901 -0.32723001 1.909876
1.8066001 -0.31390199 1.9100119
1.7983099 -0.301779 1.912961
1.8307201 -0.33761102 1.8942239
1.8151 -0.32812199 1.900002
1.8089399 -0.31511199 1.9016949
1.79896 -0.302255 1.90473
1.825 -0.33765998 1.8873529
1.8224001 -0.32811901 1.889194
1.82346 -0.315346 1.8888959
1.8122001 -0.30184299 1.892401
1.80773 -0.33816898 1.8842579
1.81903 -0.32906398 1.882467
1.8242799 -0.31685799 1.880371
1.82145 -0.30286801 1.8809999
1.7991201 -0.339059 1.8784829
1.81542 -0.327604 1.8747989
