# .PCD v0.7 - Point Cloud Data file format
VERSION 0.7
FIELDS x y z
SIZE 4 4 4
TYPE F F F
COUNT 1 1 1
WIDTH 1616
HEIGHT 1
VIEWPOINT 0 0 0 1 0 0 0
POINTS 1616
DATA ascii
1.9836301 -0.37354001 1.559979
1.98355 -0.38736099 1.555959
1.9901199 -0.39759201 1.556514
2.0058799 -0.40389401 1.565354
2.01436 -0.41289797 1.568296
2.0144799 -0.42334703 1.565241
1.9351801 -0.22108699 1.5602909
1.95419 -0.22273399 1.570845
1.9612399 -0.231512 1.5731701
1.9800999 -0.23675501 1.5833519
1.9742399 -0.25245002 1.577059
1.97541 -0.34615201 1.5552809
1.9691499 -0.35885501 1.547796
1.9766099 -0.36607897 1.550827
1.97357 -0.380382 1.5442901
1.96735 -0.39676201 1.535777
1.9692199 -0.40651903 1.534579
1.9778199 -0.41155201 1.539151
1.95113 -0.223855 1.561713
1.9570799 -0.23122901 1.562466
1.9711701 -0.25239 1.566586
1.9685401 -0.35889098 1.54159
1.97386 -0.36782101 1.5414369
1.9638699 -0.38705599 1.5281039
1.95566 -0.40157002 1.519155
1.95602 -0.224526 1.554583
1.9587101 -0.233153 1.554348
1.9427299 -0.39076301 1.506557
1.95547 -0.39228803 1.513188
1.95146 -0.40233001 1.506669
1.95392 -0.225665 1.544143
1.9629899 -0.23140499 1.5478549
1.97826 -0.25023299 1.5516239
1.98832 -0.25716498 1.5538549
1.99117 -0.28911698 1.548402
1.94393 -0.398478 1.4957789
1.9475701 -0.40385699 1.4957418
1.95597 -0.22441299 1.5369139
1.97373 -0.22690001 1.544453
1.98148 -0.24816699 1.545217
1.9966999 -0.25257501 1.551566
1.99696 -0.26390401 1.5496989
1.9911 -0.27946898 1.5433609
1.9977299 -0.28666201 1.5433969
1.93384 -0.403898 1.477842
1.9382401 -0.40893102 1.4808809
1.95987 -0.22075199 1.5295548
1.9842399 -0.22168399 1.542056
1.9893401 -0.23284 1.544827
1.99201 -0.244477 1.543911
1.99991 -0.252278 1.545522
1.9961901 -0.26664799 1.539959
2.0000799 -0.27718002 1.538681
2.00195 -0.28565499 1.537572
1.92933 -0.405092 1.464924
1.93636 -0.409367 1.469927
1.9421 -0.212818 1.5119699
1.9757401 -0.212862 1.531463
2.0026901 -0.21367902 1.5461679
1.99885 -0.22636299 1.5422969
1.9953301 -0.24150999 1.5373569
1.99121 -0.25727099 1.529848
1.9958099 -0.268098 1.530797
1.99437 -0.278889 1.5259919
2.0030401 -0.28636301 1.5285469
1.92924 -0.40421101 1.4568263
1.9401401 -0.406095 1.463793
1.9332401 -0.204459 1.5015759
1.9499201 -0.20849301 1.510788
1.99971 -0.205773 1.5375869
2.00806 -0.213148 1.5425589
1.9972301 -0.228495 1.532979
1.98281 -0.248307 1.517965
1.9980299 -0.27882901 1.520391
2.0068901 -0.28674802 1.521181
2.0199599 -0.29289901 1.526857
2.0252199 -0.30261201 1.5260069
2.00141 -0.328439 1.503566
1.93714 -0.39949101 1.4566672
1.93133 -0.20306998 1.4940039
1.99711 -0.195283 1.5281889
2.0023 -0.20307399 1.531404
2.0079 -0.210998 1.534162
1.99869 -0.27812201 1.512165
2.00933 -0.29798901 1.5117769
2.01806 -0.305323 1.515591
2.0203199 -0.31640399 1.512401
2.01545 -0.33122298 1.504099
2.0244799 -0.34062999 1.505587
2.0383999 -0.34838501 1.510577
2.0336001 -0.36334097 1.50325
1.99703 -0.183897 1.522723
2.00278 -0.18987601 1.5246769
1.9989901 -0.20298401 1.521129
1.9903101 -0.21928301 1.5118279
2.00086 -0.30090499 1.4969299
2.01737 -0.30638 1.5071579
2.0171299 -0.31953201 1.502182
2.0202 -0.33197102 1.4995689
2.0311899 -0.34046298 1.503302
2.0452201 -0.34595698 1.509191
2.0519099 -0.354164 1.5102479
2.0627699 -0.36086801 1.5135249
2.0657799 -0.37105 1.5104439
1.98735 -0.178792 1.5119129
2.0118101 -0.17628001 1.525484
2.00913 -0.187777 1.521451
1.99287 -0.20650101 1.5074688
1.97809 -0.224923 1.4940529
2.0079899 -0.31039199 1.491483
2.0150101 -0.322575 1.4931569
2.0066099 -0.33815801 1.483815
2.02318 -0.341423 1.4926519
2.0378199 -0.347065 1.4991679
2.0538499 -0.35283297 1.505535
2.0654202 -0.35965198 1.509169
2.07586 -0.365372 1.5124739
2.0836899 -0.37241501 1.5125149
2.0132699 -0.152604 1.51894
2.02213 -0.16018 1.525281
2.00757 -0.177295 1.5147439
1.9995199 -0.19272101 1.5071629
1.97097 -0.21721201 1.4825048
1.97009 -0.22929101 1.47948
2.0615101 -0.362019 1.4999969
2.0787802 -0.36619401 1.5068949
2.0355101 -0.14500399 1.5286359
2.03092 -0.156243 1.524819
2.0034101 -0.181273 1.506256
2.0957201 -0.37156898 1.5061489
2.0362399 -0.150618 1.5207191
1.90291 -0.228945 1.4165223
2.0913699 -0.385517 1.4913369
2.0320599 -0.15107299 1.510868
1.91671 -0.23124599 1.4174247
1.8958701 -0.20770599 1.3969345
1.9102499 -0.233018 1.4029565
1.89819 -0.205754 1.3907444
1.9077499 -0.22476999 1.3940045
1.89847 -0.183871 1.3845714
1.90343 -0.202243 1.3852376
1.9017501 -0.21531099 1.3825725
1.91985 -0.22155701 1.3917317
1.90642 -0.179517 1.3827504
1.91259 -0.210915 1.3795357
1.9323 -0.21847001 1.3901618
2.0062799 -0.25137401 1.4294789
2.01141 -0.26159 1.4299233
1.90698 -0.17947799 1.3751779
1.9079201 -0.200196 1.3690578
1.9142101 -0.210701 1.3703173
1.9187399 -0.22090501 1.3719982
2.0116799 -0.247168 1.4244629
2.0132601 -0.25813299 1.4233077
2.0191 -0.26806298 1.4228674
2.01809 -0.28136599 1.4189827
1.9119 -0.17968599 1.3703362
1.90977 -0.18959299 1.3654201
1.90624 -0.20054501 1.3600544
1.9276401 -0.220635 1.3684398
1.9936999 -0.23121901 1.4080807
2.0148599 -0.244921 1.4181851
2.0183299 -0.25623801 1.4167035
2.0201101 -0.26885501 1.4133035
2.0243201 -0.277145 1.4152925
1.91003 -0.197449 1.3568387
2.01754 -0.245139 1.410567
2.0258999 -0.253016 1.4130703
2.0238099 -0.26568601 1.4069972
2.0272901 -0.27795601 1.407115
2.0057299 -0.32037899 1.3806804
2.01439 -0.24478 1.3993363
2.02353 -0.25344899 1.402359
2.0296299 -0.26315999 1.4011074
2.02953 -0.275455 1.3987387
2.0216901 -0.291852 1.3893257
2.0134101 -0.31579599 1.3762794
2.01915 -0.244662 1.3925613
2.02858 -0.253153 1.3961006
2.0339401 -0.260903 1.3957596
2.0331101 -0.27209601 1.3923645
2.03249 -0.28455698 1.3885484
2.0206001 -0.30266002 1.3756766
2.0120599 -0.31648701 1.3636655
1.93882 -0.221141 1.3338259
2.01613 -0.24494 1.3797345
2.0265601 -0.25379699 1.3849869
2.0310202 -0.26384398 1.3848486
2.03286 -0.27441901 1.3821216
2.0268099 -0.28983501 1.373307
2.0208099 -0.304216 1.3645684
2.0148399 -0.31627899 1.3550844
2.02426 -0.25250602 1.3741503
2.0343599 -0.26158702 1.3772179
2.0379601 -0.27428699 1.3756219
2.0252299 -0.292725 1.3616029
2.0116999 -0.31873399 1.3418561
2.0249801 -0.25242999 1.364182
2.0414999 -0.25766 1.3722132
2.0439701 -0.269043 1.3707814
2.0322399 -0.286493 1.359156
2.02509 -0.30240402 1.3483825
2.0272999 -0.31922302 1.3440526
2.0218401 -0.24450399 1.3539116
2.0336502 -0.25196302 1.359573
2.04457 -0.25904801 1.3647045
2.05037 -0.26742399 1.3659413
2.0383999 -0.28355199 1.3546125
2.02508 -0.30120501 1.3392341
2.02068 -0.31391799 1.3340311
2.0272501 -0.252969 1.3448434
2.03741 -0.26070201 1.3498169
2.0541 -0.26409701 1.3611784
2.0443101 -0.27903798 1.3496295
2.0400801 -0.25887501 1.3419049
2.0483201 -0.267342 1.3461415
2.0515401 -0.275296 1.3455725
2.039 -0.27078801 1.3275169
2.0453799 -0.278395 1.3298858
2.0396202 -0.28069699 1.3146061
1.8876899 -0.38023603 1.735873
1.91371 -0.220065 1.7663319
1.9257801 -0.250002 1.7682059
1.93173 -0.261684 1.7691559
1.95377 -0.32721901 1.768882
1.94662 -0.34006801 1.7629139
1.9093 -0.37118301 1.740826
1.8986599 -0.384011 1.7342149
1.91239 -0.388354 1.7382469
1.9202499 -0.219281 1.761837
1.9337699 -0.22415501 1.767379
1.93533 -0.27178401 1.7620399
1.94877 -0.28877398 1.7648039
1.96021 -0.29765302 1.768613
1.9656501 -0.30805999 1.76939
1.96472 -0.32046199 1.7669029
1.9568601 -0.33548501 1.7608049
1.9333501 -0.35752499 1.7469718
1.91214 -0.37963799 1.7337419
1.91855 -0.38948798 1.7338419
1.92196 -0.39777601 1.7334589
1.91337 -0.22205 1.750719
1.9346601 -0.22315 1.7606059
1.94125 -0.22984101 1.7620529
1.9434301 -0.27955601 1.7565089
1.9538499 -0.289906 1.7584549
1.9649 -0.29849899 1.7631769
1.9655099 -0.30978 1.761142
1.96566 -0.32230702 1.758985
1.9538499 -0.33951101 1.750708
1.93196 -0.36043498 1.738546
1.9128101 -0.37944698 1.725382
1.91364 -0.39140099 1.7247699
1.9231 -0.39695799 1.7283409
1.9374299 -0.22414801 1.7534369
1.9449699 -0.230634 1.7547669
1.94609 -0.28109699 1.748256
1.9498801 -0.29139099 1.748794
1.96296 -0.29931802 1.7535609
1.9704801 -0.31032699 1.755309
1.96395 -0.32474098 1.7500939
1.96023 -0.336483 1.7465249
1.93573 -0.35748601 1.733067
1.91204 -0.37889099 1.718851
1.9152901 -0.38997701 1.718872
1.9208299 -0.397506 1.7209049
1.9410001 -0.22486 1.746181
1.94716 -0.23035601 1.7493509
1.92231 -0.24920799 1.7347479
1.9407401 -0.270955 1.739832
1.9480799 -0.28050801 1.7408279
1.9547 -0.29016799 1.743564
1.9621201 -0.29978099 1.7444808
1.97263 -0.30755299 1.748754
1.9779899 -0.31684899 1.750729
1.9676199 -0.33114102 1.743462
1.92696 -0.363325 1.7232389
1.91985 -0.397863 1.7146149
1.94349 -0.223849 1.741228
1.95101 -0.22903799 1.7448519
1.95749 -0.29903999 1.735746
1.96403 -0.30946299 1.7359719
1.9678 -0.32021999 1.737764
1.9650301 -0.33069098 1.732963
1.9560499 -0.226998 1.7419609
1.9521899 -0.27831301 1.7284939
1.96222 -0.32240102 1.7259439
1.96345 -0.33075297 1.724671
1.9383701 -0.23944598 1.7023469
1.94279 -0.23704901 1.697471
1.9815199 -0.154283 1.720634
1.98481 -0.161395 1.7207049
1.97261 -0.17238002 1.7118011
1.9415699 -0.23721701 1.6884429
1.9705 -0.167661 1.704743
1.97166 -0.174391 1.703562
1.94336 -0.236167 1.6824899
1.95753 -0.17410201 1.6889969
1.9635201 -0.179185 1.690986
1.9442799 -0.23554701 1.677639
1.95658 -0.183116 1.679637
1.94442 -0.19426 1.669915
1.96369 -0.191625 1.6738288
1.96334 -0.201546 1.6697689
1.9686099 -0.221406 1.6670729
1.9637899 -0.19545099 1.6649109
1.9709599 -0.20255899 1.666191
1.9619 -0.21417101 1.6595659
1.96512 -0.22204399 1.659658
1.96909 -0.20411301 1.6579809
1.97201 -0.210926 1.6589769
1.9689101 -0.220185 1.6552359
1.9577099 -0.209288 1.6430169
1.96947 -0.212731 1.6495839
1.9758501 -0.218872 1.650072
1.9934 -0.32189 1.6383389
1.9042 -0.38705102 1.5778619
1.9189999 -0.39755601 1.583282
1.96869 -0.21455 1.639812
1.9825301 -0.21728 1.645999
1.9775901 -0.29313299 1.6307709
1.98823 -0.302048 1.633662
1.9861 -0.31590199 1.630318
1.9952 -0.32258302 1.6332979
1.9760001 -0.33921799 1.6183699
1.93099 -0.37594798 1.5877169
1.9137 -0.39169201 1.5761729
1.9251699 -0.39609799 1.5802939
1.96656 -0.216181 1.62948
1.9828501 -0.21781401 1.638006
1.9916201 -0.288555 1.63086
2.00859 -0.29354298 1.637677
1.9875 -0.313582 1.6228149
1.99209 -0.32395199 1.624898
1.9737101 -0.341939 1.609619
1.95095 -0.36377299 1.5928049
1.9349201 -0.38345298 1.581622
1.93414 -0.39396301 1.5771039
1.96547 -0.21669701 1.6200889
1.9874201 -0.216355 1.6325969
2.01053 -0.28501099 1.63397
2.0049801 -0.294626 1.627941
1.9794201 -0.33012599 1.6085839
1.9680499 -0.34681597 1.5977041
1.9546601 -0.36343899 1.5864009
1.95303 -0.37441501 1.5847479
1.94961 -0.386913 1.579374
1.9418401 -0.39984903 1.570721
1.9605 -0.21929701 1.6074829
1.97894 -0.22013599 1.619471
2.0059299 -0.287229 1.6228271
1.9934 -0.29772198 1.6121149
1.96761 -0.34412602 1.5901619
1.96775 -0.356181 1.5869559
1.9572901 -0.37341201 1.5781729
1.95192 -0.38796601 1.571198
1.9417 -0.40160701 1.561556
1.9559101 -0.221175 1.5954819
1.97115 -0.22573701 1.6049919
1.95565 -0.24232799 1.5928389
2.0069098 -0.28631002 1.615929
1.98879 -0.298731 1.602807
1.96166 -0.34697202 1.576611
1.9669 -0.35956699 1.5770169
1.9585 -0.37607202 1.5688729
1.9452499 -0.392717 1.5578299
1.9451699 -0.40134102 1.5555021
1.95298 -0.22132099 1.5850879
1.9730201 -0.22420999 1.5972738
1.97212 -0.235595 1.5951719
1.99018 -0.29896298 1.598331
1.9622099 -0.34690398 1.5669279
1.97087 -0.355398 1.571566
1.97136 -0.36830899 1.5681349
1.97009 -0.380844 1.5659659
1.97039 -0.392151 1.5626301
1.9845799 -0.40062302 1.565614
1.98611 -0.41224203 1.563486
1.99935 -0.41751099 1.5684239
1.95076 -0.22183099 1.5759469
1.96139 -0.22712798 1.5811609
1.9750199 -0.233031 1.589433
1.96132 -0.34659401 1.557946
1.9742 -0.35468701 1.563859
1.9769299 -0.36682901 1.5621699
1.9769 -0.37922999 1.5613049
1.98746 -0.388064 1.564751
1.9980099 -0.395347 1.567696
2.00335 -0.40487999 1.569012
2.0106301 -0.41322398 1.570083
2.0178599 -0.422737 1.570658
2.02862 -0.43074402 1.5741829
2.0329299 -0.43778199 1.5746989
1.9526199 -0.221673 1.5684279
1.9635401 -0.227835 1.573429
1.9711099 -0.235548 1.5782859
1.97086 -0.24776199 1.573525
1.96802 -0.34568802 1.55409
1.98138 -0.352332 1.5603409
1.98218 -0.362472 1.5581079
1.9766499 -0.37724099 1.5517399
1.99094 -0.385598 1.5605938
1.99278 -0.39728802 1.5586228
2.00559 -0.40442401 1.5644379
2.01085 -0.41554797 1.564014
2.0155799 -0.42464298 1.564114
2.02455 -0.43099898 1.5673329
2.03406 -0.436427 1.57092
1.94987 -0.22226802 1.5581229
1.96064 -0.22785001 1.562889
1.9714301 -0.23661 1.5687419
1.9800501 -0.245827 1.5709659
1.9818801 -0.35420299 1.552735
1.9763299 -0.36763 1.5443
1.9567701 -0.38741797 1.5275509
1.9477 -0.40268698 1.517563
1.95419 -0.408586 1.5197361
1.95155 -0.222333 1.5499018
1.96446 -0.22753799 1.5561539
1.9692799 -0.236159 1.5584949
1.9838699 -0.24313401 1.5661889
1.98369 -0.25310498 1.564957
1.9793601 -0.35859901 1.5417119
1.97575 -0.368063 1.536198
1.96102 -0.38356999 1.5236831
1.95145 -0.39894199 1.513956
1.94749 -0.41010502 1.509233
1.94564 -0.223234 1.5367259
1.95824 -0.228232 1.5441639
1.9676199 -0.236165 1.5487819
1.9807401 -0.242707 1.556434
1.9878 -0.25028402 1.5591941
1.9732201 -0.370298 1.5281199
1.9524699 -0.389898 1.509866
1.9463 -0.40158099 1.5028169
1.94495 -0.22227 1.528239
1.9540601 -0.22753401 1.533003
1.9662801 -0.234595 1.5393749
1.9853301 -0.241032 1.55022
1.99955 -0.24567699 1.556389
1.94393 -0.39509702 1.496369
1.9409399 -0.40421799 1.492137
1.9097501 -0.2139 1.496213
1.95263 -0.21839501 1.5250469
1.96336 -0.225784 1.5300469
1.9812601 -0.23243 1.539953
1.98948 -0.240466 1.5433409
2.00422 -0.243532 1.5512109
2.0106101 -0.287256 1.5463179
1.9963499 -0.29965299 1.5339749
1.9343201 -0.20947799 1.5060868
1.969 -0.21309601 1.5267749
1.9891499 -0.219648 1.5375619
1.9894099 -0.231071 1.537009
1.9901199 -0.23944201 1.534899
2.0069599 -0.287222 1.536458
1.9975901 -0.29787901 1.526722
1.94196 -0.198046 1.505069
1.96507 -0.20288099 1.517591
1.9874001 -0.20812599 1.529428
2.0036001 -0.21420999 1.5391378
1.98453 -0.23074 1.5246649
2.00178 -0.288654 1.5240849
2.0014501 -0.29762501 1.520206
1.97621 -0.191136 1.518577
1.9892399 -0.19625001 1.524431
1.99397 -0.204419 1.5251269
2.0012901 -0.21304899 1.5296069
2.00137 -0.287983 1.5132899
2.00565 -0.295378 1.515009
2.0030901 -0.30619401 1.5110949
2.01548 -0.31283799 1.516827
2.0286601 -0.32026798 1.520129
2.0151401 -0.34076101 1.505244
2.0030601 -0.182607 1.526899
2.0010099 -0.192444 1.5236319
2.0035698 -0.202976 1.5236341
1.9805701 -0.22155599 1.5056
2.0021899 -0.297001 1.503965
2.00828 -0.307206 1.505304
2.0237501 -0.31335101 1.5129809
2.0369799 -0.318542 1.519359
2.03531 -0.33025002 1.514414
2.0318899 -0.34341499 1.5084829
2.0173101 -0.156444 1.5277919
2.0116901 -0.168947 1.525233
1.99544 -0.183349 1.513927
1.98981 -0.19655399 1.508777
1.98136 -0.212292 1.4999759
1.96597 -0.22715901 1.4870839
2.0002201 -0.30775499 1.490662
2.0234301 -0.31161699 1.506037
2.0295599 -0.32094002 1.5075319
2.0360699 -0.33054599 1.508098
2.0406899 -0.34047699 1.5082709
2.0554299 -0.34648401 1.514233
2.05953 -0.35642201 1.5124669
2.03192 -0.142123 1.5316941
2.0339899 -0.150039 1.532298
2.02564 -0.16239201 1.527706
2.02771 -0.311212 1.502571
2.0140901 -0.32755199 1.4898078
2.0350001 -0.34306499 1.497993
2.06056 -0.34500301 1.5119069
2.0623701 -0.355845 1.508474
2.0757699 -0.360268 1.514357
2.0785201 -0.37023398 1.5112
2.03842 -0.147644 1.5278779
2.0348599 -0.156932 1.52552
2.0632601 -0.35696203 1.502208
2.0803101 -0.36071 1.510517
2.0946801 -0.36499801 1.5165619
2.0388498 -0.14764901 1.521516
2.03127 -0.15774201 1.5163178
2.0688801 -0.36578399 1.4961249
2.0941401 -0.366835 1.509414
2.0327001 -0.136645 1.503844
1.8926101 -0.17911699 1.3877852
1.89631 -0.18549499 1.388904
1.89175 -0.21031 1.3830169
1.9144 -0.22791599 1.3945447
1.89765 -0.17728701 1.3825247
1.9015499 -0.20759898 1.3800194
1.9073199 -0.218807 1.3829426
1.9338901 -0.22425599 1.3993219
1.90431 -0.17526199 1.376783
1.90536 -0.182726 1.3776132
1.9026101 -0.208932 1.371761
1.91063 -0.217511 1.3752018
1.9311099 -0.22259898 1.3889192
2.0102301 -0.25861099 1.4344301
1.90439 -0.17573699 1.3686986
1.9064 -0.18170999 1.3693396
1.9077801 -0.18855199 1.3684602
1.91326 -0.21754101 1.369164
1.93908 -0.221751 1.3851309
2.0060301 -0.247449 1.4236283
2.0137501 -0.25772399 1.4280343
2.01615 -0.278561 1.4231486
2.0151401 -0.28971398 1.4204266
1.9070799 -0.18225901 1.3625904
1.9030701 -0.19043501 1.3577327
1.92408 -0.22338499 1.3685178
2.0034399 -0.23888001 1.4148445
2.01559 -0.24486099 1.4218696
2.0167301 -0.25451401 1.4206015
2.0216799 -0.26597601 1.4213579
2.0224099 -0.278276 1.4187229
2.0186 -0.244431 1.4152011
2.02068 -0.255952 1.4135906
2.0302601 -0.26279601 1.4186225
2.0241599 -0.27447799 1.4115539
2.0221601 -0.28722098 1.406721
1.8937399 -0.213606 1.3167797
2.0243402 -0.25206 1.4076221
2.0269001 -0.263154 1.4072725
2.02702 -0.27490899 1.4037166
2.02405 -0.288297 1.3972864
1.90239 -0.21204701 1.3170015
1.91881 -0.215262 1.327957
2.01863 -0.24561301 1.3954747
2.0232401 -0.254785 1.3976265
2.0278101 -0.263809 1.397858
2.0280399 -0.27510598 1.3944709
2.0241001 -0.28668699 1.3879788
2.0199001 -0.298807 1.3826201
1.92761 -0.214616 1.3279328
1.93901 -0.22157101 1.3340538
2.0181301 -0.244739 1.3855671
2.02371 -0.254269 1.3888584
2.0253999 -0.26497599 1.3860066
2.0267 -0.276023 1.3836879
2.02739 -0.28702101 1.3814243
2.0163 -0.24451099 1.3741291
2.0250301 -0.254246 1.3791075
2.02777 -0.26606101 1.3774209
2.0283401 -0.27755299 1.3748645
2.03002 -0.25150099 1.3726687
2.0329101 -0.26240101 1.3722625
2.03333 -0.273902 1.3695657
2.0324099 -0.28553599 1.3665396
2.0267701 -0.25256699 1.3598973
2.04128 -0.25895 1.3694663
2.0429499 -0.269633 1.367887
2.0416 -0.281039 1.3643484
2.0302601 -0.25155199 1.3529187
2.04093 -0.25902998 1.3596039
2.0497301 -0.26631501 1.3650239
2.0474401 -0.27772799 1.3589101
2.0317299 -0.292568 1.3452787
2.0358901 -0.26085502 1.3455483
2.04738 -0.267869 1.3536158
2.05022 -0.27676901 1.3511194
2.0392501 -0.28908899 1.3398137
2.0323899 -0.261987 1.3322986
2.0488801 -0.267777 1.3448846
2.04989 -0.27791598 1.3412642
2.04199 -0.288876 1.3308716
2.0394099 -0.271705 1.3260669
2.0436201 -0.28096801 1.3262541
2.0411701 -0.28905198 1.3199211
2.0402498 -0.28057399 1.3138118
2.0392699 -0.28914601 1.3082904
1.94067 -0.35008401 1.7674099
1.92629 -0.24866 1.765426
1.9283201 -0.26005 1.7649689
1.93367 -0.27153701 1.7673559
1.9487399 -0.34033698 1.765856
1.93899 -0.35377201 1.759057
1.9256901 -0.366786 1.7509459
1.9186 -0.392804 1.741068
1.9451401 -0.22755501 1.7680758
1.94524 -0.235487 1.7695121
1.92765 -0.249368 1.758727
1.93636 -0.269804 1.7611859
1.9440401 -0.28006598 1.7629859
1.9492199 -0.29130802 1.764238
1.96058 -0.30052701 1.7686789
1.96483 -0.33376399 1.7660229
1.94558 -0.35144797 1.7556119
1.93399 -0.36528501 1.7490449
1.9186701 -0.38217601 1.7379899
1.9223 -0.39305601 1.7378939
1.93071 -0.39932597 1.741189
1.94233 -0.228048 1.7588949
1.94473 -0.235772 1.761565
1.93062 -0.24910101 1.7522389
1.9387699 -0.271263 1.7541609
1.94749 -0.280045 1.757175
1.95227 -0.28897601 1.7583319
1.95894 -0.299788 1.7596328
1.96839 -0.31050599 1.764153
1.9714301 -0.32157502 1.764312
1.9689701 -0.33220401 1.760253
1.9567599 -0.34750199 1.7527469
1.93602 -0.36563098 1.7425969
1.9169 -0.38235 1.7298059
1.92316 -0.39123198 1.733201
1.92779 -0.39956599 1.7348269
1.9459399 -0.227137 1.7527609
1.9439701 -0.23590401 1.753132
1.9339399 -0.248633 1.7458429
1.9458901 -0.281371 1.7491001
1.95904 -0.289819 1.7544209
1.9619299 -0.299059 1.753136
1.96841 -0.30928001 1.755123
1.9737601 -0.32054099 1.7580469
1.9705701 -0.33330002 1.7530451
1.9602001 -0.34768903 1.7465609
1.9402001 -0.364187 1.7368019
1.9209 -0.379208 1.725448
1.9229801 -0.38889802 1.7264899
1.9477401 -0.22673799 1.7463739
1.9462601 -0.23543501 1.7454109
1.9338299 -0.24921601 1.7383828
1.9607401 -0.288856 1.7478929
1.9628 -0.300457 1.7456149
1.97401 -0.30895099 1.750407
1.97401 -0.32030299 1.7493069
1.9752201 -0.33110401 1.748353
1.96681 -0.34317502 1.7429219
1.94628 -0.35997701 1.732536
1.9497 -0.226404 1.739906
1.95164 -0.233624 1.7403799
1.94082 -0.24469601 1.734327
1.95446 -0.302342 1.7328349
1.97234 -0.30979201 1.742273
1.9776199 -0.319141 1.7435789
1.9736999 -0.33056399 1.74045
1.96926 -0.34201899 1.7364039
1.9457201 -0.22699499 1.7300431
1.95033 -0.23358899 1.7321539
1.93989 -0.2432 1.7246989
1.95903 -0.30154198 1.7276379
1.96377 -0.310123 1.7303901
1.96446 -0.321558 1.7294749
1.9652699 -0.333159 1.7274539
1.9595599 -0.34312001 1.722319
1.94883 -0.22677 1.723725
1.94967 -0.234301 1.7236769
1.94392 -0.24258101 1.718429
1.95722 -0.299835 1.719849
1.95973 -0.31114799 1.720351
1.9510001 -0.33647901 1.711803
1.9508799 -0.34431303 1.7105108
1.94933 -0.226586 1.7157409
1.94907 -0.234303 1.714872
1.9416701 -0.242971 1.7102809
1.94973 -0.22669001 1.707703
1.9550999 -0.23305701 1.7095881
1.94321 -0.24256201 1.703828
1.9464799 -0.17597701 1.6977938
1.94927 -0.22674 1.6991409
1.9581101 -0.23177999 1.7043829
1.95296 -0.239948 1.7004559
1.96226 -0.16749799 1.701587
1.95081 -0.176116 1.694048
1.9424499 -0.22836299 1.68812
1.95381 -0.23279801 1.694531
1.9465401 -0.24206801 1.688004
1.94855 -0.170707 1.6877201
1.9563699 -0.17618099 1.69098
1.95163 -0.18558501 1.6861819
1.9525701 -0.233712 1.6850259
1.95039 -0.17827299 1.681017
1.9571401 -0.18785401 1.6818079
1.94349 -0.199183 1.6731099
1.93085 -0.22750601 1.664019
1.9494901 -0.233457 1.675427
1.9722501 -0.186507 1.6831
1.9669299 -0.196536 1.6792569
1.94505 -0.21253 1.665676
1.9319099 -0.225465 1.6573759
1.9465801 -0.23128201 1.664747
1.9772501 -0.18758601 1.6772519
1.9771299 -0.19430901 1.677943
1.9702001 -0.20548201 1.672489
1.94635 -0.22250099 1.6573099
1.9461501 -0.23231301 1.655291
1.96787 -0.190368 1.664843
1.97707 -0.19580901 1.6702499
1.9712801 -0.207187 1.664194
1.93582 -0.22669201 1.6430829
1.9569099 -0.231078 1.6535629
1.9369701 -0.242551 1.6418339
1.97606 -0.197717 1.661364
1.96566 -0.208864 1.6518129
1.95964 -0.22148001 1.6484289
1.95446 -0.232743 1.6439559
1.94709 -0.241136 1.640322
1.97129 -0.200268 1.649505
1.9748501 -0.207358 1.6499289
1.96812 -0.218227 1.644612
1.959 -0.23099001 1.638862
1.95487 -0.24005599 1.636801
1.98563 -0.33794701 1.636449
1.97916 -0.34859601 1.630986
1.95419 -0.203696 1.633225
1.9709101 -0.209169 1.641323
1.9823101 -0.21639799 1.645607
1.97535 -0.22683701 1.6398369
1.9607201 -0.238078 1.632014
1.97394 -0.28519699 1.632275
1.9812199 -0.29467601 1.6335598
1.9800999 -0.30674499 1.632618
1.98595 -0.32791901 1.6327159
1.99494 -0.33569801 1.6355139
1.99181 -0.34481603 1.632214
1.9193 -0.38566899 1.581129
1.98114 -0.218078 1.6376909
1.9836501 -0.22594601 1.6364249
1.96381 -0.236863 1.625289
1.99756 -0.27986801 1.637857
2.0111098 -0.28677902 1.6435981
1.99403 -0.30137599 1.6326289
1.97918 -0.31855401 1.622372
1.9936399 -0.32731301 1.629848
1.9876801 -0.33855 1.6240059
1.982 -0.34891701 1.6181239
1.9388001 -0.37824401 1.587007
1.93356 -0.389626 1.5829169
1.93142 -0.39820302 1.580478
1.9860699 -0.219263 1.630596
1.9853901 -0.22605601 1.630402
2.0170701 -0.276788 1.641118
2.0125899 -0.28759301 1.6371799
1.99159 -0.30374101 1.622638
1.9817599 -0.33065498 1.614923
1.9802001 -0.34203997 1.6117849
1.9679899 -0.35620201 1.601091
1.9513201 -0.37247798 1.5874559
1.94396 -0.38565701 1.5824689
1.93718 -0.39628801 1.5776309
1.9825901 -0.22045499 1.6188959
1.9888099 -0.22551501 1.623013
2.00422 -0.26891699 1.6270459
2.0218 -0.27569801 1.636924
2.00072 -0.29102799 1.6221619
1.96787 -0.34489301 1.596229
1.9635 -0.35773998 1.5899529
1.96006 -0.369286 1.585127
1.9561501 -0.38066602 1.581702
1.95207 -0.39120901 1.5777699
1.97384 -0.22240999 1.606182
1.98685 -0.22647101 1.613272
1.97495 -0.23527099 1.6051289
2.0231102 -0.26385099 1.628711
2.0123 -0.27527601 1.6237869
1.95883 -0.347799 1.5807689
1.96419 -0.359128 1.581731
1.96127 -0.37079701 1.5785279
1.9559 -0.38238898 1.5726939
1.95152 -0.392643 1.567295
1.9614301 -0.224586 1.58558
1.98914 -0.226715 1.607334
1.9802499 -0.236109 1.5993599
2.0285101 -0.25554502 1.625656
2.0474801 -0.25709 1.6364009
2.0308399 -0.26769698 1.6266999
1.9565401 -0.346903 1.5698791
1.9677401 -0.35555899 1.576417
1.96597 -0.36894 1.5723339
1.95136 -0.38538301 1.5606298
1.94684 -0.395183 1.556319
1.96083 -0.22448799 1.5788598
1.9806 -0.22896299 1.5923771
1.9796801 -0.238088 1.590367
1.97504 -0.24579901 1.5869699
2.0521898 -0.24927999 1.6336499
2.04796 -0.25554198 1.629747
1.9639 -0.34586102 1.5651519
1.9662499 -0.35685501 1.5662121
1.98007 -0.364122 1.572612
1.9792199 -0.37526 1.569459
1.97088 -0.38917899 1.562829
1.9831799 -0.39868599 1.565181
1.9838901 -0.40908101 1.5633039
1.9874201 -0.417564 1.563306
1.96012 -0.22442101 1.570421
1.96961 -0.23038 1.5772851
1.9875799 -0.23560101 1.5887439
1.9903101 -0.24258301 1.5896629
2.0634201 -0.24527599 1.6324049
2.04738 -0.254143 1.62146
1.9695599 -0.35393798 1.559189
1.98287 -0.36263502 1.5662559
1.99543 -0.370168 1.5710089
1.9852699 -0.385685 1.5624579
1.9934399 -0.39663503 1.564477
2.0011899 -0.40497002 1.568017
2.0092301 -0.41370898 1.5700699
2.0199099 -0.42281601 1.5736929
2.026 -0.43100899 1.5757279
1.9526601 -0.22550301 1.5572319
1.96646 -0.23013201 1.566812
1.97877 -0.236094 1.575701
2.0536599 -0.23972 1.6203439
2.0738599 -0.241319 1.6327809
1.99481 -0.27307901 1.5739659
1.96076 -0.346661 1.5457199
1.97935 -0.35442001 1.5565699
1.99597 -0.36082402 1.566118
1.9894999 -0.37271702 1.559229
1.98599 -0.38413602 1.5549979
1.99304 -0.39533502 1.5581039
1.99875 -0.40516299 1.559579
2.00669 -0.412844 1.5631
2.0134101 -0.42119098 1.565222
2.0302699 -0.42743501 1.574325
2.0327699 -0.43564901 1.5741879
1.9522099 -0.224783 1.548947
1.9622999 -0.229762 1.5563198
1.97138 -0.235193 1.562426
2.06673 -0.242789 1.6226439
1.99164 -0.27376199 1.5665829
1.95109 -0.34852201 1.5311329
1.9708999 -0.354453 1.542796
1.99501 -0.36025003 1.557694
1.9837101 -0.37301898 1.54707
1.98448 -0.40932202 1.544458
1.98912 -0.41779301 1.5456489
1.9498801 -0.22506 1.5410299
1.9618 -0.22931901 1.5490909
1.9904801 -0.28192601 1.55571
1.99489 -0.36083499 1.5492599
1.9824201 -0.37250099 1.5377229
1.95498 -0.223748 1.5391139
1.99217 -0.27278799 1.5499589
1.99623 -0.280108 1.552045
1.9924099 -0.29003799 1.5483459
1.9936399 -0.30071399 1.5474669
1.9936099 -0.362589 1.5408229
1.9783901 -0.373909 1.528577
2.00758 -0.26030502 1.5525049
1.9950501 -0.27072799 1.542573
1.99748 -0.279937 1.5454739
1.99603 -0.29117098 1.542004
1.9910201 -0.26245999 1.532766
1.99475 -0.270477 1.53397
1.9985001 -0.280642 1.5364189
2.0000501 -0.29268101 1.53526
1.9857401 -0.25536901 1.522063
1.9970599 -0.291334 1.524588
2.00424 -0.30114201 1.527634
1.99303 -0.315045 1.518468
2.0004401 -0.28954598 1.5179349
2.0056901 -0.29947701 1.5199488
2.0032301 -0.311308 1.516673
1.99429 -0.32380903 1.509553
2.0117102 -0.32879901 1.5178589
2.03157 -0.33308601 1.527018
2.00985 -0.308393 1.5125099
2.01717 -0.31810498 1.5161309
2.03421 -0.32488498 1.5242909
2.0429699 -0.33299401 1.526523
2.0072999 -0.301047 1.5029889
2.01512 -0.309935 1.5076329
2.0299299 -0.31671801 1.515264
2.0442998 -0.32435903 1.522033
2.04813 -0.33346 1.5224479
2.0490899 -0.34165099 1.5209298
2.01967 -0.308671 1.501608
2.0366201 -0.31612101 1.51122
2.04915 -0.32309398 1.5177739
2.0508001 -0.33163601 1.5180609
2.0517302 -0.34119201 1.5161569
2.05035 -0.35237202 1.511192
2.05197 -0.36372799 1.5075389
1.99896 -0.311111 1.476751
2.0188301 -0.31764701 1.4923329
2.0383298 -0.32385799 1.5046539
2.0492899 -0.33269501 1.510334
2.05373 -0.34466898 1.5091369
2.0541601 -0.355535 1.5052699
2.0708702 -0.360181 1.5142999
2.0665801 -0.36953601 1.5087309
2.05337 -0.356078 1.4982939
2.0759001 -0.35861 1.5116479
2.0756299 -0.367531 1.5090899
2.0695 -0.360587 1.500959
2.0864599 -0.365601 1.509869
2.08569 -0.37492999 1.5006909
2.0116601 -0.28619701 1.4541241
2.0136499 -0.28571999 1.4461519
2.01565 -0.27632001 1.4402391
2.0160201 -0.28667 1.4379648
2.02036 -0.26350999 1.4339328
2.0179899 -0.27591801 1.4321114
2.0128798 -0.29837701 1.4251193
2.0067899 -0.24552299 1.4191524
2.0156701 -0.254962 1.42393
2.02406 -0.26262701 1.4283737
2.02614 -0.27213401 1.4280481
2.0252399 -0.28380099 1.4267256
2.0159101 -0.296372 1.4188623
2.01386 -0.25271201 1.4136248
2.02684 -0.26176 1.4214685
2.0288 -0.27251899 1.4203876
2.03125 -0.28111401 1.4223626
2.0299401 -0.29084399 1.4201024
2.0231102 -0.25357902 1.4109013
2.0343499 -0.26023301 1.4181877
2.02983 -0.27058598 1.4130081
2.0329299 -0.28139901 1.4132979
2.0338099 -0.28998199 1.4126315
2.0220199 -0.25238502 1.400898
2.0281701 -0.26216 1.4045366
2.0343599 -0.27172399 1.4073112
2.0276899 -0.28347501 1.3978636
2.0362999 -0.29040501 1.4040073
2.0216 -0.25170299 1.3909688
2.0274301 -0.26073501 1.3949054
2.0346801 -0.270845 1.3974651
2.0331299 -0.282336 1.392856
2.0307801 -0.292573 1.3899884
2.0176499 -0.30417499 1.3780516
2.01987 -0.25240999 1.3795253
2.0332999 -0.2608 1.3895319
2.03181 -0.27111301 1.3861045
2.03775 -0.27904302 1.3885889
2.03424 -0.29041299 1.3839145
2.0253799 -0.30183399 1.3763938
2.0174899 -0.311575 1.3693445
2.02215 -0.25130302 1.3716955
2.0322502 -0.26008099 1.3786107
2.03971 -0.269357 1.3839093
2.0404601 -0.279928 1.3805859
2.0334198 -0.291278 1.3749164
2.0890701 -0.35287103 1.3966728
2.1006401 -0.38293302 1.3989128
2.0311701 -0.25895101 1.3678253
2.0411501 -0.26865399 1.3744328
2.0465 -0.27796701 1.3747931
2.04615 -0.286392 1.3755012
2.0218801 -0.332562 1.3441585
2.0458801 -0.333359 1.3621008
2.0706201 -0.336409 1.379927
2.0899401 -0.34342802 1.3930602
2.1022501 -0.34895402 1.4022075
2.09935 -0.35890701 1.3971368
2.10848 -0.36909699 1.4015138
2.0293801 -0.251946 1.3576931
2.0360601 -0.26146299 1.3616451
2.04826 -0.268933 1.3700204
2.0467901 -0.27790299 1.3651739
2.0519099 -0.283943 1.3701401
2.0348101 -0.329716 1.3492227
2.0578899 -0.331864 1.3663646
2.0785601 -0.33748999 1.3791301
2.0945101 -0.342747 1.3892142
2.0992401 -0.350113 1.3928245
2.10653 -0.35794103 1.3954921
2.10376 -0.36839801 1.3909744
2.1094599 -0.37775299 1.3950113
2.0367401 -0.26002398 1.3522885
2.04865 -0.26855001 1.3608241
2.05181 -0.27675 1.3611151
2.05458 -0.28313199 1.3618708
2.0943 -0.342868 1.3813958
2.10111 -0.34944803 1.3860439
2.0978799 -0.35923302 1.3811461
2.0353701 -0.25975901 1.3411847
2.0509501 -0.26706201 1.3527189
2.0536301 -0.27617002 1.3542958
2.0545499 -0.28365698 1.3512373
2.0892899 -0.34488201 1.3700408
2.0931101 -0.35119203 1.3721732
2.0397902 -0.269465 1.3330131
2.0533299 -0.276678 1.3432965
2.0573301 -0.283362 1.3444731
2.0453799 -0.27847999 1.3261862
2.05193 -0.285041 1.3314165
2.0394299 -0.28922501 1.3096892
1.85798 -0.25209001 1.7653979
1.8563901 -0.251919 1.7566719
1.9057801 -0.23787701 1.767401
1.91816 -0.23058501 1.7677499
1.8611799 -0.25438899 1.7482449
1.9175 -0.23871799 1.7609839
1.9227999 -0.231712 1.759706
1.86537 -0.25455999 1.7405629
1.9200599 -0.24068701 1.7519361
1.9154201 -0.230858 1.749413
1.92024 -0.240648 1.7431901
1.9158901 -0.23106301 1.7417619
1.9474001 -0.24234699 1.7397408
1.9243801 -0.231245 1.7350389
1.94399 -0.24166201 1.7300949
1.9291999 -0.231591 1.7269831
1.9512399 -0.24132299 1.723496
1.9256101 -0.229903 1.717235
1.9468499 -0.241119 1.7155288
1.9164101 -0.228295 1.706762
1.92114 -0.218703 1.706563
1.9161099 -0.22644199 1.698486
1.91228 -0.216084 1.6973701
1.9177099 -0.22632 1.6915829
1.9128599 -0.215839 1.6896369
1.9101601 -0.223563 1.6827109
1.9341099 -0.21743201 1.685943
1.90666 -0.22234899 1.675959
1.8576 -0.31872201 1.614223
1.8782699 -0.22476101 1.6069111
1.85561 -0.29091498 1.59793
1.85952 -0.26582399 1.5981909
1.87201 -0.25345901 1.5983069
1.87694 -0.23865999 1.599762
1.91108 -0.22931901 1.60325
1.9121801 -0.2191 1.603678
1.9559 -0.357876 1.5975158
1.85987 -0.27908099 1.5912659
1.86851 -0.265643 1.5907669
1.87726 -0.25203699 1.5915771
1.8946201 -0.22719601 1.595822
1.9389701 -0.36366001 1.589628
1.94726 -0.36440498 1.5832191
1.94786 -0.36599499 1.577036
1.93951 -0.35313201 1.57552
1.96026 -0.35903302 1.5727159
1.9438601 -0.228754 1.560645
1.92776 -0.21764299 1.559462
1.95425 -0.23037501 1.5551469
1.93511 -0.21861099 1.5542659
1.9537101 -0.23068 1.547892
1.95298 -0.21837001 1.5475389
1.98071 -0.202687 1.5473399
1.9911599 -0.186874 1.5478349
2.0038099 -0.174454 1.5487689
1.9541701 -0.23018499 1.5396149
1.9565101 -0.213773 1.539258
1.98283 -0.20244101 1.5413159
1.9878501 -0.188768 1.5411921
1.99429 -0.17476499 1.5423019
2.00811 -0.161617 1.542119
2.0202901 -0.14665399 1.541131
1.9536301 -0.23075199 1.5302479
1.9537101 -0.215866 1.530075
1.98255 -0.20189501 1.5338559
1.9815601 -0.187299 1.533342
1.99854 -0.17349701 1.53453
2.0151701 -0.158158 1.5356539
2.00822 -0.14379901 1.533533
1.9467101 -0.228058 1.521408
1.9480901 -0.21433201 1.5209479
1.9771299 -0.203104 1.5248219
1.99078 -0.18830499 1.526989
1.99471 -0.17296301 1.5260119
1.9995599 -0.156193 1.526741
2.0132899 -0.14077699 1.527074
1.94336 -0.217112 1.51299
1.9652699 -0.205017 1.5157859
1.9719701 -0.189132 1.5184419
1.99234 -0.142682 1.519693
2.0136302 -0.12789601 1.520605
1.9343699 -0.21477599 1.5036459
1.9233099 -0.22814699 1.4951669
1.9159399 -0.21127801 1.4935288
1.92251 -0.22506501 1.4861249
1.9044 -0.195326 1.3981022
1.8863901 -0.178864 1.3974633
1.89297 -0.16892099 1.3980913
1.88782 -0.180278 1.3912472
1.8869799 -0.16859101 1.392144
1.89054 -0.17964301 1.3829679
1.88905 -0.167989 1.3836725
1.9102901 -0.24732299 1.3760979
1.88176 -0.178782 1.3757182
1.89308 -0.16811399 1.3755324
1.9011501 -0.15781 1.3748384
1.90631 -0.246831 1.3669078
1.8972 -0.16729499 1.3676808
1.9084899 -0.158023 1.3676189
1.90546 -0.24758801 1.3595467
1.89511 -0.189806 1.3607581
1.8982401 -0.17882799 1.3599336
1.91793 -0.169534 1.3606005
1.8991001 -0.190193 1.3516504
1.90088 -0.18072 1.3525729
1.8933901 -0.19088601 1.3445019
1.9035801 -0.183172 1.3450215
1.9009801 -0.192854 1.3390619
1.89432 -0.35654998 1.3128743
1.87605 -0.35261101 1.3074816
1.8964 -0.34825802 1.3075033
1.8841901 -0.337466 1.3077775
1.8802099 -0.352943 1.3008267
1.88482 -0.34490299 1.3012605
1.9011 -0.356929 1.2941144
1.886 -0.34303397 1.294252
1.8775301 -0.32925099 1.2932739
1.8969001 -0.31638598 1.2901074
1.91875 -0.26317701 1.2921594
1.88582 -0.32803699 1.2858205
1.88757 -0.31643701 1.2833333
1.9288901 -0.30634701 1.2822963
1.9202499 -0.264 1.2835357
1.88454 -0.32448798 1.2775234
1.8984101 -0.31423301 1.275027
1.92585 -0.30260199 1.2744627
1.91931 -0.27350599 1.2759175
1.9205201 -0.263742 1.2742441
1.8884101 -0.32315102 1.2687759
1.90086 -0.31485301 1.2659163
1.9180599 -0.303693 1.2661324
1.9182899 -0.27400699 1.2678986
1.89614 -0.32391202 1.260312
1.89577 -0.314082 1.25921
1.91221 -0.304059 1.257809
1.92019 -0.27592501 1.2588689
1.9100599 -0.26313698 1.257486
1.89982 -0.312693 1.252128
1.9164101 -0.30236998 1.2488589
1.9216701 -0.28971002 1.2509409
1.9113699 -0.27426299 1.2506539
1.8920399 -0.26142401 1.2512549
1.91154 -0.31174001 1.2424989
1.90739 -0.30009198 1.241396
1.9207001 -0.28946501 1.2425159
1.9008501 -0.274611 1.243856
1.91394 -0.30096999 1.234095
1.91144 -0.289873 1.234216
1.8359599 -0.26938701 1.760147
1.85051 -0.25904301 1.7619629
1.8555901 -0.24605101 1.7620579
1.8542501 -0.25741601 1.7532511
1.86691 -0.24393199 1.7552769
1.90233 -0.23445499 1.763793
1.90414 -0.22143801 1.76203
1.9142799 -0.212164 1.764027
1.85148 -0.25824299 1.7439239
1.8688 -0.247131 1.747442
1.89957 -0.23590401 1.753693
1.90574 -0.221912 1.752854
1.91327 -0.212423 1.7560719
1.88143 -0.24681 1.7410889
1.9083 -0.23536 1.7459599
1.90197 -0.220801 1.743582
1.91576 -0.213311 1.74771
1.9066901 -0.23901199 1.7372929
1.90863 -0.224574 1.7370858
1.9079801 -0.21225099 1.736514
1.90834 -0.23638301 1.7296989
1.9047799 -0.222012 1.727142
1.9108299 -0.21191099 1.728498
1.9038901 -0.236689 1.719842
1.90636 -0.22258399 1.717979
1.9065801 -0.21132401 1.7196379
1.90729 -0.23519501 1.7116009
1.90132 -0.221609 1.7082399
1.91302 -0.21330601 1.7119099
1.90465 -0.23521799 1.7024781
1.90503 -0.22224399 1.7012579
1.90847 -0.21245399 1.701642
1.9154401 -0.237939 1.69642
1.9063201 -0.222683 1.6932359
1.91179 -0.21282101 1.693579
1.91339 -0.23390499 1.6869819
1.9050701 -0.22189599 1.6835939
1.9089999 -0.212611 1.68418
1.90976 -0.23140199 1.676966
1.90686 -0.221314 1.676422
1.9107201 -0.21261999 1.675195
1.9126101 -0.23082899 1.668906
1.91502 -0.22230101 1.6696219
1.92564 -0.21457501 1.668853
1.91624 -0.22120701 1.6602169
1.93601 -0.215152 1.662384
1.91625 -0.22067301 1.650591
1.9217 -0.212249 1.652238
1.9389701 -0.235165 1.64802
1.91636 -0.221191 1.644693
1.92178 -0.21301399 1.6455539
1.9452699 -0.20710501 1.6493329
1.85543 -0.300973 1.6027379
1.85673 -0.28563601 1.6022699
1.8584399 -0.24459499 1.6013778
1.88385 -0.22077101 1.6026869
1.89323 -0.212577 1.6034681
1.8583 -0.272728 1.594189
1.86044 -0.25739101 1.5939499
1.8657601 -0.244046 1.5946879
1.9824899 -0.39516202 1.599813
1.98498 -0.38570598 1.5991319
1.8535401 -0.288219 1.584982
1.86051 -0.260631 1.5862479
1.8618699 -0.24716499 1.585849
1.9719901 -0.39181301 1.5925099
1.9562399 -0.37694901 1.588769
1.96314 -0.36888501 1.5895799
1.95987 -0.38752702 1.583405
1.9478799 -0.37336898 1.579288
1.95433 -0.362955 1.5804399
1.9522099 -0.38411301 1.5740759
1.94789 -0.37253702 1.572018
1.95366 -0.360892 1.5716499
1.91278 -0.22328 1.561044
1.91719 -0.214617 1.561312
1.97729 -0.37944698 1.5687549
1.97901 -0.36967 1.5677449
1.92442 -0.22549999 1.556116
1.92343 -0.21557699 1.5557529
2.0029402 -0.37620202 1.5646379
1.9247301 -0.22587 1.548595
1.9279801 -0.216768 1.548463
1.9301 -0.22703101 1.540925
1.9271899 -0.21637601 1.5388891
1.92716 -0.225371 1.531991
1.93311 -0.216666 1.5306489
1.92844 -0.226567 1.5229239
1.92892 -0.215555 1.522208
1.91433 -0.225972 1.512686
1.91861 -0.21257 1.512285
1.91664 -0.224574 1.5045209
1.9139501 -0.222183 1.4955029
1.94898 -0.203435 1.4340379
1.90316 -0.259321 1.3686992
1.8839101 -0.256569 1.3605783
1.8982201 -0.27096701 1.3533852
1.9065601 -0.27646101 1.335152
1.88492 -0.35547403 1.3132913
1.87257 -0.35188901 1.307598
1.8971699 -0.349603 1.3072551
1.8749499 -0.35150701 1.3008004
1.88595 -0.34494799 1.2998695
1.88291 -0.35241902 1.2929199
1.8909 -0.34294102 1.2913808
1.90771 -0.335145 1.2902005
1.88388 -0.35222 1.2866608
1.88745 -0.34131101 1.2851539
1.90965 -0.33348599 1.2830542
1.9017 -0.316587 1.2831733
1.9324299 -0.30733699 1.2833934
1.9252299 -0.29591 1.2820532
1.91114 -0.33126599 1.2750574
1.90437 -0.31759301 1.2759333
1.9257699 -0.30761001 1.2748839
1.92377 -0.294992 1.2730968
1.92321 -0.32999402 1.2660148
1.91064 -0.315631 1.2674803
1.9201199 -0.30423599 1.2667861
1.9163499 -0.29308999 1.2650746
1.9201601 -0.31623301 1.259136
1.9114 -0.302551 1.25949
1.89993 -0.28976199 1.2578779
1.9022701 -0.29928699 1.2525239
1.83767 -0.351538 1.7661178
1.89511 -0.24633899 1.7694019
1.85761 -0.25525799 1.754486
1.8889101 -0.249093 1.7596879
1.90573 -0.23628099 1.762189
1.9083 -0.220017 1.7597749
1.92388 -0.21118601 1.763678
1.8608501 -0.25645 1.746111
1.8958099 -0.24902301 1.752007
1.9124299 -0.23620501 1.7532099
1.90626 -0.218256 1.7507199
1.9218401 -0.20926501 1.754166
1.9213001 -0.19855499 1.7541749
1.91521 -0.38272598 1.7516249
1.91662 -0.37231499 1.7507709
1.91676 -0.23895399 1.744686
1.9072 -0.221351 1.743704
1.91483 -0.20876899 1.7438159
1.92108 -0.198458 1.746044
1.91145 -0.37977698 1.744769
1.9208901 -0.239897 1.7373481
1.91039 -0.222339 1.7353909
1.91423 -0.208736 1.7345599
1.9192799 -0.198627 1.7368329
1.90784 -0.37739301 1.7359588
1.90934 -0.36738601 1.733902
1.9172 -0.24834299 1.7304059
1.91939 -0.236431 1.7298858
1.91188 -0.220532 1.726231
1.9099001 -0.207259 1.7266639
1.9092 -0.37799901 1.7274688
1.9167 -0.23439501 1.721059
1.91026 -0.220599 1.7160709
1.91333 -0.209673 1.718079
1.96821 -0.14914 1.7233779
1.91694 -0.38134998 1.7224929
1.9156799 -0.369183 1.721736
1.9133 -0.232279 1.710567
1.90681 -0.21886101 1.706093
1.91935 -0.20950001 1.7088009
1.9691701 -0.167463 1.7131779
1.9747 -0.15605301 1.715138
1.96964 -0.141717 1.715596
1.9118201 -0.231663 1.7009549
1.90557 -0.218272 1.696933
1.9122 -0.205864 1.69847
1.94136 -0.19679199 1.7026749
1.96241 -0.18482599 1.705272
1.9675 -0.169671 1.706176
1.96323 -0.154595 1.705078
1.9689 -0.143997 1.7045819
1.90836 -0.233541 1.6907649
1.90417 -0.21827 1.6883811
1.91219 -0.20605499 1.689883
1.92505 -0.19417801 1.691751
1.9683299 -0.18495199 1.6998489
1.96155 -0.168283 1.6971439
1.96938 -0.155691 1.697251
1.9747901 -0.145639 1.697168
1.9043201 -0.236303 1.6825
1.91439 -0.22363301 1.6827409
1.91268 -0.20865101 1.681639
1.92513 -0.19473 1.6832559
1.9572501 -0.18340001 1.688823
1.9702201 -0.169734 1.6903659
1.9733701 -0.157353 1.6904529
1.91511 -0.23299299 1.6749359
1.91494 -0.22106199 1.674897
1.91711 -0.20964099 1.6737909
1.95295 -0.18356301 1.6793389
1.9745101 -0.174945 1.682179
1.92465 -0.23309 1.667601
1.9205099 -0.222259 1.6673259
1.92828 -0.213383 1.6656849
1.97021 -0.18667699 1.671998
1.9860699 -0.18112801 1.6740119
1.92267 -0.221148 1.6575149
1.93636 -0.21200301 1.6582309
1.9820501 -0.20125 1.6658158
1.9716499 -0.18994699 1.6639509
1.91901 -0.220079 1.6473759
1.93515 -0.212372 1.6505749
1.96569 -0.20277099 1.656535
1.98131 -0.195024 1.6591089
1.91664 -0.230124 1.6411389
1.91491 -0.209986 1.6407219
1.92361 -0.20153899 1.6421939
1.85511 -0.28476298 1.6080269
1.8582699 -0.28879899 1.5993309
1.86298 -0.25910401 1.598864
1.8694 -0.247458 1.6001168
1.86289 -0.23406 1.6002851
1.8567901 -0.28369498 1.5907998
1.86392 -0.27162901 1.5918889
1.86358 -0.259637 1.5906549
1.86094 -0.271956 1.5833539
1.92416 -0.22673599 1.5577099
1.93361 -0.21752399 1.5582489
1.93451 -0.229142 1.552506
1.91978 -0.21385099 1.5505179
1.98083 -0.20023599 1.5522159
2.0105801 -0.19416501 1.555379
1.9272301 -0.21577699 1.5434129
1.9720399 -0.20267901 1.544222
1.9958501 -0.19308001 1.5476109
2.0072601 -0.18040399 1.548432
2.01683 -0.166099 1.5476639
2.0258501 -0.151204 1.546713
1.93409 -0.229289 1.5359889
1.93433 -0.212639 1.5346351
1.9625599 -0.204106 1.5358589
1.9883599 -0.19363399 1.5380969
1.99787 -0.180052 1.540347
2.0034301 -0.16396299 1.5389749
2.01331 -0.148782 1.5392169
1.925 -0.225666 1.526402
1.9339399 -0.21184 1.5260249
1.96523 -0.20318501 1.528309
1.9946201 -0.19393499 1.530149
2.00226 -0.178967 1.531781
2.01261 -0.16378099 1.5311009
2.0051301 -0.147089 1.5304379
1.9198101 -0.22395501 1.517038
1.93609 -0.211207 1.517164
1.96964 -0.202038 1.5220459
2.00247 -0.19583401 1.5247879
1.99605 -0.18011101 1.524419
2.0081701 -0.165961 1.525018
2.01405 -0.14881 1.524142
2.0137398 -0.13373299 1.5236599
1.92159 -0.22394601 1.507863
1.9287801 -0.211143 1.5080289
2.01807 -0.130983 1.5172459
1.9167 -0.22471599 1.4986049
1.921 -0.209773 1.4995369
1.9097301 -0.21939501 1.4900579
1.92101 -0.20908199 1.41153
1.92651 -0.199191 1.4120575
1.9155099 -0.207986 1.4034355
1.91091 -0.192763 1.401401
1.8970101 -0.21371999 1.3961258
1.91982 -0.20731501 1.3944592
1.8997099 -0.187341 1.3931469
1.8954899 -0.173098 1.3928652
1.90966 -0.16471 1.3926851
1.9058099 -0.21583201 1.3873203
1.9207801 -0.20952199 1.3859111
1.8944701 -0.17384 1.3852394
1.8978 -0.162496 1.3861712
1.91467 -0.21929801 1.3776066
1.92304 -0.208867 1.3786985
1.887 -0.17211099 1.3765152
1.89828 -0.16310301 1.3772131
1.90186 -0.226593 1.3694336
1.9202 -0.222215 1.3696196
1.91511 -0.207875 1.3702126
1.89089 -0.17200899 1.3688601
1.90093 -0.16303 1.3686988
1.88816 -0.27128801 1.3637122
1.91767 -0.220598 1.3616056
1.90885 -0.204528 1.3618535
1.8977901 -0.18751499 1.36111
1.90916 -0.17624599 1.3618593
1.92197 -0.16768199 1.3625494
1.9267399 -0.22481899 1.351096
1.9062899 -0.205422 1.3523204
1.89928 -0.189163 1.3536844
1.90039 -0.229908 1.3431668
1.92321 -0.224089 1.3425249
1.9082899 -0.2066 1.3429859
1.90474 -0.194336 1.3447043
1.9293801 -0.227495 1.3332527
1.9167501 -0.210545 1.3351735
1.91961 -0.19938201 1.3350356
1.92582 -0.226983 1.3257794
1.9331599 -0.214526 1.3259501
1.93457 -0.202581 1.326305
1.93085 -0.228946 1.3176889
1.9425701 -0.216388 1.3159407
1.94296 -0.20496701 1.3178146
1.93076 -0.21274 1.308692
1.9383 -0.20443001 1.3084984
1.93759 -0.21500401 1.3010631
1.94372 -0.20497601 1.2990495
1.94138 -0.215707 1.2913784
1.94981 -0.20587701 1.2908849
1.9352901 -0.21560301 1.2819431
1.95102 -0.20714898 1.2829567
1.9398301 -0.21591699 1.2738944
1.9447501 -0.20643699 1.2735341
1.9377 -0.21549101 1.2662724
1.9502901 -0.207082 1.2636166
1.92205 -0.252482 1.2564609
1.9243201 -0.24256501 1.256645
1.94152 -0.21700001 1.256001
1.9503701 -0.20687401 1.2552059
1.9073199 -0.24976 1.247607
1.92747 -0.242273 1.248441
1.9397099 -0.23025601 1.248138
1.9391999 -0.217168 1.2467589
1.95152 -0.208069 1.2463239
1.9023399 -0.25133601 1.238922
1.9241999 -0.244709 1.239089
1.93536 -0.23088899 1.2394249
1.93935 -0.216049 1.238258
1.95426 -0.20751499 1.2366779
1.89194 -0.259801 1.2315469
1.9166 -0.25494102 1.230166
1.92741 -0.24275601 1.2313329
1.8343101 -0.27954501 1.769142
1.84635 -0.36066601 1.7686779
1.82785 -0.34229001 1.7656829
1.8597 -0.253086 1.7628409
1.8844 -0.24602801 1.7685109
1.8974099 -0.220879 1.7676649
1.90751 -0.211795 1.7695929
1.8655601 -0.36965001 1.7641249
1.8454801 -0.26667202 1.752666
1.8553101 -0.254706 1.7546719
1.88336 -0.24889 1.759081
1.9095501 -0.239674 1.763857
1.9006701 -0.220514 1.7593559
1.9071201 -0.210701 1.76034
1.89248 -0.38202399 1.763298
1.85855 -0.25541902 1.7458091
1.8871601 -0.24610399 1.750587
1.91359 -0.238683 1.755338
1.8956701 -0.21941099 1.749128
1.90283 -0.20932899 1.750285
1.89072 -0.381899 1.7573099
1.85711 -0.25639701 1.735939
1.9067799 -0.238153 1.7441539
1.89729 -0.21839599 1.7411749
1.90834 -0.21070601 1.7426289
1.9193699 -0.242166 1.7362299
1.90203 -0.222259 1.73384
1.9062101 -0.21082801 1.733392
1.92847 -0.24438101 1.7299479
1.90625 -0.22330999 1.7250079
1.9123399 -0.213117 1.725374
1.92361 -0.24166401 1.720616
1.90713 -0.222672 1.716406
1.9076401 -0.21144 1.715582
1.9236901 -0.242421 1.711163
1.9107201 -0.223994 1.7085938
1.9193 -0.21513 1.708774
1.92709 -0.24238701 1.702668
1.9121001 -0.225932 1.70038
1.91048 -0.21313401 1.698387
1.92924 -0.24083799 1.6937289
1.91194 -0.22468001 1.691451
1.9162601 -0.21507601 1.6893549
1.93542 -0.24238701 1.687896
1.9171801 -0.224967 1.683471
1.908 -0.21119301 1.6785179
1.90844 -0.219668 1.6723529
1.91237 -0.21162701 1.6701279
1.90817 -0.218403 1.6628989
1.9159 -0.21229799 1.661687
1.91071 -0.22026101 1.6533499
1.92287 -0.22524999 1.646494
1.91224 -0.21259899 1.6451019
1.91371 -0.23217601 1.6394809
1.85663 -0.31623101 1.6163809
1.85449 -0.31422701 1.607291
1.85043 -0.29997298 1.607007
1.85711 -0.28656501 1.605827
1.85551 -0.314776 1.5975338
1.85481 -0.30158702 1.598302
1.85615 -0.28658801 1.5967278
1.8599401 -0.259433 1.595897
1.86066 -0.31705201 1.589608
1.8585299 -0.30594298 1.590475
1.8583901 -0.291637 1.5893649
1.8588901 -0.27424699 1.5887079
1.86203 -0.26131299 1.587791
1.90625 -0.20976 1.567583
1.91761 -0.21330099 1.562722
1.91668 -0.22285999 1.5562059
1.9118899 -0.21213 1.555494
1.92351 -0.21733201 1.548808
1.92636 -0.22047701 1.5390229
1.9236 -0.218206 1.5285869
1.92418 -0.21610799 1.518898
1.9215 -0.229215 1.512518
1.92507 -0.21561001 1.511014
1.9382001 -0.20464899 1.5110379
1.9228101 -0.228521 1.5037689
1.92502 -0.21289301 1.5032399
1.9194299 -0.22487199 1.494782
1.91959 -0.23018299 1.486091
1.90425 -0.223113 1.4156842
1.92483 -0.21791799 1.4153272
1.91933 -0.22458701 1.4062036
1.9188401 -0.21302201 1.4051093
1.89985 -0.21977399 1.3956047
1.9230299 -0.21395901 1.3977557
1.9004201 -0.19226199 1.395558
1.8920599 -0.17236499 1.3932687
1.9117199 -0.166604 1.3932486
1.90248 -0.22277701 1.3868043
1.9140401 -0.20942101 1.3886087
1.89747 -0.18596099 1.3876957
1.8891001 -0.169809 1.3872881
1.89403 -0.16082701 1.3869028
1.89702 -0.22129899 1.3790727
1.9146299 -0.211395 1.3789099
1.89379 -0.17119801 1.3799843
1.8904099 -0.159099 1.3796288
1.89994 -0.237911 1.371626
1.90785 -0.22480601 1.3709786
1.91696 -0.211032 1.3703618
1.89886 -0.174467 1.371753
1.89262 -0.160338 1.372429
1.9092 -0.23927499 1.3640187
1.9202 -0.22889 1.3614496
1.91408 -0.21312599 1.3629761
1.90929 -0.19676901 1.3635831
1.90149 -0.177846 1.3651056
1.9037801 -0.16541201 1.3658534
1.9186599 -0.23987401 1.3536172
1.9185001 -0.2164 1.3543161
1.92584 -0.23134701 1.3458121
1.91953 -0.218078 1.3441408
1.9054401 -0.25088701 1.3356831
1.92453 -0.23234199 1.3355423
1.92251 -0.219116 1.3358552
1.92062 -0.218918 1.3280838
1.93171 -0.222974 1.3189505
1.93612 -0.22471201 1.3097001
1.9342901 -0.223874 1.3002919
