# .PCD v0.7 - Point Cloud Data file format
VERSION 0.7
FIELDS x y z
SIZE 4 4 4
TYPE F F F
COUNT 1 1 1
WIDTH 1597
HEIGHT 1
VIEWPOINT 0 0 0 1 0 0 0
POINTS 1597
DATA ascii
1.95898 -0.37865102 1.0482739
1.93799 -0.358437 1.0536909
1.93726 -0.34627301 1.054073
1.91353 -0.280734 1.0588039
1.94638 -0.218545 1.0550809
1.94989 -0.20678699 1.0538069
1.9577401 -0.388987 1.039616
1.9602799 -0.37858599 1.0396819
1.95583 -0.364427 1.0408139
1.94687 -0.349673 1.0443559
1.9094901 -0.280332 1.050356
1.9211 -0.27145499 1.0502319
1.9228599 -0.25834802 1.049817
1.9319299 -0.24529301 1.0479649
1.94716 -0.23013 1.047112
1.95313 -0.21629401 1.0461819
1.9631599 -0.20755699 1.0447119
1.95972 -0.38882801 1.0294899
1.9573599 -0.37671399 1.031966
1.9606301 -0.36515701 1.031969
1.9457 -0.350981 1.0358199
1.89723 -0.277033 1.0445759
1.92124 -0.27270499 1.041759
1.92573 -0.2595 1.0411249
1.9291999 -0.24486201 1.0392709
1.92557 -0.228002 1.040466
1.93776 -0.21469101 1.0401169
1.9513099 -0.2054 1.03918
1.96427 -0.39024898 1.0212219
1.96763 -0.380896 1.0216489
1.96469 -0.36800301 1.0241719
1.92162 -0.26947001 1.032748
1.9227901 -0.25533599 1.032427
1.9202299 -0.23951201 1.032751
1.9197 -0.224545 1.0325029
1.9185001 -0.21119601 1.034143
1.9359801 -0.203134 1.0329199
1.9715101 -0.38253701 1.0146379
1.96453 -0.37027901 1.0168939
1.91722 -0.26876801 1.0227139
1.92337 -0.25742701 1.0233189
1.92057 -0.24275601 1.0249209
1.92215 -0.22720301 1.0236039
1.9162199 -0.21042801 1.025751
1.92123 -0.198228 1.0254579
1.97592 -0.1347 1.013463
1.9921499 -0.124212 1.011917
1.91461 -0.269986 1.014091
1.92071 -0.259442 1.014596
1.9275 -0.24420099 1.013844
1.9305 -0.22717801 1.0129739
1.9090101 -0.208902 1.018539
1.9195399 -0.19719 1.0177789
1.9136901 -0.18073499 1.0167919
1.92887 -0.16433001 1.0128609
1.95287 -0.15143099 1.0093089
1.96716 -0.13777401 1.0082729
1.98577 -0.125855 1.0064839
1.91927 -0.28142202 1.004207
1.91864 -0.270612 1.0065489
1.9213901 -0.25788602 1.0061769
1.9346499 -0.246299 1.003107
1.93538 -0.230947 1.003158
1.92984 -0.212414 1.006001
1.91295 -0.19419201 1.0109169
1.90125 -0.17774001 1.0114429
1.9145199 -0.16532801 1.0090489
1.9391999 -0.152115 1.0047469
1.94733 -0.13878 1.005075
1.97349 -0.128227 1.00086
1.92259 -0.28406399 0.99471194
1.91819 -0.270383 0.99780297
1.92063 -0.25627002 0.99812198
1.9499401 -0.23326901 0.99151093
1.9559801 -0.220919 0.99075699
1.9067501 -0.189354 1.003819
1.89556 -0.172556 1.0046339
1.91536 -0.16078301 1.0008949
1.94092 -0.150308 0.99632996
1.9484199 -0.13854 0.99745196
1.9724001 -0.128243 0.99373597
1.9210899 -0.284805 0.98694497
1.92203 -0.273974 0.98746699
1.91987 -0.25727901 0.98874098
1.9589 -0.219319 0.98240095
1.96119 -0.20997299 0.98112696
1.8823199 -0.17084999 0.99872392
1.8927799 -0.15999199 0.99670595
1.9157201 -0.149073 0.9935289
1.9383501 -0.138338 0.99162596
1.9186599 -0.28289199 0.97873795
1.92138 -0.270753 0.97915387
1.91696 -0.25705099 0.98062897
1.95985 -0.21942499 0.97433698
1.9658 -0.209328 0.97145998
1.86212 -0.16610201 0.99413896
1.86774 -0.157433 0.99326688
1.87457 -0.14703301 0.99175692
1.94916 -0.14214501 0.98288697
1.9223399 -0.283663 0.96791792
1.9212601 -0.27167299 0.97016299
1.91958 -0.257236 0.97235698
1.93827 -0.24446699 0.96721697
1.9614999 -0.21947099 0.96405196
1.97075 -0.209387 0.9624849
1.8586301 -0.162999 0.98746294
1.9259501 -0.27416301 0.95978594
1.9255999 -0.25791299 0.96130097
1.93269 -0.24250999 0.95902598
1.9562 -0.231518 0.95588702
1.9608001 -0.218024 0.95480502
1.9621401 -0.20784901 0.9563809
1.9289999 -0.26185399 0.95097995
1.92396 -0.24398001 0.952034
1.9469399 -0.23196399 0.94843894
1.96106 -0.21957199 0.94625902
1.96382 -0.20869699 0.946953
1.9259599 -0.27257299 0.94236892
1.9227201 -0.25659001 0.943546
1.9215199 -0.24298599 0.94433701
1.9232001 -0.23056601 0.94430494
1.95775 -0.219813 0.93848097
1.9656399 -0.20872101 0.93670899
1.9264301 -0.26052901 0.93402499
1.9172901 -0.24259099 0.93670392
1.91731 -0.22744101 0.93505394
1.96675 -0.21722001 0.92708594
1.9748 -0.208878 0.92561996
1.92182 -0.27011698 0.92597395
1.9232001 -0.255703 0.92579192
1.91105 -0.23755501 0.92860991
1.91931 -0.22459298 0.92640394
1.94909 -0.216912 0.92168093
1.9659599 -0.20810801 0.91995794
1.9269 -0.26960301 0.91444993
1.9214 -0.25713101 0.91690397
1.91524 -0.24061801 0.91887194
1.91067 -0.22435699 0.92065793
1.92861 -0.21338499 0.91748488
1.9583701 -0.20860399 0.91401398
1.90265 -0.17627101 0.92016101
1.8903199 -0.16053399 0.92386991
1.8830299 -0.149215 0.92652595
1.9106101 -0.265596 0.91018796
1.9206599 -0.258019 0.90876192
1.92345 -0.244287 0.90739
1.91046 -0.22507 0.91190094
1.90737 -0.210042 0.91394997
1.9116299 -0.19389601 0.91175491
1.89605 -0.17340499 0.91566694
1.89455 -0.159529 0.91657901
1.87956 -0.14775901 0.92125493
1.92064 -0.25635001 0.90004593
1.9229201 -0.243507 0.89751297
1.91553 -0.226014 0.90132993
1.9094599 -0.208092 0.90447998
1.9147 -0.194304 0.90302992
1.9037399 -0.17824399 0.90552795
1.89928 -0.16162901 0.90741396
1.8951801 -0.14857501 0.90906394
1.91887 -0.255907 0.89047593
1.9277699 -0.245341 0.88786095
1.9243201 -0.22903199 0.88998199
1.91461 -0.21020201 0.89380997
1.9107201 -0.19303499 0.89620501
1.9067199 -0.17846 0.89722794
1.9085001 -0.165235 0.89682597
1.91251 -0.15003601 0.89537895
1.9256901 -0.27117699 0.87746894
1.91848 -0.255784 0.88224298
1.93405 -0.24510901 0.87798995
1.95964 -0.23364599 0.86955994
1.9470799 -0.21716 0.87621289
1.9417701 -0.201482 0.88004297
1.91301 -0.178966 0.88907897
1.91827 -0.16142599 0.88615096
1.9206901 -0.147742 0.8844679
1.9169999 -0.136812 0.88626099
1.9245 -0.30114701 0.86744195
1.92839 -0.28925502 0.86670703
1.92936 -0.27355802 0.86820495
1.92713 -0.258232 0.87165099
1.96561 -0.22047199 0.86227798
1.9605701 -0.20797101 0.86589599
1.9457401 -0.163472 0.87230897
1.92864 -0.14847201 0.87574887
1.9277099 -0.13605399 0.87535894
1.92382 -0.30048099 0.86043793
1.92994 -0.29079902 0.85740393
1.9300901 -0.27632001 0.85940093
1.93434 -0.26098001 0.86073089
1.9698801 -0.22148001 0.85243994
1.9686501 -0.21002899 0.85468096
1.9385 -0.13644201 0.86600691
1.92334 -0.124513 0.86998993
1.92659 -0.30062401 0.85092795
1.9311301 -0.29158399 0.84964097
1.93081 -0.27865601 0.85078895
1.93216 -0.262288 0.85231096
1.96975 -0.222045 0.84514296
1.97109 -0.210489 0.84587497
1.94444 -0.12655801 0.85859388
1.93153 -0.30179501 0.84314299
1.9273801 -0.289684 0.84487396
1.9168401 -0.27311799 0.84852493
1.9154401 -0.260674 0.84957993
1.9594901 -0.208492 0.84252
1.93071 -0.22753599 1.229847
1.94656 -0.215718 1.2291679
1.95925 -0.208023 1.228641
1.9053 -0.265892 1.221532
1.91528 -0.25462401 1.2213789
1.92655 -0.22856002 1.221094
1.9394299 -0.216584 1.2203809
1.9437801 -0.20531701 1.221844
1.9105999 -0.27138299 1.212693
1.90847 -0.255999 1.213033
1.9458901 -0.217382 1.2116609
1.9474601 -0.20716101 1.211934
1.89987 -0.278887 1.2064619
1.90567 -0.26930201 1.205145
1.91237 -0.256513 1.203745
1.91559 -0.24318199 1.205845
1.9235899 -0.22933501 1.205058
1.94198 -0.217355 1.2032139
1.9444299 -0.20596799 1.203295
1.90362 -0.27971101 1.196983
1.9071699 -0.26849002 1.1967999
1.91548 -0.25715598 1.194829
1.9145199 -0.241686 1.197594
1.9328799 -0.230222 1.1951699
1.9420199 -0.217704 1.193699
1.9460001 -0.20667499 1.194147
1.91027 -0.28232202 1.1872699
1.9102401 -0.27039802 1.187513
1.9157801 -0.25793698 1.187218
1.92214 -0.24388 1.187513
1.9432601 -0.21652099 1.186129
1.94699 -0.20693399 1.184472
1.9104201 -0.281896 1.178429
1.94519 -0.218481 1.177192
1.9583 -0.209967 1.174091
1.94522 -0.21815 1.1677929
1.97566 -0.212678 1.163206
1.95319 -0.218068 1.1572529
1.98212 -0.21269698 1.154133
1.9545799 -0.21837799 1.1483979
1.9710001 -0.21006599 1.1482079
1.9872501 -0.203922 1.1463239
1.94893 -0.22067 1.140608
1.95103 -0.20648301 1.1417339
1.9296299 -0.229561 1.1336889
1.92872 -0.21308799 1.1346049
1.9174 -0.19375201 1.13596
1.9133501 -0.265782 1.127376
1.9244599 -0.225972 1.125307
1.91328 -0.206753 1.1284389
1.9072099 -0.19119301 1.129045
1.92769 -0.24165399 1.117373
1.9277699 -0.22792201 1.115396
1.92037 -0.21009399 1.119012
1.9449899 -0.220447 1.106084
1.90711 -0.194821 1.116375
1.94064 -0.22993 1.101167
1.95239 -0.22176 1.0990219
1.93055 -0.20663999 1.101733
1.93527 -0.32289502 1.049158
1.92241 -0.245341 1.051562
1.9330001 -0.32252702 1.0403219
1.9275301 -0.247187 1.045162
1.9405299 -0.235369 1.04198
1.94892 -0.2202 1.039555
1.9533401 -0.209196 1.0394239
1.92925 -0.245133 1.0366579
1.9413201 -0.23117 1.0347279
1.9369099 -0.215922 1.0342309
1.94959 -0.20796101 1.033443
1.92751 -0.30810401 1.0247469
1.9283299 -0.24687901 1.0263569
1.9254601 -0.227293 1.029017
1.9249899 -0.21266299 1.0289369
1.9293699 -0.20114499 1.027717
1.9892 -0.12754101 1.0156609
1.9131799 -0.31531399 1.017229
1.92241 -0.27437299 1.0183491
1.92384 -0.25948501 1.0189439
1.92664 -0.24706499 1.017588
1.9266901 -0.23014799 1.0183799
1.92067 -0.211504 1.0221519
1.91199 -0.19462299 1.022175
1.91844 -0.18048 1.019958
1.93457 -0.166962 1.016282
1.96881 -0.136932 1.0124159
1.9861901 -0.128121 1.0103509
1.9362301 -0.322997 1.0042009
1.9220101 -0.26106599 1.0102339
1.93407 -0.247584 1.007769
1.94451 -0.23572201 1.0048039
1.9147 -0.20731001 1.013965
1.9132299 -0.19165899 1.0143269
1.91485 -0.177672 1.0126959
1.92381 -0.16500799 1.012066
1.9466799 -0.154006 1.0081049
1.9576 -0.13880101 1.0074239
1.9839901 -0.130189 1.003812
1.91897 -0.276016 1.0005859
1.92811 -0.26017499 0.99925691
1.94311 -0.23515801 0.99718893
1.94086 -0.21815901 0.99826795
1.91514 -0.192535 1.0052949
1.90624 -0.173876 1.0062349
1.91822 -0.164408 1.005741
1.93117 -0.15251 1.0036739
1.95324 -0.140351 1.0006729
1.9844099 -0.130142 0.99619895
1.9290601 -0.30904698 0.99024796
1.91935 -0.29116499 0.99102491
1.91891 -0.27339199 0.99073792
1.92645 -0.259049 0.99029493
1.96071 -0.222848 0.98503095
1.9382601 -0.204785 0.99215996
1.88895 -0.169516 1.0014249
1.9134899 -0.160657 0.99847496
1.9376301 -0.150171 0.99513793
1.9513201 -0.14022 0.992791
1.91956 -0.31832001 0.97838897
1.9174899 -0.30540001 0.98067492
1.9201801 -0.289177 0.98126692
1.91214 -0.27159598 0.98320192
1.9208701 -0.25966498 0.98285693
1.9638699 -0.223685 0.97526199
1.95916 -0.21099702 0.97896993
1.86963 -0.163754 0.99666995
1.87819 -0.155709 0.99459791
1.93751 -0.150056 0.98868591
1.94959 -0.141807 0.98636091
1.9108599 -0.31612599 0.97325498
1.923 -0.30897498 0.97024399
1.92355 -0.29404199 0.97086298
1.9176899 -0.27507499 0.97374594
1.91719 -0.26051599 0.97549993
1.93444 -0.249699 0.97238189
1.96843 -0.224428 0.96516097
1.9720399 -0.214231 0.9672969
1.8602901 -0.159811 0.99060494
1.91787 -0.318342 0.962475
1.9205201 -0.30587602 0.96245795
1.92294 -0.29288301 0.96276891
1.9232299 -0.25987601 0.96518999
1.93664 -0.24555001 0.96297997
1.97232 -0.224323 0.95577788
1.9708999 -0.213594 0.95851791
1.90845 -0.315649 0.955598
1.92203 -0.30812401 0.95280492
1.92338 -0.292615 0.95422995
1.92193 -0.26072901 0.95541894
1.92988 -0.245856 0.95509601
1.9481701 -0.23533601 0.95263791
1.96864 -0.224932 0.94762594
1.9756199 -0.21449101 0.94828796
1.9237 -0.319159 0.94388199
1.9232401 -0.29508498 0.94541287
1.9285699 -0.26446101 0.94483697
1.92584 -0.24691099 0.94597292
1.9402601 -0.232621 0.94493592
1.9732201 -0.22389901 0.93723792
1.9695101 -0.21132499 0.93917102
1.92614 -0.292974 0.93560988
1.92715 -0.27580699 0.93578893
1.92391 -0.25830999 0.93726295
1.9192101 -0.24403299 0.93896502
1.9257001 -0.233659 0.93805295
1.97183 -0.22302099 0.93004698
1.96813 -0.208949 0.92996699
1.95095 -0.194673 0.93492597
1.92487 -0.26024801 0.92796797
1.9229 -0.24393199 0.92974198
1.91584 -0.22811899 0.93050897
1.9585201 -0.216914 0.92295992
1.9650799 -0.20640801 0.92146295
1.94721 -0.19260901 0.92727095
1.9287 -0.26266101 0.91767591
1.9265 -0.245481 0.91954499
1.9196 -0.228934 0.92233491
1.93013 -0.21450301 0.91950995
1.95409 -0.20525801 0.91603196
1.9454499 -0.190598 0.91821396
1.9058 -0.16446801 0.92308593
1.9275501 -0.27893698 0.90642899
1.9293699 -0.263538 0.90795791
1.92778 -0.246003 0.90973997
1.92032 -0.22705299 0.91307592
1.91149 -0.20848101 0.91469389
1.92862 -0.197842 0.91261792
1.9121801 -0.177798 0.91586494
1.90106 -0.163405 0.91799194
1.9248599 -0.29065099 0.89863694
1.92853 -0.26494399 0.89925689
1.93142 -0.24873699 0.898871
1.92317 -0.22909701 0.90282196
1.9099801 -0.21073 0.90761793
1.91504 -0.19718 0.90626496
1.92156 -0.18256001 0.90529096
1.9153 -0.16646099 0.90658194
1.9242599 -0.27627 0.89146996
1.9272301 -0.26141301 0.89170194
1.9340199 -0.24952601 0.88909292
1.9323599 -0.232444 0.890423
1.91548 -0.211091 0.8978079
1.92028 -0.194591 0.89584398
1.9082899 -0.175984 0.90017295
1.916 -0.16382 0.89698195
1.90149 -0.150601 0.90157491
1.9297999 -0.27961001 0.88039291
1.92468 -0.261502 0.88379091
1.9389501 -0.249791 0.87923491
1.9507099 -0.23639099 0.87557799
1.93287 -0.213727 0.88408691
1.94179 -0.20073099 0.88110995
1.91571 -0.176507 0.89025599
1.91128 -0.160413 0.89046693
1.9161099 -0.150601 0.88961297
1.9307699 -0.28178498 0.87137389
1.9317999 -0.26494801 0.87215787
1.96873 -0.211106 0.86629593
1.9654201 -0.199405 0.86721098
1.92721 -0.16466999 0.88105696
1.9202901 -0.150043 0.88212997
1.9061301 -0.13648501 0.88573194
1.9301699 -0.28020099 0.8625499
1.9356101 -0.26438102 0.86115998
1.94287 -0.249415 0.85968697
1.98414 -0.21607 0.85362899
1.92462 -0.139948 0.87522489
1.92515 -0.294709 0.85224992
1.93058 -0.27955902 0.85241294
1.93753 -0.26272699 0.851906
1.97737 -0.22771601 0.84410894
1.9849601 -0.21743099 0.84432596
1.9167199 -0.302865 0.8484059
1.9073501 -0.28628099 0.85102099
1.9052401 -0.27240199 0.852314
1.91336 -0.260369 0.85126996
1.92581 -0.247407 0.84918696
1.96577 -0.22711501 0.84039599
1.9810899 -0.218537 0.83788192
1.90644 -0.28791001 1.228307
1.9151199 -0.244335 1.229167
1.9359 -0.22457001 1.229875
1.91231 -0.30405799 1.218994
1.90984 -0.29220802 1.2206349
1.91027 -0.277648 1.2215779
1.90859 -0.258394 1.2206229
1.91041 -0.242576 1.2209349
1.9132899 -0.229618 1.2219739
1.9285201 -0.22141799 1.21989
1.9211999 -0.30823499 1.209978
1.9083501 -0.29189399 1.213261
1.9051 -0.27427602 1.212042
1.9068401 -0.25762698 1.2117919
1.9121801 -0.24527201 1.213233
1.91754 -0.23121201 1.2131679
1.93022 -0.220412 1.210722
1.95261 -0.21591601 1.2083299
1.9077801 -0.29051599 1.2039039
1.89996 -0.27332199 1.2041279
1.9051499 -0.259774 1.203318
1.91128 -0.24372299 1.2046609
1.9253 -0.231106 1.2040679
1.93455 -0.22024401 1.2020819
1.9088 -0.290012 1.194268
1.9047099 -0.27408898 1.1956079
1.9075199 -0.260232 1.1950879
1.91127 -0.24684401 1.1952549
1.92444 -0.23276301 1.1950079
1.9395399 -0.221319 1.192451
1.90996 -0.290438 1.1843079
1.9137801 -0.278162 1.1852239
1.91093 -0.259875 1.186633
1.9206599 -0.246264 1.1865239
1.91176 -0.279513 1.177213
1.9212101 -0.24667901 1.1771779
1.9441099 -0.225025 1.1468949
1.9414901 -0.22333901 1.138533
1.9229699 -0.202351 1.140258
1.93119 -0.232787 1.1332699
1.9282299 -0.215597 1.132829
1.90477 -0.19200899 1.1343449
1.91433 -0.20960599 1.127411
1.91408 -0.208433 1.1206079
1.94376 -0.219945 1.0977429
1.9445599 -0.21919599 1.092204
1.9418601 -0.208942 1.0921719
1.95044 -0.22132999 1.0844289
1.9291 -0.350416 1.068313
1.91958 -0.33653301 1.070051
1.95516 -0.22282499 1.0737119
1.93253 -0.35058299 1.0614309
1.94293 -0.344183 1.0595859
1.93978 -0.35323501 1.0518669
1.9450001 -0.34216499 1.0506899
1.93694 -0.32559502 1.052231
1.9300799 -0.24779101 1.0559939
1.93689 -0.236339 1.056945
2.00844 -0.211118 1.049192
2.0280099 -0.20488001 1.0451909
1.95267 -0.35866299 1.041111
1.94679 -0.34434301 1.0417279
1.95415 -0.224498 1.046906
1.98526 -0.216878 1.043661
2.01297 -0.21063299 1.0403299
2.03931 -0.20803601 1.0362329
1.94644 -0.356287 1.033398
1.95026 -0.34620398 1.03193
1.9325 -0.23574699 1.038985
1.9405299 -0.222804 1.03966
1.9590199 -0.214395 1.0382149
2.01401 -0.21143101 1.033978
1.94599 -0.35431001 1.0238339
1.94145 -0.34041598 1.0257529
1.92344 -0.267937 1.0303259
1.93015 -0.25200099 1.030416
1.92713 -0.23319799 1.0313339
1.92978 -0.22028299 1.0329329
1.93556 -0.207654 1.031413
1.95727 -0.35772097 1.0127789
1.94707 -0.341001 1.0156209
1.92796 -0.316432 1.0190469
1.9219099 -0.26512599 1.021976
1.9306101 -0.252731 1.0214809
1.9310601 -0.236679 1.0217199
1.92704 -0.21804501 1.0249469
1.91265 -0.196926 1.0255929
1.92135 -0.18601999 1.024277
1.97764 -0.14434901 1.014395
1.9778399 -0.132526 1.014697
1.9512399 -0.34212101 1.005916
1.91751 -0.26454002 1.014227
1.9286 -0.25277299 1.013204
1.93548 -0.23722 1.0109259
1.9254899 -0.21616501 1.0154049
1.90407 -0.192406 1.0189539
1.9100701 -0.181045 1.0190709
1.9201601 -0.16738801 1.0163859
1.9500301 -0.15851301 1.0114769
1.95526 -0.142809 1.0113369
1.96911 -0.131777 1.010528
1.98717 -0.124503 1.0067639
1.9374601 -0.23754299 1.001264
1.93095 -0.21915199 1.00497
1.90896 -0.19603901 1.010922
1.9044701 -0.177338 1.011166
1.92837 -0.166839 1.007116
1.9370301 -0.15451699 1.007466
1.94985 -0.143399 1.004563
1.9670799 -0.132173 1.002717
1.98769 -0.123854 0.99928194
1.96727 -0.10762399 1.0043529
1.9228301 -0.28441098 0.99359697
1.9241 -0.26739901 0.99301195
1.9305201 -0.25170401 0.99446398
1.93978 -0.22394501 0.993779
1.90731 -0.19384399 1.003143
1.8924899 -0.174132 1.0037149
1.91099 -0.16327401 1.0020219
1.93562 -0.153653 0.99974
1.95233 -0.14279801 0.99638093
1.96867 -0.132098 0.99465996
1.9216299 -0.328233 0.97981489
1.92811 -0.317105 0.98264891
1.9224499 -0.30048001 0.98412895
1.9216901 -0.28178 0.98399293
1.91539 -0.26441202 0.98667693
1.9249899 -0.25317401 0.98593092
1.9439501 -0.225655 0.98357391
1.92019 -0.2018 0.99137795
1.87084 -0.164386 0.99953997
1.8788 -0.156739 0.99845892
1.9347099 -0.15166199 0.99240994
1.9565899 -0.14415699 0.98854291
1.89176 -0.33379298 0.97440094
1.90488 -0.324642 0.97476298
1.9167501 -0.31429499 0.97597903
1.91737 -0.297508 0.97500497
1.91801 -0.28022802 0.97567993
1.9168299 -0.26390201 0.97823697
1.9293801 -0.250424 0.97640795
1.94198 -0.238277 0.97499299
1.94815 -0.22621 0.97329092
1.9283099 -0.20763701 0.98075897
1.86129 -0.159302 0.99292189
1.93957 -0.15130299 0.9852429
1.8580499 -0.33477101 0.97276491
1.8889199 -0.33560503 0.96753198
1.89498 -0.323778 0.96837097
1.9117799 -0.31370601 0.96776199
1.9205 -0.29988599 0.96417397
1.9192799 -0.282446 0.96671999
1.9152901 -0.265861 0.96966994
1.9245399 -0.25249398 0.96808791
1.9411 -0.238703 0.96506697
1.93391 -0.209802 0.97268295
1.8784599 -0.332196 0.96337593
1.8927901 -0.325279 0.96097201
1.9077499 -0.31237802 0.95811892
1.9250301 -0.30041701 0.95433992
1.9197099 -0.28258899 0.95735693
1.91581 -0.26371402 0.960302
1.92747 -0.248971 0.95811492
1.94486 -0.238892 0.95469093
1.95786 -0.228762 0.953022
1.95198 -0.21321899 0.95385587
1.86506 -0.159503 0.97721696
1.88615 -0.333094 0.95579588
1.89968 -0.323488 0.95248693
1.92967 -0.31816301 0.94354093
1.92213 -0.300832 0.94664598
1.92493 -0.28525499 0.94713593
1.928 -0.26939601 0.94777495
1.9250599 -0.25089499 0.94943893
1.93625 -0.237501 0.94789398
1.9576499 -0.22952801 0.94493294
1.9583501 -0.214239 0.94432294
1.92327 -0.25274098 0.94095492
1.92776 -0.236239 0.939825
1.95681 -0.22709699 0.93562096
1.9696801 -0.21518499 0.93277597
1.95269 -0.199487 0.93854797
1.9272 -0.26899701 0.929245
1.9283201 -0.25272501 0.9298709
1.91739 -0.23126499 0.93253398
1.9407099 -0.22290899 0.92923689
1.96927 -0.216363 0.92442995
1.96593 -0.203554 0.92679697
1.9262199 -0.268944 0.92022687
1.93108 -0.25212401 0.91947693
1.91741 -0.233253 0.92475295
1.91871 -0.21793699 0.92433792
1.96006 -0.21377 0.91841894
1.9668499 -0.204799 0.91782194
1.92302 -0.268787 0.91089392
1.9322701 -0.254985 0.9096359
1.91728 -0.231675 0.91534591
1.9047301 -0.20976999 0.91850299
1.93127 -0.204469 0.91523498
1.91742 -0.184636 0.91544694
1.89472 -0.164993 0.92009193
1.9278599 -0.28515199 0.90080488
1.9219099 -0.26457101 0.90266889
1.9313201 -0.25366199 0.90142196
1.92431 -0.23675501 0.90402299
1.9181 -0.216012 0.90594995
1.90694 -0.19430901 0.910905
1.9061099 -0.178592 0.910936
1.90057 -0.165942 0.91249496
1.9288901 -0.287752 0.8903569
1.92319 -0.267921 0.89308989
1.92794 -0.25152299 0.89351088
1.9227999 -0.23191799 0.89548296
1.91386 -0.213155 0.89842302
1.9113001 -0.196998 0.90077698
1.9055099 -0.180159 0.90380597
1.9088299 -0.168203 0.90267992
1.9291201 -0.27307501 0.88197595
1.92818 -0.25552499 0.88329297
1.9394299 -0.240996 0.88114297
1.9265 -0.22031799 0.88850397
1.9202299 -0.201646 0.89166594
1.90976 -0.17971501 0.89443696
1.9150101 -0.16694401 0.89148796
1.9286 -0.26828802 0.87381393
1.93976 -0.25589702 0.87076491
1.97295 -0.219138 0.86345398
1.97795 -0.20847 0.86206388
1.9261 -0.168622 0.88250697
1.9127901 -0.15438899 0.88558596
1.9335201 -0.269703 0.86292791
1.93933 -0.25608298 0.86219299
1.94958 -0.24382299 0.86055696
1.98067 -0.221404 0.85478997
1.98664 -0.211192 0.85215998
1.90766 -0.152578 0.88137299
1.9321201 -0.270769 0.85417396
1.9387699 -0.25552499 0.85411698
1.9813 -0.22171499 0.8459419
1.98702 -0.210483 0.84411192
1.90698 -0.259213 0.85401291
1.9296299 -0.25475299 0.84906888
1.9824001 -0.220293 0.83866793
1.9913299 -0.211032 0.83653498
1.982 -0.222395 0.77372599
1.9919701 -0.212722 0.77124697
1.9924899 -0.22484301 0.76351297
1.9915401 -0.21215001 0.76472092
1.99809 -0.227652 0.75133395
1.9952 -0.213321 0.75523591
1.91081 -0.30310601 1.228267
1.91439 -0.291199 1.2284349
1.90622 -0.273646 1.22777
1.9134599 -0.25760299 1.2279259
1.9280901 -0.22951201 1.2278889
1.9367 -0.219988 1.2274059
1.91188 -0.29139799 1.2195319
1.90584 -0.27186799 1.219321
1.90537 -0.25396699 1.2184579
1.91882 -0.241087 1.219476
1.92427 -0.226799 1.21855
1.9343201 -0.219051 1.219643
1.9099801 -0.287269 1.2103459
1.90009 -0.26708701 1.2113019
1.9075199 -0.255202 1.209324
1.9115 -0.241217 1.2109849
1.9231399 -0.22932501 1.20951
1.92791 -0.21746799 1.210845
1.90854 -0.28839701 1.2012659
1.90504 -0.270217 1.2019279
1.9058599 -0.25458202 1.201571
1.91285 -0.241401 1.20171
1.92461 -0.22952299 1.199996
1.9278301 -0.218151 1.2005669
1.91396 -0.29331499 1.1911949
1.90869 -0.27569902 1.192395
1.9081501 -0.255669 1.1925389
1.91962 -0.240374 1.19203
1.9251699 -0.227401 1.1921129
1.93744 -0.22084899 1.1898639
1.9159 -0.29166001 1.18295
1.90565 -0.27068099 1.184153
1.91476 -0.25913098 1.1816039
1.9130701 -0.241595 1.1839069
1.92905 -0.23075399 1.1821439
1.9409 -0.222489 1.18091
1.91144 -0.27462998 1.1747639
1.9142599 -0.25970802 1.17285
1.92933 -0.23186702 1.172164
1.93881 -0.22096701 1.1720099
1.9457201 -0.21885599 1.152925
1.94542 -0.22172301 1.1440289
1.9466001 -0.2042 1.143894
1.9548301 -0.193883 1.144305
1.92413 -0.246034 1.135744
1.9290299 -0.21231501 1.1370679
1.9178901 -0.19049901 1.137361
1.9227201 -0.24374901 1.1265169
1.91994 -0.22454099 1.1291089
1.9137801 -0.20422399 1.130343
1.9166 -0.27545401 1.118165
1.9186701 -0.26124501 1.1168939
1.92567 -0.248162 1.11813
1.92444 -0.22977699 1.1180409
1.9076101 -0.20251 1.1221149
1.9179201 -0.276656 1.108261
1.92435 -0.24704 1.109152
1.9277 -0.230639 1.1074269
1.9213001 -0.21415399 1.1109569
1.90576 -0.28468502 1.100934
1.9168299 -0.276921 1.0979259
1.92451 -0.24439698 1.1002359
1.9481101 -0.22482499 1.0973719
1.9081399 -0.28555799 1.0902799
1.91774 -0.277868 1.089541
1.9380299 -0.235241 1.087952
1.9503599 -0.22469801 1.0870589
1.9341201 -0.20741101 1.0925349
1.91601 -0.27609801 1.081319
1.9247301 -0.24366501 1.0813049
1.95002 -0.22375 1.077726
1.91985 -0.279955 1.0706459
1.9204401 -0.26383799 1.0725679
1.9273 -0.249391 1.07151
1.9380701 -0.23468399 1.071263
1.94941 -0.22132 1.0692589
1.9578999 -0.38286799 1.0454069
1.92263 -0.26396599 1.062078
1.9299001 -0.24632999 1.062168
1.95618 -0.22221799 1.058475
1.98386 -0.215802 1.05483
1.99842 -0.207395 1.054346
2.00365 -0.19733101 1.052367
1.9644501 -0.38659599 1.037827
1.9487801 -0.36508098 1.04202
1.9481701 -0.345844 1.044578
1.9200901 -0.27909699 1.052861
1.92507 -0.247858 1.053677
1.9469399 -0.220272 1.0512689
1.97668 -0.21613701 1.047213
2.00018 -0.208001 1.04476
2.0208001 -0.202794 1.040501
1.9596699 -0.38361698 1.0305829
1.9576499 -0.371106 1.033232
1.9537101 -0.35116699 1.0351039
1.9427 -0.234319 1.041091
1.9559599 -0.222358 1.04107
1.98269 -0.214114 1.037737
2.0099401 -0.209554 1.0345039
2.0276999 -0.205384 1.031422
1.9702201 -0.38708699 1.0205029
1.96156 -0.37012798 1.023564
1.9439101 -0.34299499 1.0268779
1.9333501 -0.31949601 1.0293419
1.92026 -0.277798 1.0334749
1.9228599 -0.26052701 1.0337319
1.9220901 -0.243651 1.03439
1.93085 -0.231786 1.034276
1.9419999 -0.21861701 1.03327
1.96127 -0.20910999 1.031853
1.99168 -0.20550101 1.0293579
1.96226 -0.36881199 1.014908
1.95806 -0.35282099 1.015954
1.92064 -0.26356399 1.02423
1.9270101 -0.247556 1.024763
1.92339 -0.23037501 1.027203
1.93372 -0.21815901 1.025682
1.94002 -0.20242001 1.024774
1.9722199 -0.20183599 1.023844
1.95332 -0.34675899 1.008076
1.91979 -0.27879298 1.0150459
1.9170101 -0.26168698 1.0161569
1.92782 -0.249993 1.0146089
1.92573 -0.229711 1.0177649
1.93139 -0.21381901 1.017417
1.91879 -0.19165701 1.018062
1.92575 -0.177571 1.017403
1.93625 -0.16354901 1.0152129
1.9746699 -0.156937 1.0088459
1.95829 -0.1391 1.01164
1.92328 -0.265558 1.0060199
1.93173 -0.25075099 1.0038409
1.93338 -0.235562 1.006725
1.93636 -0.220201 1.007009
1.90089 -0.18028 1.012372
1.91547 -0.17292801 1.011351
1.92775 -0.16092101 1.0102459
1.9470799 -0.14962301 1.007661
1.95912 -0.13923101 1.0055649
1.96345 -0.128389 1.0043939
1.92064 -0.28086099 0.99607193
1.92153 -0.26270598 0.99614698
1.93627 -0.236803 0.99641496
1.9535201 -0.22942899 0.99244899
1.89805 -0.17865101 1.005257
1.9036099 -0.16879499 1.004323
1.92252 -0.15992899 1.0026569
1.9366001 -0.14894399 1.001871
1.95735 -0.139836 0.99840093
1.9686301 -0.12998 0.99666095
1.9725 -0.119458 0.99731994
1.92241 -0.313357 0.98317397
1.9186 -0.29434401 0.98614991
1.91245 -0.275098 0.98898995
1.9168601 -0.26229501 0.98766494
1.9302299 -0.25005201 0.98720092
1.8850101 -0.17265101 0.99977893
1.8802 -0.158408 0.99977994
1.91575 -0.158253 0.99568391
1.9340401 -0.147994 0.9939
1.9565899 -0.140359 0.99056196
1.8929499 -0.33472902 0.97559893
1.8975199 -0.32233799 0.97608292
1.9117799 -0.311571 0.97506195
1.9231399 -0.29949901 0.97532988
1.91285 -0.27624398 0.97942895
1.9196601 -0.26005101 0.97851491
1.9356799 -0.24824801 0.97662401
1.8779401 -0.168865 0.9923079
1.91848 -0.156148 0.98905593
1.94032 -0.14887901 0.98622394
1.8667799 -0.33935699 0.97045988
1.8771601 -0.32985801 0.97140396
1.8877001 -0.32241002 0.96967798
1.9034899 -0.312666 0.96783292
1.9162899 -0.29905 0.96639097
1.9173199 -0.28180999 0.96910292
1.9161201 -0.262119 0.96917099
1.9223 -0.24541901 0.96961492
1.85138 -0.333058 0.96646899
1.87358 -0.33118999 0.96362197
1.88991 -0.32214001 0.96133697
1.91085 -0.31301001 0.95773697
1.91282 -0.27785701 0.95994896
1.9143801 -0.25982702 0.95982391
1.92105 -0.246436 0.96015
1.9406799 -0.237892 0.95775795
1.8612199 -0.33793399 0.95819002
1.87572 -0.33092299 0.95605898
1.89834 -0.322476 0.95244098
1.9222701 -0.31415001 0.946091
1.9252299 -0.286026 0.94734991
1.9204201 -0.264561 0.94937998
1.91799 -0.24677201 0.95230997
1.93453 -0.23684201 0.94870496
1.84571 -0.32973999 0.95534396
1.91995 -0.27895099 0.93921995
1.9173501 -0.26011699 0.94067198
1.92252 -0.247364 0.94250596
1.93015 -0.23411 0.93986189
1.95655 -0.22974199 0.93488997
1.92564 -0.28458101 0.92776895
1.9212101 -0.26377499 0.93084496
1.92153 -0.245315 0.93275893
1.93036 -0.230084 0.93098795
1.9565401 -0.22577299 0.92575896
1.93612 -0.20742799 0.93164492
1.92839 -0.30033702 0.91710997
1.9247099 -0.28230399 0.91826391
1.92334 -0.26551399 0.92069292
1.9229801 -0.24884701 0.92316794
1.92308 -0.23016199 0.92292398
1.9337399 -0.21686001 0.92230791
1.9512601 -0.21162 0.92028201
1.92451 -0.284951 0.91020995
1.92776 -0.26859599 0.90947694
1.9257699 -0.24791099 0.91248792
1.9113201 -0.223573 0.91604996
1.9179201 -0.21086901 0.91653395
1.9327999 -0.20263599 0.914617
1.91057 -0.18083701 0.91697693
1.92399 -0.283981 0.90030199
1.92747 -0.26760301 0.90056497
1.92694 -0.25006902 0.90145195
1.91936 -0.22820801 0.90548098
1.91417 -0.210155 0.90879494
1.91155 -0.192939 0.90997297
1.91431 -0.18022801 0.90807498
1.9233501 -0.28187799 0.89025992
1.9252601 -0.265499 0.89223695
1.93543 -0.252312 0.88970792
1.92282 -0.230736 0.89495587
1.91291 -0.20795999 0.90013093
1.90548 -0.187693 0.90276092
1.9010401 -0.17438801 0.90436393
1.9278799 -0.28515899 0.88000494
1.92328 -0.26718798 0.88353097
1.92861 -0.25285 0.88286799
1.9398199 -0.240467 0.88118196
1.9272701 -0.218574 0.88695496
1.91093 -0.193775 0.89434797
1.91198 -0.179884 0.89551997
1.92882 -0.286686 0.87002093
1.92731 -0.26725799 0.87306195
1.93496 -0.25227201 0.87277389
1.95085 -0.242428 0.86864001
1.97755 -0.217669 0.86106092
1.9793299 -0.205588 0.86169893
1.93279 -0.272513 0.86150193
1.93633 -0.25366601 0.86244798
1.98562 -0.22347099 0.85220093
1.99146 -0.211614 0.85119402
1.9258701 -0.28286698 0.85528094
1.9308901 -0.26543102 0.85429198
1.9416701 -0.25233999 0.85165894
1.98597 -0.221963 0.84401292
1.9870399 -0.209068 0.84380293
1.93011 -0.249631 0.84829301
1.98317 -0.21915899 0.83759093
1.98278 -0.20672199 0.83824396
1.9798801 -0.221122 0.77251697
1.9868801 -0.21096 0.770643
1.98903 -0.22432101 0.76295298
1.99537 -0.21395399 0.76030594
1.99231 -0.224933 0.75270689
2.07901 -0.22550301 1.170188
2.11114 -0.21725599 1.173075
2.0836301 -0.22613001 1.167146
2.0629799 -0.234788 1.1631329
2.0975399 -0.217994 1.1667609
2.09078 -0.227855 1.163811
2.07182 -0.236394 1.159984
2.0738201 -0.238157 1.1544319
2.0545301 -0.24699101 1.1511369
2.0724699 -0.24000601 1.148288
2.0655 -0.247328 1.1468329
2.0354099 -0.31773299 1.1415869
2.06968 -0.24809799 1.1422319
2.04655 -0.256614 1.1367769
1.9489999 -0.224492 1.110387
2.056 -0.24962699 1.133221
2.0477901 -0.30907199 1.1242249
2.0617199 -0.31558299 1.127188
2.0534599 -0.30954799 1.119751
1.9433701 -0.339279 1.092693
1.9292799 -0.37692401 1.0905299
1.92856 -0.383625 1.090276
2.04492 -0.29981399 1.1110209
2.0478799 -0.30844101 1.112226
1.9400101 -0.33919701 1.0873529
1.94067 -0.34825298 1.0871609
1.93565 -0.37612301 1.087086
1.93145 -0.38239399 1.086069
2.04547 -0.25924101 1.1052079
2.04757 -0.291298 1.1056609
2.0489302 -0.30091801 1.1063739
1.9387399 -0.33888599 1.0814509
1.9345 -0.34939203 1.0803449
1.9238 -0.36102298 1.0786359
1.9338499 -0.37280202 1.080846
1.92756 -0.380943 1.07918
2.0479898 -0.28860101 1.0995959
2.0462198 -0.29984102 1.0989619
1.9361999 -0.340469 1.0750459
1.94007 -0.35069901 1.07468
1.93441 -0.36177799 1.0751259
1.9346299 -0.37134799 1.0744259
2.04866 -0.26933599 1.09252
2.04971 -0.27974999 1.0939279
2.04773 -0.29048401 1.093588
1.9446601 -0.340085 1.069971
1.9328901 -0.351437 1.066646
1.93524 -0.36131901 1.068494
1.9324601 -0.36929199 1.067199
2.04461 -0.25664899 1.085114
2.0518401 -0.267243 1.087021
2.0512199 -0.27794901 1.088028
2.0504601 -0.28951901 1.0873469
1.93207 -0.34980801 1.0607699
1.94181 -0.35909098 1.0628419
2.0423 -0.236413 1.0791339
2.0543699 -0.247274 1.08117
2.0506201 -0.25805101 1.0810959
2.0569501 -0.26736799 1.0818729
2.0530999 -0.27813399 1.08179
2.04988 -0.28879401 1.0803109
2.04616 -0.29922801 1.0796759
1.9554499 -0.34936401 1.0590749
1.9521099 -0.35849097 1.0578629
2.04761 -0.22874701 1.074754
2.0499799 -0.237073 1.0741949
2.0573499 -0.24650998 1.075318
2.05617 -0.25798902 1.0756069
2.0582099 -0.269795 1.076403
2.0531499 -0.280642 1.0753859
2.05 -0.29068801 1.0748769
1.97026 -0.34850201 1.055153
1.96069 -0.35924 1.0526279
2.0522799 -0.22957599 1.068452
2.05884 -0.23816 1.0698949
2.06141 -0.248731 1.0703729
2.06761 -0.25893 1.071568
2.0595798 -0.26862699 1.070369
2.05709 -0.278595 1.070515
2.0517399 -0.28977001 1.0688739
1.9915401 -0.34730703 1.053416
1.9765401 -0.35918999 1.0496379
1.95672 -0.371961 1.043885
1.9606 -0.38319197 1.04344
1.97206 -0.392095 1.045542
1.9815401 -0.39990699 1.0471209
2.0504301 -0.22920001 1.060717
2.0589399 -0.23651199 1.064083
2.0587699 -0.24635001 1.0632579
2.0678999 -0.25773701 1.0656689
2.0667 -0.268489 1.0656339
2.06054 -0.27969602 1.064769
2.0046101 -0.34635201 1.0500439
1.9862801 -0.35842097 1.0455689
1.98184 -0.369277 1.0446299
1.97803 -0.381724 1.042573
1.9813499 -0.39272499 1.043185
1.97923 -0.400556 1.0413209
2.0478201 -0.22903799 1.053408
2.05546 -0.237131 1.05668
2.0598099 -0.246603 1.057367
2.05651 -0.25676501 1.0560919
2.06738 -0.26805699 1.0593929
2.0659199 -0.27900299 1.059191
2.0560899 -0.29030198 1.056792
2.0397401 -0.32149699 1.0526869
2.02806 -0.333395 1.0488319
2.0090601 -0.346111 1.0444989
1.9988699 -0.35698199 1.0425349
1.98317 -0.369477 1.038293
1.9802499 -0.38084099 1.0362389
1.97755 -0.392077 1.0358959
1.97903 -0.400269 1.034866
2.0408099 -0.22872801 1.0452889
2.04268 -0.23593999 1.0472679
2.04299 -0.246619 1.046778
2.0485401 -0.25840199 1.0475259
2.0598099 -0.26826999 1.0509859
2.0645101 -0.278703 1.0524919
2.0625501 -0.289143 1.0519779
2.05074 -0.3003 1.0490069
2.03634 -0.322743 1.0449229
2.0337601 -0.334241 1.0435699
2.0153599 -0.34550399 1.0392439
1.99946 -0.35839403 1.0359079
1.98237 -0.37129399 1.0313569
1.98013 -0.381816 1.030005
1.9765899 -0.39253601 1.0290179
1.97313 -0.400794 1.027985
2.0551 -0.27880201 1.043658
2.06493 -0.288286 1.046823
2.06036 -0.298841 1.045051
2.0474801 -0.31155899 1.0414449
2.03531 -0.33262298 1.0385569
2.0222399 -0.34324199 1.03473
2.00772 -0.35562301 1.0311329
1.9809899 -0.370078 1.0247159
1.9722199 -0.38257703 1.022567
1.9627 -0.39374697 1.020654
2.06796 -0.289992 1.04097
2.05705 -0.302104 1.037635
2.0462101 -0.312464 1.034325
2.0441701 -0.32155201 1.03457
2.0353899 -0.33235002 1.032272
2.0199401 -0.34485298 1.028397
1.99543 -0.359108 1.0231529
1.96655 -0.37194598 1.0159799
2.0663002 -0.289249 1.0334529
2.0669401 -0.30031499 1.034055
2.0573399 -0.310579 1.0319409
2.03917 -0.32171902 1.0270059
2.07479 -0.298958 1.0292099
2.06534 -0.31027001 1.0282689
2.05356 -0.29146299 1.016948
2.07933 -0.30002299 1.023929
2.0792501 -0.30718398 1.025282
2.0707901 -0.29977101 1.015471
2.0778701 -0.307138 1.0183129
2.08043 -0.30769899 1.0127029
2.08111 -0.308209 1.008261
2.0559399 -0.316127 1.0008339
2.0579901 -0.30630198 0.992549
1.91403 -0.24791001 0.91061801
2.0566599 -0.31771901 0.95831597
1.9319501 -0.248503 0.91130197
2.05038 -0.319774 0.94977999
1.94153 -0.24892001 0.90756297
2.0622799 -0.32735598 0.94709092
1.9419501 -0.24890101 0.89976794
2.00281 -0.228568 0.79913795
2.0039201 -0.22911601 0.79258996
1.9577401 -0.21485701 1.195612
1.95638 -0.21369 1.189342
1.9582001 -0.21430701 1.1834999
1.9587801 -0.21447599 1.169227
1.95953 -0.21517099 1.162836
2.03895 -0.32531798 1.1510609
2.1094701 -0.339212 1.158448
2.0552001 -0.32119301 1.141579
2.09285 -0.33472499 1.1496829
2.1161599 -0.3439 1.155573
2.03616 -0.234699 1.1284189
2.0585299 -0.244946 1.133342
2.04498 -0.309921 1.134088
2.05493 -0.32025701 1.1356399
2.0811901 -0.33108798 1.142133
2.08746 -0.34013301 1.145173
2.0494099 -0.31038499 1.128696
2.0562899 -0.320274 1.1300359
2.0337801 -0.32561797 1.1243349
2.0475302 -0.30003101 1.1221939
2.0502901 -0.31068099 1.1227419
2.03443 -0.31848601 1.1192189
1.95004 -0.335098 1.1006429
1.9147301 -0.37599701 1.0930489
1.92541 -0.382855 1.0952419
2.0474801 -0.30067301 1.1163609
1.95145 -0.33600602 1.0949649
1.9273 -0.37550399 1.0906259
1.9254299 -0.382 1.0904499
1.9471899 -0.33817798 1.0873749
1.92136 -0.364856 1.0812809
1.9333999 -0.37367198 1.0850509
1.93336 -0.38138199 1.085972
2.04579 -0.25566998 1.1009229
2.0469 -0.26711699 1.102266
1.94821 -0.33773601 1.0822129
1.9474001 -0.349464 1.080714
1.9331399 -0.36363 1.07866
1.93609 -0.37314099 1.080297
1.93282 -0.38004601 1.0793729
2.04689 -0.255245 1.0940809
2.0515499 -0.267156 1.0964299
2.0517499 -0.28999799 1.096861
1.94488 -0.35022998 1.0734349
1.94829 -0.36076599 1.0757829
1.94207 -0.37091899 1.074778
2.0469501 -0.25448599 1.087773
2.05445 -0.266505 1.09003
2.05288 -0.27880698 1.0911709
2.0522699 -0.289094 1.090796
1.95345 -0.34137601 1.0695419
1.9409699 -0.35067299 1.066869
1.94485 -0.36052501 1.068257
1.94513 -0.36932001 1.067253
2.04088 -0.24389 1.080461
2.0523901 -0.256881 1.082968
2.05967 -0.26757801 1.0855839
2.0544801 -0.27663001 1.0847669
2.05076 -0.28856599 1.083997
1.95066 -0.35095799 1.063496
1.95559 -0.361076 1.063625
1.93419 -0.36846501 1.058156
2.0460899 -0.234321 1.075336
2.05231 -0.24568199 1.0764589
2.05913 -0.25738099 1.0776919
2.05632 -0.267562 1.079182
2.0543699 -0.27829501 1.0782639
1.96403 -0.35109401 1.059868
1.9608799 -0.36020499 1.0579779
2.05091 -0.235627 1.0698419
2.0578399 -0.24676001 1.071137
2.0641 -0.25768 1.0732399
2.05971 -0.26823699 1.0726949
2.05109 -0.279966 1.0710239
1.9700301 -0.35098302 1.054212
1.95689 -0.35966203 1.049238
1.95769 -0.39878502 1.0474529
1.9766499 -0.40534902 1.0517039
2.0605299 -0.23719901 1.066205
2.06112 -0.245767 1.065601
2.06359 -0.257195 1.0670439
2.06599 -0.268794 1.0668199
2.06001 -0.279167 1.066641
2.0536799 -0.28900102 1.066252
1.9771401 -0.35218897 1.048281
1.9537801 -0.361637 1.04134
1.97518 -0.39772999 1.046572
1.98511 -0.40450999 1.0484779
1.9162199 -0.18424802 1.0176219
2.0404601 -0.226505 1.053121
2.0579801 -0.23649 1.059397
2.0564899 -0.247017 1.058074
2.0700998 -0.26029301 1.0621259
2.0733299 -0.26994401 1.0630519
2.0684299 -0.27902201 1.061873
2.0504 -0.28931901 1.0588719
1.9897301 -0.35237801 1.0442929
1.9753799 -0.363159 1.0407839
1.96426 -0.37306499 1.037812
1.97567 -0.38625899 1.0405179
1.98326 -0.39682302 1.042594
1.98263 -0.404259 1.041665
1.92608 -0.185643 1.014895
1.94403 -0.195299 1.020389
2.0271101 -0.22473301 1.0426279
2.0475302 -0.235829 1.049531
2.0522699 -0.24694599 1.050238
2.0692201 -0.25903299 1.0554359
2.0697 -0.27018499 1.056468
2.0683601 -0.27958402 1.0560529
2.05913 -0.28836599 1.053996
2.04233 -0.32111302 1.049961
2.03493 -0.330984 1.0480679
2.0202498 -0.34162799 1.045074
1.99992 -0.351991 1.040028
1.98695 -0.36315602 1.0368599
1.9797701 -0.37527001 1.035718
1.9795101 -0.38729 1.035992
1.98403 -0.39629501 1.0364349
1.97912 -0.40364602 1.034748
1.9503999 -0.14110601 1.010523
1.9356799 -0.146657 1.0072209
1.89636 -0.16799802 0.99871993
1.9197201 -0.18206601 1.0062039
1.9311301 -0.193717 1.011066
1.99155 -0.21859199 1.026615
2.04513 -0.25595102 1.042733
2.0578799 -0.268269 1.046644
2.0604801 -0.280031 1.048028
2.05477 -0.291347 1.0464959
2.03776 -0.32128501 1.042467
2.0339401 -0.331981 1.0414299
2.0318899 -0.34098399 1.0419559
2.0072799 -0.350858 1.0357699
1.99105 -0.36213699 1.031698
1.98248 -0.37380299 1.02914
1.98101 -0.38586497 1.030116
1.98093 -0.394719 1.0294759
1.9599401 -0.129776 1.006048
1.95443 -0.139539 1.0060359
1.94967 -0.14951199 1.005551
1.9125 -0.161311 0.99745697
1.9205099 -0.171215 1.000111
1.92618 -0.18193501 1.001902
1.9264901 -0.192992 1.003042
1.95395 -0.2094 1.0107919
2.0533099 -0.27830401 1.0393109
2.06024 -0.29046401 1.041568
2.04864 -0.30038202 1.0385699
2.0437801 -0.322456 1.037426
2.0406001 -0.33116099 1.037681
2.0338099 -0.34006801 1.0360219
1.9883299 -0.35519099 1.026382
1.9834 -0.36507401 1.024505
1.96875 -0.37505901 1.020044
1.9699401 -0.38461101 1.0210589
1.9550999 -0.393352 1.017365
1.9540499 -0.107271 0.99712199
1.94919 -0.117535 0.99706101
1.9516701 -0.12890099 0.99946398
1.95163 -0.140063 0.99973398
1.94287 -0.150838 0.99772996
1.9347099 -0.16166201 0.99731797
1.92872 -0.172442 0.99658889
1.92388 -0.182677 0.99580693
1.93496 -0.198733 0.99948394
1.96638 -0.21459499 1.0075859
2.0655 -0.291722 1.0371749
2.05286 -0.29947701 1.0337479
2.0402 -0.331422 1.0315219
2.0282001 -0.338476 1.0270569
1.9478999 -0.376394 1.010157
1.9445399 -0.114171 0.99115801
1.93796 -0.125045 0.99041796
1.92865 -0.13536499 0.98815894
1.93434 -0.148932 0.98989493
1.9438699 -0.16117001 0.99317396
1.93796 -0.17083201 0.99213195
1.96198 -0.21448201 1.0008299
2.0387299 -0.33074501 1.0245309
1.93519 -0.11432 0.98436689
1.9461 -0.16286801 0.98807096
1.93791 -0.169928 0.98551393
2.0705199 -0.29503798 1.024511
2.05108 -0.30105799 1.0184999
1.9298599 -0.16151899 0.97811198
2.05913 -0.291217 1.014828
2.06461 -0.302394 1.016214
2.0741799 -0.30205199 1.013158
2.04895 -0.311465 1.0067049
2.0794599 -0.30253202 1.0090519
2.0702 -0.31090298 1.005978
2.0822201 -0.305527 1.003668
2.0761099 -0.31260002 1.0010899
1.97355 -0.21927799 0.95959991
2.0864599 -0.307531 0.99808902
2.1012499 -0.31458598 1.0012779
1.9703799 -0.21852501 0.951832
2.1094902 -0.316165 0.99800092
2.09606 -0.32063401 0.99401891
1.9636501 -0.21764 0.94349396
2.0541601 -0.296404 0.97401202
2.11605 -0.31770301 0.99306399
2.10991 -0.322272 0.99266493
2.1156301 -0.31827801 0.98657495
2.1184499 -0.32340598 0.98896295
2.1089101 -0.31762698 0.97967994
2.1205001 -0.32375401 0.98404497
2.1303799 -0.324561 0.98287195
2.05496 -0.30649099 0.94729495
2.0547099 -0.30712602 0.94092995
1.97874 -0.21970101 0.90499693
1.97771 -0.21964501 0.89795196
1.9775901 -0.218676 0.88997793
1.97716 -0.21839899 0.88291895
1.9761701 -0.21860701 0.87553388
1.97803 -0.218418 0.86879992
1.9777901 -0.21867301 0.8614189
1.9774001 -0.21841101 0.85393602
1.9793401 -0.21952499 0.84742492
1.9802499 -0.21992001 0.83933592
1.98089 -0.218987 0.83199888
1.9805701 -0.218777 0.82529891
1.9873199 -0.22052999 0.82112694
1.98718 -0.22075199 0.81289095
1.9854201 -0.219993 0.80448896
1.98097 -0.21935 0.79572797
1.9878501 -0.22113399 0.79119092
1.9908201 -0.221109 0.78399491
1.9873101 -0.22056101 0.77498794
1.9967799 -0.228984 0.78115797
1.9839 -0.21974 0.76606691
1.98703 -0.21997699 0.76041293
1.99237 -0.22784001 0.7641269
1.9838099 -0.21929501 0.75152695
1.99729 -0.22697599 0.75832993
2.0238099 -0.330798 1.1712079
1.9604601 -0.21400499 1.1425509
2.03842 -0.322413 1.1528549
2.03526 -0.314311 1.1462039
2.05918 -0.32639199 1.150041
2.0583501 -0.242134 1.1379019
2.0479701 -0.31707898 1.141781
2.0599499 -0.32667801 1.1445169
2.07546 -0.23903799 1.137215
2.06709 -0.24392599 1.1359479
2.0428998 -0.30596799 1.1342599
2.0490699 -0.31689301 1.1360819
2.0545599 -0.325257 1.1373409
2.0618601 -0.24412701 1.1301419
2.0405099 -0.24897499 1.124465
2.0463099 -0.30499801 1.128302
2.04532 -0.31542701 1.129285
2.0520699 -0.24312599 1.1206779
2.04423 -0.25077102 1.1189829
2.04865 -0.30710399 1.1235179
2.03532 -0.23669299 1.1098959
2.04479 -0.25001699 1.113156
2.04526 -0.29341298 1.1145819
2.04602 -0.30528098 1.116262
2.0436001 -0.24840099 1.1063
1.9281501 -0.33457902 1.083951
1.92102 -0.37105802 1.0829149
1.92933 -0.37898201 1.084546
2.0380001 -0.246252 1.0987819
2.0473599 -0.26027 1.101025
1.9363201 -0.33636701 1.0801719
1.9421 -0.348315 1.0814929
1.9224899 -0.35847402 1.0775449
1.93758 -0.37161702 1.0815109
1.9309399 -0.37847301 1.0798349
2.0409899 -0.24782801 1.092451
2.053 -0.262851 1.095457
2.04831 -0.28429401 1.0961839
1.9402601 -0.329878 1.07521
1.93662 -0.33789101 1.0736539
1.9378301 -0.347949 1.0745389
1.9443099 -0.36155102 1.077014
1.9380299 -0.37173697 1.0763919
1.92459 -0.37756902 1.073144
2.0434 -0.24751601 1.086167
2.0520599 -0.26035202 1.0888469
2.0533199 -0.27391198 1.090081
1.94388 -0.33890203 1.0689069
1.9372799 -0.34697899 1.068169
1.94769 -0.35937199 1.070148
1.94479 -0.370318 1.07152
2.043 -0.238249 1.0802369
2.04864 -0.249799 1.0812939
2.0562 -0.26354 1.083066
2.0571401 -0.27528602 1.0840019
2.0533199 -0.284071 1.084585
1.93301 -0.33685002 1.058494
1.9450799 -0.34834099 1.0626769
1.9534301 -0.360351 1.0641489
1.9519501 -0.36905399 1.0646319
2.04579 -0.237444 1.073972
2.0549099 -0.25192201 1.0759969
2.0566399 -0.26326799 1.0762759
2.05317 -0.272829 1.077261
2.0523701 -0.28423202 1.0773969
1.95653 -0.352213 1.058239
1.9560699 -0.36235297 1.0588269
1.95653 -0.37012199 1.0580939
2.05551 -0.241541 1.068866
2.0601499 -0.254448 1.070909
2.06129 -0.26438102 1.0717039
2.0583501 -0.27391002 1.071983
2.0574501 -0.284906 1.07146
2.04948 -0.29416901 1.070506
1.9748199 -0.351926 1.0555949
1.96753 -0.363498 1.05415
1.94403 -0.36944598 1.0486499
2.05143 -0.23121001 1.061077
2.0655701 -0.244132 1.064677
2.0599201 -0.25240499 1.064876
2.06249 -0.26471901 1.065835
2.06107 -0.276696 1.066011
2.0531399 -0.286443 1.064442
1.9764999 -0.35481301 1.0492369
1.97368 -0.36517701 1.048355
1.95329 -0.37191001 1.043877
2.0487399 -0.23068801 1.053996
2.0561399 -0.24135901 1.056208
2.0681798 -0.25516301 1.0603929
2.0697799 -0.26671898 1.0606589
2.0655401 -0.275332 1.0609289
2.06113 -0.28514701 1.0599619
2.0511599 -0.29491299 1.0578539
1.9966 -0.35513499 1.047112
1.9816499 -0.364369 1.0444009
1.97774 -0.37461102 1.043137
1.9745799 -0.38583401 1.0414599
1.96789 -0.39438599 1.0392109
2.0378399 -0.22975901 1.04447
2.0523 -0.240785 1.0486619
2.0591002 -0.252464 1.0513749
2.0696499 -0.26515302 1.05515
2.0676401 -0.27653301 1.0545269
2.0567701 -0.287195 1.0524549
2.0331101 -0.32632199 1.0471849
2.00825 -0.34605098 1.043604
2.00441 -0.35659698 1.042588
1.98575 -0.365253 1.0381439
1.9764501 -0.37758401 1.0360399
1.9748399 -0.38760799 1.0358479
1.97655 -0.39655799 1.0360669
1.9808999 -0.40612301 1.036075
2.03687 -0.239011 1.0379169
2.0466001 -0.25030199 1.0414369
2.0641499 -0.26477399 1.047483
2.05918 -0.27521402 1.0448929
2.0652099 -0.28720501 1.047997
2.03527 -0.32684502 1.041895
2.0325201 -0.33609298 1.041806
2.0180299 -0.34555697 1.038994
2.0034599 -0.355746 1.0359839
1.9862399 -0.36437801 1.030939
1.98334 -0.37570599 1.0313129
1.97338 -0.38762102 1.029642
1.9819701 -0.39905 1.032123
1.9821401 -0.40640599 1.031942
2.0639601 -0.28614101 1.0413669
2.0398099 -0.32779703 1.0367219
2.02493 -0.33805698 1.033767
2.0097201 -0.346984 1.030795
1.9970599 -0.35542703 1.027414
1.98755 -0.36563802 1.025983
1.96627 -0.37633598 1.0219799
1.9678501 -0.38716 1.023124
1.96653 -0.39651799 1.023508
2.06215 -0.286989 1.034187
2.03544 -0.32709301 1.0282069
2.0349 -0.33731401 1.029958
2.0108001 -0.34527999 1.0243469
1.9926 -0.353405 1.020294
2.07075 -0.289718 1.0294839
2.0713301 -0.28900498 1.023712
2.05125 -0.29653201 1.019035
2.0483999 -0.30744898 1.0189229
2.0469999 -0.31643999 1.0179399
2.06722 -0.28778499 1.016933
2.06233 -0.29645202 1.0151529
2.04969 -0.30662701 1.0123099
1.94683 -0.230169 0.97121489
2.0589101 -0.28733 1.007219
2.05885 -0.298583 1.0069699
1.9469299 -0.23000099 0.96418899
1.94311 -0.236773 0.96497297
2.0563099 -0.28754801 0.99958694
2.07003 -0.30000299 1.0030299
2.0704699 -0.300102 0.99729598
2.08603 -0.30523801 0.99477392
2.0578301 -0.30873099 0.98786998
1.94038 -0.236276 0.94025391
2.09341 -0.306162 0.990448
2.0843601 -0.31096801 0.98926997
1.95549 -0.23193701 0.93842393
1.9360299 -0.23592199 0.93168694
2.1006501 -0.30779099 0.98670393
2.0963099 -0.31255099 0.98594892
1.94819 -0.231177 0.92846495
1.93095 -0.23525999 0.92382997
2.10443 -0.30853301 0.98181289
2.1087399 -0.31454599 0.98358095
1.9685401 -0.22723301 0.92754793
1.95204 -0.23156901 0.92219192
1.93616 -0.23617399 0.91886491
2.0961502 -0.30721501 0.97379988
2.1148801 -0.31617901 0.98043001
1.94468 -0.236911 0.91376597
2.1214199 -0.31716201 0.97808993
1.9496001 -0.23743001 0.90824997
1.97764 -0.21791099 0.90031999
1.98044 -0.21861799 0.89448595
1.97928 -0.21784 0.88597
1.9762 -0.216611 0.87728292
1.97632 -0.216364 0.87079298
1.98015 -0.217948 0.86560297
1.98269 -0.21912901 0.85815191
1.9802499 -0.21802601 0.84918696
1.9844 -0.21915501 0.84321898
1.9816099 -0.21813801 0.83467299
1.9810801 -0.21775101 0.8278259
1.98481 -0.21909299 0.82271695
1.9871401 -0.220322 0.81543595
1.98791 -0.219916 0.80811799
1.98832 -0.21996 0.80114698
1.9903301 -0.221157 0.79394698
1.9867901 -0.22028901 0.78399992
1.98911 -0.22093099 0.77692693
1.99026 -0.22094999 0.76959091
1.9888999 -0.22 0.76162601
1.99054 -0.220375 0.75669801
1.9989799 -0.22943 0.76201797
1.99159 -0.22048599 0.75252199
1.96132 -0.210522 1.2177659
2.11357 -0.197717 1.174276
2.0935001 -0.198828 1.17134
2.10708 -0.205 1.169086
2.0642998 -0.33004901 1.166067
2.10568 -0.20716 1.1638169
2.0905499 -0.21156299 1.160334
2.04638 -0.31679299 1.1592239
2.0702 -0.332533 1.1626509
2.08513 -0.21259099 1.1538149
2.08004 -0.22060801 1.1522939
2.0476801 -0.222202 1.14577
2.0619001 -0.32264999 1.156085
2.07108 -0.33357498 1.1581639
2.05283 -0.33557999 1.1551299
2.07727 -0.21292101 1.146681
2.0817499 -0.22179899 1.14806
2.0687301 -0.228524 1.144873
2.0387101 -0.231831 1.1402769
2.0532999 -0.317408 1.1480809
2.0513401 -0.32751501 1.148754
2.0873301 -0.22679199 1.1437399
2.08935 -0.23681101 1.1434059
2.0728102 -0.24207899 1.139742
2.0344 -0.241823 1.134527
2.0481901 -0.30659902 1.140703
2.0429602 -0.316062 1.1399189
2.08268 -0.23686101 1.1368519
2.0744901 -0.24450099 1.134153
