# .PCD v0.7 - Point Cloud Data file format
VERSION 0.7
FIELDS x y z
SIZE 4 4 4
TYPE F F F
COUNT 1 1 1
WIDTH 206
HEIGHT 1
VIEWPOINT 0 0 0 1 0 0 0
POINTS 206
DATA ascii
1.84734 -0.29203698 1.8588089
1.85883 -0.32050401 1.855244
1.8392999 -0.34942201 1.8120419
1.84761 -0.302885 1.8598459
1.84653 -0.28607202 1.859135
1.84943 -0.316358 1.8524868
1.86342 -0.33094397 1.849504
1.83382 -0.35516101 1.799861
1.84424 -0.279854 1.8598928
1.8402699 -0.30394301 1.852771
1.8435401 -0.29391101 1.850701
1.84758 -0.311142 1.8583828
1.84381 -0.29646799 1.8559259
1.8403101 -0.278189 1.8536879
1.8453599 -0.309156 1.8491828
1.8344501 -0.33171299 1.856514
1.8357 -0.31363499 1.8548169
1.84261 -0.29771501 1.853591
1.837 -0.28010902 1.851733
1.84249 -0.346715 1.8504269
1.83093 -0.32639301 1.845827
1.83246 -0.31188199 1.844501
1.8387899 -0.298877 1.8438308
1.8444 -0.34804001 1.841527
1.83565 -0.33141398 1.8381369
1.83347 -0.31273702 1.835681
1.8462199 -0.347597 1.8329419
1.83157 -0.32731602 1.828311
1.84386 -0.345034 1.8234429
1.8349401 -0.359418 1.799702
1.84457 -0.289132 1.859108
1.82155 -0.34810102 1.856831
1.84534 -0.291098 1.8570991
1.84726 -0.26097798 1.859064
1.8276601 -0.35868698 1.848428
1.82662 -0.3488 1.848647
1.81338 -0.33510798 1.853678
1.83233 -0.36037299 1.8406329
1.8079801 -0.34198701 1.8491249
1.8484199 -0.36630797 1.815881
1.8396001 -0.36365899 1.8128009
1.84086 -0.363906 1.805416
1.84001 -0.362198 1.7977209
1.8514501 -0.30736601 1.859292
1.8447599 -0.27582499 1.8573979
1.8431799 -0.28182301 1.8571781
1.8402699 -0.31481001 1.8583589
1.84741 -0.305949 1.8597409
1.84317 -0.29201201 1.8583839
1.83929 -0.27607501 1.854648
1.84916 -0.25299799 1.8595549
1.8409899 -0.31564501 1.8501599
1.84203 -0.30479899 1.849902
1.8393401 -0.276573 1.8462619
1.84411 -0.31645098 1.8426681
1.8387101 -0.304616 1.8390309
1.8424699 -0.31060699 1.8592939
1.8402699 -0.299577 1.8578349
1.83795 -0.28422001 1.8567591
1.84263 -0.26960799 1.856303
1.84498 -0.3107 1.8519589
1.8373801 -0.29658702 1.8477349
1.84164 -0.28242701 1.849023
1.8343401 -0.296166 1.837137
1.83575 -0.26761901 1.8369
1.8327299 -0.26798499 1.8182199
1.8405 -0.295809 1.8585058
1.83796 -0.27834901 1.858393
1.85623 -0.32716998 1.857443
1.8420501 -0.30997199 1.850945
1.8321899 -0.29178399 1.8468149
1.8424801 -0.310545 1.842114
1.8382499 -0.29617101 1.84109
1.83716 -0.280027 1.838707
1.8287899 -0.277931 1.809675
1.83207 -0.27640498 1.859831
1.8461 -0.24855 1.859478
1.83339 -0.30509198 1.8541291
1.83441 -0.294873 1.85174
1.8346801 -0.28096399 1.8507708
1.84089 -0.26582101 1.8512799
1.83182 -0.30369499 1.8447
1.8325 -0.292155 1.842621
1.8359599 -0.27719998 1.8413888
1.82877 -0.302127 1.8341379
1.83164 -0.290497 1.8337369
1.83073 -0.30402002 1.8257579
1.82612 -0.27435601 1.802264
1.83267 -0.262743 1.804342
1.83403 -0.26162601 1.796252
1.82864 -0.30054501 1.859092
1.8316001 -0.28466201 1.8560709
1.83224 -0.26804399 1.8569779
1.84754 -0.320638 1.856729
1.8346699 -0.30101401 1.8500321
1.83901 -0.288068 1.849818
1.8414999 -0.27245599 1.8492079
1.8453799 -0.25602201 1.846241
1.8468801 -0.32013902 1.846174
1.83619 -0.30311099 1.841957
1.8434501 -0.25540599 1.8375859
1.8332001 -0.285799 1.8299379
1.8302001 -0.26545799 1.8078309
1.8219399 -0.26244301 1.797384
1.82974 -0.26519698 1.7906909
1.83935 -0.252877 1.790252
1.83657 -0.35615897 1.804107
1.84049 -0.36460301 1.8059369
1.8408799 -0.363507 1.799403
1.82408 -0.34309798 1.8533179
1.8259399 -0.32907903 1.8512869
1.82232 -0.315341 1.8497229
1.7997099 -0.30899599 1.8576748
1.83158 -0.35222998 1.842436
1.8391701 -0.33772999 1.838702
1.8384399 -0.323475 1.8386829
1.8339599 -0.31212899 1.837744
1.8205299 -0.303561 1.841694
1.7917501 -0.30180901 1.8528439
1.85235 -0.347637 1.8259479
1.84435 -0.33690101 1.8276
1.83587 -0.32450902 1.830635
1.83038 -0.31144899 1.830956
1.8324699 -0.287359 1.8594699
1.8190199 -0.34222698 1.8564858
1.82784 -0.32873401 1.8504289
1.81668 -0.316843 1.8547339
1.80295 -0.307547 1.8576999
1.84052 -0.337616 1.8392689
1.8366901 -0.32643199 1.8382829
1.82443 -0.315375 1.8427299
1.8030701 -0.30689698 1.8499689
1.77865 -0.30305701 1.857061
1.8451401 -0.34829 1.8286608
1.8457401 -0.33626202 1.8287148
1.8328199 -0.31335399 1.8309549
1.82418 -0.30235901 1.8336009
1.79188 -0.29995099 1.846265
1.8298399 -0.30157399 1.822763
1.8280901 -0.29062 1.820905
1.82942 -0.28379199 1.8582869
1.82924 -0.33310902 1.8522049
1.82312 -0.32158402 1.8540149
1.81536 -0.30987102 1.8565799
1.80036 -0.30158702 1.8594849
1.8041 -0.29018298 1.8578159
1.81838 -0.34567201 1.8491859
1.84409 -0.33208197 1.8375729
1.8263299 -0.32248002 1.8440109
1.8102499 -0.31062701 1.8494569
1.7861 -0.30329201 1.85647
1.7729499 -0.296601 1.8586991
1.83393 -0.32154399 1.8325779
1.81986 -0.31010401 1.836955
1.78754 -0.30311599 1.8478749
1.76006 -0.299382 1.8563359
1.81967 -0.29792601 1.827157
1.7734801 -0.29602101 1.846561
1.81012 -0.289511 1.8206229
1.83261 -0.297916 1.857314
1.83372 -0.286897 1.8559599
1.81311 -0.34882998 1.856568
1.8257899 -0.33751598 1.850861
1.82039 -0.324543 1.8525839
1.81367 -0.31303498 1.8546379
1.8228999 -0.29951799 1.851382
1.83776 -0.28655002 1.8467059
1.81938 -0.34850103 1.8473259
1.84084 -0.33618999 1.8363469
1.82981 -0.325073 1.84114
1.81905 -0.312451 1.8454959
1.8014799 -0.302062 1.848588
1.8172799 -0.289859 1.8461051
1.8259399 -0.31333199 1.8347919
1.77837 -0.30154601 1.847163
1.76959 -0.294267 1.8485528
1.7791499 -0.30006599 1.839222
1.75456 -0.29497299 1.8468939
1.7778 -0.283472 1.837845
1.80467 -0.30014098 1.822594
1.77019 -0.29273799 1.834906
1.7858 -0.28191602 1.828277
1.81925 -0.29908001 1.8085769
1.7951 -0.290171 1.818288
1.83776 -0.29872 1.859991
1.8155 -0.33791 1.8573359
1.8183399 -0.32694501 1.8569369
1.81915 -0.31425801 1.8547499
1.8382801 -0.29879901 1.850588
1.83841 -0.33813098 1.83959
1.8209599 -0.32653099 1.8469629
1.81279 -0.314008 1.8488829
1.8207 -0.30225 1.847856
1.83718 -0.28836301 1.84381
1.8293099 -0.34789902 1.835369
1.82819 -0.32830799 1.8350589
1.8076301 -0.31596202 1.8428159
1.81027 -0.30386001 1.8437359
1.8345599 -0.32641602 1.8241409
1.8225501 -0.31494799 1.8290709
1.79494 -0.30576599 1.8398929
1.82427 -0.29063299 1.823833
1.8014901 -0.302472 1.828216
1.82015 -0.29130802 1.8188488
1.8099201 -0.30234101 1.817138
1.8235699 -0.29086101 1.8096969
