# .PCD v0.7 - Point Cloud Data file format
VERSION 0.7
FIELDS x y z
SIZE 4 4 4
TYPE F F F
COUNT 1 1 1
WIDTH 1585
HEIGHT 1
VIEWPOINT 0 0 0 1 0 0 0
POINTS 1585
DATA ascii
2.0871601 -0.419076 1.5963359
2.09482 -0.422916 1.5945189
1.97603 -0.22426501 1.593491
1.98695 -0.229683 1.592327
1.99629 -0.23572399 1.592023
1.95412 -0.273608 1.598922
1.95592 -0.284475 1.5983409
1.9551899 -0.29576799 1.5999179
1.9618601 -0.30499899 1.599256
1.9542301 -0.32039502 1.600691
1.95904 -0.35595101 1.599896
1.9494001 -0.36862001 1.6028579
1.9322301 -0.38583198 1.6067119
2.00229 -0.412568 1.5963849
2.0205801 -0.41696998 1.595819
2.0385001 -0.42135602 1.595616
2.05371 -0.42474401 1.5941429
2.0843401 -0.41951099 1.5910079
2.08303 -0.42946398 1.5914899
1.97378 -0.22526801 1.5869139
1.97937 -0.23274799 1.5860308
1.9843299 -0.24198401 1.586499
1.95336 -0.27461299 1.591483
1.95504 -0.28359199 1.5927469
1.95925 -0.29385501 1.592621
1.95953 -0.30702698 1.5923591
1.95156 -0.32106 1.5929589
1.95656 -0.35628101 1.594896
1.95713 -0.36477298 1.5946519
1.98009 -0.39619499 1.591212
1.99185 -0.404154 1.5915669
2.01299 -0.406259 1.5901278
2.0147901 -0.41749099 1.5910308
2.0206001 -0.427542 1.592376
2.06815 -0.42865798 1.5887889
1.9739701 -0.225004 1.579868
1.96446 -0.239695 1.5807469
1.9833701 -0.24371299 1.5796629
1.9650999 -0.26609501 1.5830989
1.9578199 -0.282745 1.5859278
1.9593401 -0.2956 1.5853709
1.95733 -0.30939901 1.5855581
1.9521201 -0.32171601 1.585921
1.9552699 -0.35674098 1.5888739
1.9611 -0.363484 1.5868319
1.9527099 -0.37932301 1.5890908
1.97528 -0.38384202 1.585961
1.98686 -0.39278197 1.5852311
2.0008299 -0.39976898 1.5855919
2.01069 -0.40680501 1.5853459
2.0092399 -0.42095199 1.5877159
1.95924 -0.221619 1.575302
1.9650199 -0.228149 1.573957
1.95737 -0.243487 1.575493
1.9775901 -0.245643 1.574386
1.97175 -0.261655 1.5749469
1.9574499 -0.28345901 1.5785049
1.95823 -0.29807502 1.5784489
1.9549899 -0.31213102 1.5790629
1.9491099 -0.32426301 1.580186
1.9580901 -0.355896 1.5814459
1.96486 -0.36176202 1.579644
1.9694901 -0.372109 1.580477
1.98282 -0.38009498 1.5789639
1.9875599 -0.38997898 1.5782859
1.9874899 -0.40290797 1.5801759
1.9535 -0.22279601 1.5698749
1.96933 -0.22440399 1.566744
1.9538699 -0.24351601 1.56914
1.97172 -0.24921 1.568871
1.97131 -0.26257798 1.5675409
1.9673101 -0.27769399 1.569527
1.9652901 -0.291587 1.5711579
1.96284 -0.30629101 1.5708319
1.95289 -0.32337701 1.5728229
1.9588499 -0.35489899 1.573457
1.9706199 -0.36099899 1.572811
1.98237 -0.367881 1.572648
1.98278 -0.38004503 1.572278
1.9759899 -0.39615399 1.573648
1.97052 -0.40903801 1.575168
1.9595799 -0.22036301 1.5625639
1.9686 -0.226595 1.560222
1.95679 -0.24377801 1.562065
1.96469 -0.253149 1.5625808
1.9817599 -0.25799102 1.5601979
1.9742799 -0.273819 1.561294
1.97012 -0.290272 1.5634789
1.9594799 -0.30827901 1.5646359
1.96216 -0.31955498 1.5644029
1.9452499 -0.34038201 1.5675209
1.9587101 -0.34919301 1.565871
1.96129 -0.36273801 1.5663279
1.9833701 -0.36605203 1.56586
1.96523 -0.38901797 1.5677719
1.95735 -0.404944 1.5695709
1.9686799 -0.217574 1.554565
1.9784501 -0.22269601 1.552343
1.9686199 -0.23779801 1.554462
1.96543 -0.25108498 1.556101
1.97733 -0.25990498 1.554294
1.97508 -0.27525899 1.5545039
1.97405 -0.287177 1.5562168
1.96489 -0.305994 1.5572629
1.95778 -0.32365298 1.558265
1.95473 -0.337666 1.560354
1.9596601 -0.34893599 1.5592999
1.94968 -0.36891103 1.560661
1.9714301 -0.37200999 1.560149
1.95507 -0.39352101 1.5613511
2.0187101 -0.16605301 1.5374449
2.0280299 -0.17437901 1.536929
2.01372 -0.193463 1.539663
1.99799 -0.212615 1.5437239
1.993 -0.226798 1.544986
1.985 -0.24312501 1.5472839
1.98711 -0.25510702 1.545477
1.98395 -0.26972401 1.54698
1.97249 -0.28940001 1.5493199
1.96623 -0.306409 1.549753
1.9597099 -0.321105 1.551973
1.96351 -0.33301699 1.5522408
1.96699 -0.343945 1.5513669
1.94836 -0.38606203 1.555591
1.95007 -0.39525902 1.5553269
1.94812 -0.40449902 1.5557879
2.0006101 -0.15192701 1.5338179
2.02653 -0.15178899 1.531512
2.0360601 -0.159391 1.5312719
2.03497 -0.17049 1.531644
2.0253799 -0.18574101 1.5332069
2.01425 -0.202665 1.5352139
1.9997001 -0.22153799 1.537464
1.99137 -0.24034001 1.5387559
1.9996899 -0.24947399 1.5381501
1.99069 -0.264889 1.539556
1.98129 -0.28266799 1.5411359
1.9750301 -0.30056998 1.541772
1.96295 -0.32117501 1.5448929
1.96249 -0.33468899 1.5455749
1.95841 -0.34582901 1.5454179
1.93978 -0.39155799 1.550566
1.9459701 -0.396633 1.5505561
2.0982401 -0.39398602 1.53039
2.13924 -0.38593301 1.5270278
2.1526601 -0.38978499 1.5262818
2.1558399 -0.40048698 1.5266719
2.16643 -0.40704399 1.5255139
2.1791201 -0.41199502 1.5242209
2.03389 -0.101756 1.5223999
2.03197 -0.113392 1.5229911
2.0382099 -0.123124 1.5227809
2.02789 -0.14026 1.5258969
2.0328 -0.149529 1.5257128
2.03268 -0.161486 1.526794
2.03158 -0.17296 1.527005
2.0204101 -0.19007401 1.5284369
2.0053799 -0.208767 1.5301929
1.99264 -0.22681999 1.5315909
1.9885299 -0.241777 1.53125
1.9948599 -0.25278899 1.532536
1.9938201 -0.26739702 1.53284
1.9791701 -0.28767002 1.5345379
1.97998 -0.30000201 1.534254
1.9775701 -0.31308299 1.5358471
1.9600999 -0.33437902 1.5395219
1.9438699 -0.35222501 1.5418229
1.9289399 -0.39708999 1.5470239
2.0482202 -0.372648 1.527934
2.07371 -0.37129799 1.526183
2.0791199 -0.38129601 1.5267099
2.1040602 -0.38009 1.5248669
2.1249399 -0.38167998 1.5235009
2.14921 -0.381446 1.521596
2.15712 -0.38932401 1.522139
2.1714599 -0.39258203 1.5205569
2.1897199 -0.39478001 1.5183491
2.0471699 -0.107851 1.5169749
2.0500901 -0.118668 1.516415
2.0422399 -0.133414 1.5185919
2.04211 -0.14433099 1.51914
2.0303102 -0.16062599 1.521578
2.01004 -0.18372101 1.5244269
1.99385 -0.20442499 1.5255671
1.9875901 -0.21841998 1.5261788
1.9763901 -0.23476499 1.526539
1.96987 -0.249671 1.526382
1.98375 -0.25630501 1.526269
1.99611 -0.26439399 1.5259019
1.9972301 -0.27725101 1.5261009
1.99402 -0.29208001 1.526584
1.9958701 -0.30387801 1.527185
1.9839599 -0.32144699 1.5292029
2.0180399 -0.31809402 1.5231009
2.0174201 -0.347462 1.5238119
2.04266 -0.346549 1.521688
2.0545499 -0.35540798 1.5215368
2.06672 -0.36327597 1.5220259
2.08214 -0.36660001 1.521364
2.0867 -0.37694499 1.5214229
2.10847 -0.379233 1.520025
2.12729 -0.38235 1.518311
2.1542001 -0.37937802 1.515353
2.1605701 -0.38697299 1.5163929
2.1805401 -0.38759997 1.5136769
2.1877601 -0.39619401 1.5125
2.0548 -0.11438599 1.511017
2.05123 -0.127189 1.5119029
2.0416999 -0.14203499 1.5142499
1.9818801 -0.22167601 1.5199989
1.9664 -0.24019699 1.520925
1.9571099 -0.255173 1.521906
1.97012 -0.26067302 1.520959
1.9972399 -0.26279101 1.5185859
2.0011098 -0.27348301 1.519529
2.00489 -0.28508401 1.5186419
2.00144 -0.30039799 1.5198909
1.99526 -0.31559098 1.521675
2.03653 -0.31078601 1.51515
2.0320101 -0.32682097 1.517014
2.03652 -0.338368 1.517661
2.03737 -0.35082501 1.51763
2.0564599 -0.353297 1.516642
2.0599201 -0.36263198 1.517285
2.07691 -0.36891401 1.517517
2.0781701 -0.38116902 1.517885
2.0824299 -0.39060101 1.517972
2.1031199 -0.39064899 1.5165259
2.1508 -0.38164601 1.51096
2.1654201 -0.38455102 1.5097319
2.1809499 -0.38883498 1.5076309
2.1880901 -0.39688802 1.5068719
2.0490198 -0.107706 1.507007
2.0409 -0.122059 1.5081059
2.02967 -0.13633999 1.509881
1.9763901 -0.22415899 1.5133069
1.9702901 -0.236203 1.5139859
1.9621899 -0.25287101 1.514941
1.9813 -0.25893998 1.5132769
1.9985601 -0.264218 1.511657
2.0057201 -0.273101 1.5124279
2.0120699 -0.282123 1.51176
2.01021 -0.294451 1.5121039
2.0131299 -0.307796 1.5125279
2.0405099 -0.30739599 1.509316
2.03966 -0.31990102 1.5102659
2.0336001 -0.33787999 1.5123349
2.03195 -0.352126 1.513188
2.03175 -0.36540401 1.5144529
2.03617 -0.37346801 1.5147491
2.1480601 -0.39406398 1.5069979
2.1702201 -0.39235401 1.504559
2.18554 -0.39702901 1.502808
1.9639 -0.22973199 1.5073799
1.96884 -0.238913 1.5073739
1.9609101 -0.25334999 1.5082959
1.97787 -0.25742501 1.5070028
1.99129 -0.26569799 1.5058209
2.00441 -0.27203599 1.506218
2.0083799 -0.28339198 1.506055
2.01143 -0.296433 1.504966
2.0284801 -0.30280301 1.5043319
2.0362501 -0.311084 1.50448
2.03807 -0.32005 1.504262
2.0151 -0.35029098 1.50998
1.97277 -0.223075 1.4988959
1.97146 -0.23480101 1.5002871
1.96586 -0.25084299 1.501122
1.98444 -0.257186 1.4997048
1.99112 -0.267277 1.4990751
2.0030999 -0.2735 1.4999789
2.00704 -0.285247 1.4989051
2.0035 -0.29932401 1.4986279
2.02086 -0.30333298 1.4982209
2.0314 -0.31123 1.4982879
2.0183098 -0.32719001 1.499074
1.9449699 -0.22251499 1.494188
1.97228 -0.22318301 1.4928229
1.96852 -0.23758399 1.4944029
1.9662199 -0.249668 1.493938
1.9762199 -0.25743699 1.4937919
1.98888 -0.26526299 1.4928769
1.99851 -0.27586001 1.492605
2.0018699 -0.289085 1.492517
2.0046799 -0.301025 1.4928459
2.02268 -0.30450499 1.4924819
2.0228701 -0.313979 1.4924519
1.9407899 -0.20870899 1.4877139
1.95523 -0.21763 1.4879789
1.97307 -0.221306 1.4860801
1.9712199 -0.236094 1.4870689
1.96233 -0.25311801 1.4886819
1.98453 -0.25564501 1.486668
1.99324 -0.26565799 1.4856589
1.9983701 -0.27528998 1.4859639
2.0000501 -0.285896 1.4861189
2.0030601 -0.29783002 1.4862339
2.0079501 -0.30913901 1.487426
2.0021501 -0.32282397 1.4887639
1.93701 -0.209694 1.481427
1.95269 -0.21731301 1.4810489
1.97623 -0.222362 1.479587
1.97018 -0.237648 1.4802569
1.9708501 -0.24931499 1.481828
1.9859101 -0.25589702 1.47954
1.9890699 -0.26686701 1.479762
2.0001402 -0.27368999 1.479671
1.99663 -0.288681 1.479715
1.9993401 -0.29913402 1.4796879
1.9372301 -0.19900101 1.475546
1.94912 -0.207727 1.4748019
1.9509801 -0.21799 1.4747949
1.97189 -0.22126 1.4731079
1.97743 -0.232932 1.4734299
1.9782001 -0.24558501 1.4744381
1.98781 -0.253189 1.4726869
1.99563 -0.26287201 1.4731549
1.9958501 -0.276701 1.4729329
1.99884 -0.28826702 1.472733
1.9946699 -0.29979098 1.4723599
1.9405999 -0.20970899 1.4697269
1.9734199 -0.22170299 1.465938
1.9771899 -0.23144899 1.4671199
1.9795101 -0.24472401 1.466985
1.99437 -0.25211 1.46663
1.9911799 -0.26633498 1.4664479
1.99675 -0.27812099 1.4657739
1.9946001 -0.29096001 1.466776
1.99804 -0.298085 1.465591
1.97554 -0.22212 1.4592595
1.9778301 -0.233459 1.4604114
1.98104 -0.24448299 1.4602138
1.99026 -0.25342301 1.459702
1.99501 -0.26633301 1.4592438
1.99923 -0.27697399 1.4588799
1.99905 -0.288304 1.4599134
2.0019 -0.29594001 1.4593477
2.18311 -0.37630901 1.4516052
1.97515 -0.22032601 1.4529475
1.9788201 -0.23174299 1.45323
1.98443 -0.24339399 1.453809
1.99702 -0.24989299 1.4529431
2.0027499 -0.25937599 1.4520134
2.0060601 -0.27206901 1.452363
1.9946201 -0.288937 1.4538028
2.0046 -0.29415599 1.4530078
1.98157 -0.217296 1.4459977
1.9825901 -0.228026 1.446191
1.98118 -0.243008 1.4464371
1.99826 -0.24889798 1.4469374
2.0000799 -0.26002398 1.4455227
2.00879 -0.26956499 1.4451015
2.00472 -0.284805 1.4466056
2.0032899 -0.295127 1.4465454
2.16451 -0.37407002 1.4393927
2.1851401 -0.37007001 1.4401873
1.9616001 -0.217904 1.4414155
1.9805499 -0.21953899 1.439527
1.9845599 -0.23074199 1.4397186
1.9826801 -0.243375 1.4398811
1.99659 -0.249806 1.4395943
2.00298 -0.26090699 1.4395404
2.01226 -0.268852 1.4379593
2.00982 -0.28160298 1.4392368
2.01109 -0.29100099 1.4401137
2.15785 -0.37399301 1.4327617
2.17665 -0.371923 1.4340895
1.97033 -0.214696 1.4338217
1.98524 -0.216728 1.4333736
1.98485 -0.227614 1.4332863
1.9893401 -0.24047799 1.4330689
2.00368 -0.246914 1.4328167
2.0068099 -0.25882 1.4324666
2.0111799 -0.270255 1.4319817
2.0174201 -0.27750599 1.432845
2.01738 -0.286935 1.4327039
2.1403399 -0.37334201 1.4272658
2.1519799 -0.37470099 1.4274107
2.1556199 -0.38155898 1.4287311
1.96577 -0.21640499 1.4269345
1.9798801 -0.21921301 1.4278694
1.9837899 -0.22976999 1.426358
1.9892999 -0.24081101 1.4258983
2.00228 -0.24790899 1.4264752
2.0136199 -0.255907 1.4252237
2.0095 -0.27019399 1.4260691
2.01614 -0.278667 1.4269518
2.01897 -0.287002 1.4251324
2.1185 -0.37623298 1.4228734
2.14293 -0.36982498 1.4221888
2.13152 -0.38549998 1.4233052
1.9580901 -0.219575 1.4210274
1.9805599 -0.21906701 1.4212495
1.98722 -0.22656602 1.4195126
1.98922 -0.23799901 1.4197056
2.0000901 -0.24583599 1.4197748
2.01226 -0.25327 1.4192854
2.0212901 -0.263448 1.4186741
2.0157001 -0.279241 1.4201895
2.02686 -0.28531399 1.417686
2.12866 -0.368613 1.417046
2.1221099 -0.37961102 1.416703
1.9817599 -0.21938999 1.4141403
1.9924899 -0.22638701 1.4130273
1.9894201 -0.24024999 1.4140329
2.00826 -0.24374901 1.4131678
2.0215402 -0.25076902 1.4124362
2.0297701 -0.25998601 1.4112326
2.02336 -0.276786 1.4127159
2.02369 -0.28847799 1.4118184
2.0072 -0.30470502 1.4121443
2.10866 -0.37659901 1.410512
2.09848 -0.390187 1.4107811
1.96955 -0.21651199 1.4072104
1.9839301 -0.219679 1.4070674
1.99312 -0.22580799 1.407061
1.99782 -0.23547001 1.4073187
2.0149698 -0.241174 1.4064366
2.03249 -0.24601699 1.405761
2.0366099 -0.255826 1.4048892
2.0320699 -0.271391 1.4052844
2.02702 -0.28586799 1.4065471
2.0137 -0.302784 1.4060086
2.0866201 -0.377415 1.4037704
2.0852401 -0.38696 1.4049243
1.9036099 -0.227267 1.3992382
1.9830099 -0.21868999 1.3999676
1.9920599 -0.22568101 1.4014058
2.0007699 -0.23452601 1.4003453
2.0288498 -0.235434 1.3997563
2.0338202 -0.24570499 1.3995223
2.0355201 -0.258131 1.3987259
2.0320301 -0.27283201 1.3988286
2.02688 -0.28733599 1.3997052
2.0043402 -0.310314 1.3987852
1.9826699 -0.33073899 1.3980788
2.07902 -0.37085 1.3977951
2.0935001 -0.37014401 1.3977017
1.9533501 -0.220981 1.3931996
1.9739101 -0.22106001 1.3937676
1.9876601 -0.22658701 1.3942026
2.0062499 -0.23329501 1.3931433
2.02862 -0.23656401 1.3938441
2.0342999 -0.24582501 1.3931286
2.0358801 -0.25720701 1.3920236
2.0410399 -0.266408 1.3931493
2.03388 -0.28188801 1.3930581
2.00877 -0.306667 1.3934662
1.9935601 -0.32435501 1.393658
2.08599 -0.364393 1.3913682
2.08833 -0.369688 1.390838
1.94613 -0.223258 1.3875172
1.9738499 -0.22079501 1.3877363
1.99586 -0.224701 1.3866481
2.0017998 -0.234763 1.3869029
2.0260601 -0.236709 1.3870444
2.0269799 -0.24951401 1.3870516
2.0431101 -0.253234 1.3859076
2.0376899 -0.268543 1.3864598
2.0260899 -0.28741199 1.3874751
2.00653 -0.308541 1.3889586
2.06359 -0.36584401 1.3846991
2.0833001 -0.363754 1.3857148
2.0639901 -0.38164502 1.3854005
1.9476401 -0.221551 1.3815862
1.9746499 -0.220984 1.3806
1.9973599 -0.223895 1.3794541
2.0090401 -0.23176999 1.3808548
2.0255201 -0.23656499 1.3808391
2.0318 -0.246058 1.3803881
2.0386901 -0.25736099 1.3800893
2.0416 -0.266799 1.3800795
2.0420301 -0.27628499 1.3799312
2.0708299 -0.35810101 1.3781034
2.07109 -0.36743698 1.3797504
1.9028 -0.20887199 1.373238
1.93431 -0.223309 1.3740921
1.9884599 -0.21830401 1.373925
2.0004799 -0.222477 1.3737372
2.0053201 -0.23149499 1.3736887
2.02191 -0.23751 1.3750364
2.0267 -0.246567 1.3735443
2.0355599 -0.255178 1.3736861
2.04228 -0.26634899 1.3734218
2.0410001 -0.27824101 1.3726665
2.06143 -0.35288897 1.3720965
2.06758 -0.35683301 1.3724132
1.91403 -0.184202 1.3665849
1.91257 -0.193701 1.367173
1.90733 -0.20755501 1.3672534
1.89816 -0.22333799 1.3679225
1.9219501 -0.223676 1.366528
1.98877 -0.21854201 1.3675842
1.99928 -0.223185 1.3675951
2.00492 -0.231841 1.367622
2.0186601 -0.23788601 1.3680345
2.0278001 -0.24714799 1.3674051
2.0388 -0.25522 1.3672153
2.0485001 -0.263789 1.3660758
2.04245 -0.27826598 1.3668574
2.0241899 -0.29603499 1.3666188
2.06352 -0.34889498 1.3659133
2.05864 -0.358327 1.3657103
1.9134599 -0.18446301 1.360623
1.9137801 -0.192866 1.3607043
1.90713 -0.20601499 1.3611264
1.9108299 -0.21712901 1.3607509
1.9172901 -0.224342 1.3597924
1.9972399 -0.21475901 1.3612814
2.00387 -0.22066601 1.3614
2.00684 -0.230571 1.3615667
2.0230999 -0.237378 1.3611816
2.03304 -0.24610901 1.3610672
2.0465801 -0.252581 1.3607522
2.05268 -0.26228398 1.3596476
2.0512099 -0.274147 1.3606772
2.0341299 -0.29134399 1.3612686
2.0474699 -0.34729901 1.3592787
2.04863 -0.35346001 1.3591707
1.8960299 -0.20073 1.3544815
1.91351 -0.204898 1.354333
1.92019 -0.214176 1.3529266
1.9891299 -0.21793801 1.3546424
2.0013201 -0.221968 1.3550692
2.0093601 -0.23137501 1.3542236
2.02599 -0.23771799 1.3546163
2.03882 -0.244817 1.3547528
2.04881 -0.252729 1.3544664
2.05757 -0.26042402 1.3537806
2.05424 -0.27265301 1.3543358
2.0437 -0.28684101 1.3552014
2.04266 -0.34727401 1.3528113
2.0265601 -0.36252499 1.3523669
1.89729 -0.20331699 1.3477809
1.9219999 -0.204603 1.3471376
1.9149499 -0.217021 1.3461392
1.92782 -0.220807 1.3456949
1.9916099 -0.21668899 1.3479979
2.00122 -0.22367701 1.3481662
2.0067 -0.23174199 1.3478882
2.01966 -0.236929 1.3480713
2.0318201 -0.24438499 1.3482273
2.04527 -0.250772 1.3484532
2.0534301 -0.25935 1.3482393
2.06019 -0.26874799 1.3477623
2.04232 -0.287222 1.3485832
2.0260699 -0.34616297 1.3472066
2.0380099 -0.34730598 1.3476555
1.9261099 -0.202849 1.3412596
1.92795 -0.212575 1.340045
1.9400799 -0.219384 1.339711
1.97846 -0.21841699 1.340193
1.999 -0.221901 1.3421794
2.00721 -0.23103501 1.3416051
2.0271299 -0.23675101 1.3417875
2.0393801 -0.244407 1.342155
2.04635 -0.25276801 1.3426663
2.06022 -0.25812301 1.3420584
2.06354 -0.268015 1.3409654
2.04618 -0.28508499 1.3417878
2.0643101 -0.31724301 1.3371266
2.0178301 -0.35793099 1.3424257
1.9254899 -0.20505801 1.3340755
1.92744 -0.21382099 1.3334787
1.94541 -0.21866699 1.3335168
1.9785 -0.21854401 1.3340837
1.9953901 -0.22306801 1.3357567
2.0042799 -0.23092599 1.3344145
2.02284 -0.23630899 1.3347023
2.0341599 -0.24491301 1.3354504
2.04865 -0.252141 1.3361046
2.05864 -0.26083902 1.3357444
2.0681 -0.26628798 1.3357811
2.0492301 -0.28394699 1.3347197
2.046 -0.318863 1.3324515
2.05845 -0.31945699 1.3322814
1.9155 -0.20987199 1.3283654
1.9313999 -0.21342699 1.3279735
1.9499699 -0.217521 1.3269864
1.97023 -0.219926 1.3282096
1.99535 -0.22238301 1.328815
2.0092399 -0.230793 1.3277962
2.02859 -0.23517901 1.3284945
2.0324099 -0.24392599 1.3295108
2.03971 -0.25369498 1.328624
2.05916 -0.25859201 1.3297342
2.06284 -0.26868701 1.3302401
2.0485401 -0.286872 1.3273225
2.05881 -0.310496 1.3277065
2.0622399 -0.31629601 1.3266172
1.94301 -0.220422 1.3219121
1.9711099 -0.220734 1.3220688
2.0009801 -0.22209901 1.3216881
2.0023398 -0.23309201 1.3215396
2.02156 -0.23678601 1.3218613
2.0329499 -0.244829 1.3233415
2.0390801 -0.254511 1.321569
2.04702 -0.263244 1.3224744
2.05442 -0.27279699 1.3233745
2.0437 -0.29082701 1.3206151
2.0362 -0.307964 1.3211598
2.05812 -0.30903 1.32149
2.0562 -0.31877398 1.3200902
1.94412 -0.22152001 1.3172538
1.9863299 -0.21874 1.3150764
2.0048399 -0.22018299 1.3159813
2.00337 -0.23178899 1.3155812
2.0203199 -0.23806101 1.3146129
2.03213 -0.24604701 1.3164154
2.0446501 -0.25191799 1.3164438
2.04404 -0.26309901 1.315954
2.0488698 -0.274822 1.3161039
2.0439 -0.29105198 1.3141809
2.0455499 -0.30317801 1.3157475
2.0592399 -0.30775499 1.3153249
2.04739 -0.32258701 1.3138857
1.9855299 -0.219221 1.3078345
2.00226 -0.221425 1.310002
2.00789 -0.23134701 1.3084346
2.02144 -0.23830299 1.308446
2.02982 -0.246393 1.3095462
2.0404899 -0.25402701 1.3107514
2.0401199 -0.26765901 1.3090644
2.04022 -0.28108001 1.3089889
2.0471001 -0.28938299 1.3078887
2.05108 -0.29994699 1.3095644
2.05407 -0.30879101 1.3085405
1.98604 -0.218519 1.3018457
1.9974099 -0.22340201 1.3023125
2.0053201 -0.231571 1.3023903
2.01983 -0.237278 1.3023894
2.0295799 -0.245254 1.3035632
2.0327001 -0.25766301 1.3029811
2.04072 -0.266857 1.302706
2.04322 -0.27868798 1.3024619
2.0425301 -0.29125798 1.302155
2.04985 -0.29939801 1.3025078
2.0430498 -0.31320199 1.3004389
1.9836 -0.21973301 1.2958543
2.0030401 -0.22095501 1.2953289
2.0043499 -0.23191901 1.2964879
2.02425 -0.235884 1.2957454
2.0275102 -0.24773 1.2967279
2.0406199 -0.254307 1.2970523
2.04107 -0.266534 1.2963195
2.0420399 -0.27983499 1.2956489
2.04493 -0.29046899 1.2968478
2.04843 -0.30074301 1.2951753
2.04052 -0.31428102 1.2941281
1.98534 -0.21934099 1.2890916
2.0060699 -0.219347 1.288713
2.0079601 -0.230746 1.2896885
2.02369 -0.235847 1.2899948
2.0289299 -0.24513599 1.2895814
2.03631 -0.256372 1.290537
2.0401101 -0.26674101 1.2898859
2.0452001 -0.276694 1.2893486
2.04423 -0.290665 1.2901379
2.0506799 -0.298805 1.2888844
2.04076 -0.31351 1.2878016
1.9915601 -0.216434 1.2825247
2.0071599 -0.21806 1.2832068
2.0093801 -0.227457 1.2831187
2.0195799 -0.23675199 1.2837951
2.02457 -0.2465 1.2828
2.0318801 -0.25553399 1.2832048
2.04035 -0.266545 1.283305
2.0476999 -0.276425 1.2829479
2.0465701 -0.28981599 1.2833661
2.0483999 -0.30092999 1.283021
2.0345199 -0.316448 1.2802631
1.9853799 -0.2186 1.2755921
2.00266 -0.22019599 1.2769728
2.0107 -0.22932801 1.2764624
2.02156 -0.237709 1.2776052
2.0287199 -0.24614701 1.2770245
2.03633 -0.25667298 1.2764322
2.03986 -0.267892 1.2764978
2.0466099 -0.27507901 1.2776035
2.0488901 -0.28588498 1.2770007
2.04655 -0.30031401 1.2762707
2.0274699 -0.31947398 1.2729416
1.9842501 -0.21937999 1.2689456
2.00493 -0.220434 1.2706103
2.00683 -0.229927 1.2693067
2.0229201 -0.23614299 1.2709901
2.0278502 -0.24804701 1.2699325
2.03879 -0.255317 1.2701999
2.0388401 -0.267169 1.270347
2.0427001 -0.27759001 1.2713249
2.0332201 -0.29501802 1.2690889
2.03023 -0.30859601 1.2678694
2.00914 -0.32823601 1.2653642
1.9811701 -0.220506 1.2618467
2.0009201 -0.22164302 1.2631619
2.01086 -0.230444 1.2635593
2.0241401 -0.237876 1.2641082
2.0288999 -0.24754 1.2636086
2.03076 -0.256998 1.264315
2.0443799 -0.26212001 1.264783
2.0402699 -0.27797601 1.2641157
2.0256901 -0.29909199 1.2614876
2.01686 -0.31439301 1.2600459
1.97928 -0.22164899 1.2552509
2.0032401 -0.219942 1.257077
2.0053399 -0.230345 1.2563119
2.02052 -0.236485 1.2580459
2.0295 -0.245269 1.257517
2.0360899 -0.25496 1.2588
2.04003 -0.266242 1.257813
2.0380399 -0.28092802 1.256696
2.01932 -0.30251399 1.2537849
2.0118201 -0.315622 1.252896
1.97668 -0.22377899 1.248632
2.0023398 -0.221084 1.2511829
2.0056798 -0.230983 1.249166
2.0207701 -0.23735501 1.251228
2.0335898 -0.24404101 1.2517689
2.0366099 -0.25555599 1.251382
2.0349 -0.271025 1.2505389
2.03335 -0.284704 1.2497309
2.02019 -0.301377 1.2477499
2.0116498 -0.314199 1.2462549
2.0015299 -0.22298999 1.2440939
2.00915 -0.22952899 1.2436109
2.0164499 -0.238251 1.2434599
2.0302401 -0.246162 1.2452589
2.0383101 -0.25503701 1.244583
2.0374601 -0.267288 1.244386
2.0358 -0.280321 1.244339
2.01982 -0.29995099 1.2416749
2.0027201 -0.31826901 1.237855
2.0046799 -0.221919 1.2372929
2.0073199 -0.23094101 1.2368569
2.0199699 -0.237922 1.2372149
2.0228 -0.24833 1.2376499
2.0385599 -0.252808 1.2392819
2.0397999 -0.264314 1.238241
2.0336301 -0.28116399 1.237358
2.0104799 -0.30574501 1.233277
1.9958 -0.322844 1.2301379
2.00317 -0.22227301 1.229692
2.0072999 -0.23112899 1.229769
2.01983 -0.237086 1.231339
2.0233099 -0.247218 1.231638
2.0334198 -0.25620198 1.2316229
2.02829 -0.27361 1.2301949
2.0232401 -0.289781 1.22883
2.0063901 -0.30944201 1.2261299
1.98646 -0.327874 1.223297
1.9738499 -0.224244 1.2200949
2.0019901 -0.220864 1.223488
2.00931 -0.228293 1.2237209
2.01456 -0.23814301 1.2246739
2.0273499 -0.24631201 1.225014
2.0399201 -0.25453299 1.2250929
2.03495 -0.268942 1.224337
2.0307801 -0.284022 1.2231679
2.0093501 -0.30643901 1.22014
1.98787 -0.32664698 1.2177229
1.97206 -0.223866 1.2139279
2.0013399 -0.221104 1.217175
2.0027499 -0.23145398 1.217036
2.01896 -0.236922 1.2181239
2.0310202 -0.245396 1.2182839
2.0378199 -0.254006 1.2189629
2.04017 -0.26532301 1.2185249
2.0352099 -0.28035 1.2172469
2.0146899 -0.30252099 1.214047
1.9960099 -0.32150701 1.2119859
1.96991 -0.22393499 1.2071549
2.0058601 -0.22072701 1.2106559
2.01495 -0.226799 1.212737
2.01912 -0.23614599 1.211396
2.02372 -0.246712 1.210995
2.03862 -0.252076 1.2131889
2.0427799 -0.262003 1.212799
2.0408001 -0.275765 1.2115639
2.0202901 -0.29857501 1.2079509
2.0009 -0.31902799 1.204953
1.97469 -0.22200599 1.2010189
2.00104 -0.22037001 1.2035329
2.0157099 -0.227145 1.205753
2.0194299 -0.23790199 1.2055609
2.02737 -0.245478 1.204945
2.0327401 -0.25634301 1.205366
2.0357401 -0.26853701 1.2055759
2.0321898 -0.28327501 1.2032989
2.0190699 -0.301824 1.201069
1.99735 -0.32163602 1.1974679
1.97513 -0.222295 1.194453
2.00244 -0.21936199 1.1977769
2.0074799 -0.22859 1.197343
2.0256901 -0.23530199 1.1998399
2.0308399 -0.246692 1.1990939
2.03879 -0.255088 1.19915
2.0320199 -0.270697 1.1981549
2.0332301 -0.283149 1.196605
2.0215299 -0.29943198 1.195311
2.0050399 -0.31735799 1.192014
1.97636 -0.22167601 1.187384
2.0004499 -0.22065701 1.191517
2.0086401 -0.22848 1.19021
2.0228901 -0.234881 1.192381
2.0316999 -0.243893 1.1931599
2.0365801 -0.25441 1.1928489
2.0403399 -0.26437101 1.1931419
2.0376198 -0.278568 1.191016
2.0245199 -0.29795 1.188952
2.0018699 -0.318791 1.184705
1.9712 -0.223535 1.1802119
2.0010002 -0.220735 1.184132
2.0053899 -0.230138 1.1839099
2.01968 -0.23581199 1.185128
2.0334301 -0.241227 1.187596
2.03547 -0.252657 1.186505
2.04056 -0.264943 1.18608
2.04601 -0.274634 1.186186
2.0260699 -0.29538098 1.1823419
2.0142901 -0.31214198 1.17967
1.9774001 -0.221301 1.174485
2.0025201 -0.22014299 1.1774219
2.01212 -0.227853 1.178696
2.02438 -0.23568399 1.1791019
2.0292101 -0.24472401 1.1805389
2.0393898 -0.25354901 1.1798249
2.0366099 -0.268015 1.1782759
2.04352 -0.276546 1.1799519
2.0243402 -0.29825199 1.1748589
2.0127499 -0.31338599 1.172771
1.9769599 -0.22065501 1.167343
2.00071 -0.219088 1.1715219
2.0087199 -0.22626801 1.171688
2.0184801 -0.23588499 1.1716119
2.03426 -0.24363701 1.1740719
2.04093 -0.25229901 1.174027
2.04111 -0.26352 1.1730119
2.03984 -0.27837402 1.171795
2.02826 -0.296179 1.168697
2.0172601 -0.31085199 1.167411
1.9761599 -0.22094801 1.1609039
2.0006599 -0.21946101 1.1648359
2.00948 -0.22783899 1.1649719
2.02319 -0.233429 1.1656779
2.0281599 -0.24426201 1.1656169
2.03846 -0.253934 1.167482
2.03935 -0.26708001 1.1663339
2.03879 -0.278359 1.1652719
2.03776 -0.28908598 1.164326
2.0273299 -0.30429 1.1625919
1.97921 -0.22052401 1.154954
2.00649 -0.219289 1.158839
2.0183201 -0.22569099 1.1602299
2.0213401 -0.23574699 1.159124
2.0250502 -0.246958 1.157776
2.0371499 -0.25366199 1.160201
2.0437601 -0.262685 1.1613449
2.0413401 -0.27647302 1.15976
2.0516 -0.28263599 1.160126
2.07954 -0.27669701 1.1628599
1.9763401 -0.22235 1.1478449
1.9989901 -0.22099899 1.1515069
2.01212 -0.22751801 1.1522709
2.0188601 -0.23853399 1.1519608
2.0244901 -0.247743 1.1515739
2.0316999 -0.25580201 1.152494
2.0383 -0.265986 1.153636
2.0432301 -0.276759 1.153778
2.0613298 -0.27679101 1.1558559
2.0043299 -0.220072 1.145406
2.01401 -0.22625601 1.145843
2.0211098 -0.23470199 1.145834
2.0237701 -0.245786 1.1461849
2.0272999 -0.25583401 1.1455829
2.0380499 -0.26353002 1.1465909
2.0444801 -0.273303 1.147169
1.99257 -0.225016 1.1358089
2.01106 -0.22754101 1.1385499
2.0162601 -0.237322 1.138549
2.0285699 -0.24434601 1.140041
2.0414901 -0.25207898 1.141786
2.0446999 -0.26326299 1.1402689
2.0440099 -0.27502501 1.139069
2.0839901 -0.26823798 1.1431379
1.96646 -0.22783899 1.12638
1.9958701 -0.22428 1.130141
2.0166001 -0.22496599 1.1331549
2.01916 -0.23591101 1.132533
2.02967 -0.24413799 1.1334929
2.03526 -0.254682 1.1334149
2.04387 -0.263924 1.1332849
2.0499401 -0.27272201 1.1340519
2.0759599 -0.27084699 1.1382589
2.0787399 -0.27827001 1.1374539
2.0013499 -0.222286 1.1243759
2.0135 -0.226191 1.1262879
2.0178399 -0.235679 1.125181
2.02755 -0.24501301 1.126171
2.03373 -0.25569999 1.1261209
2.0409598 -0.26327199 1.127522
2.0475199 -0.27242202 1.1270399
2.0602901 -0.277522 1.129656
2.04284 -0.29437301 1.123719
2.10501 -0.319924 1.128094
2.00982 -0.219576 1.1193109
2.0134301 -0.227687 1.1195329
2.01686 -0.23782499 1.1183009
2.03146 -0.24294001 1.120497
2.0330901 -0.25390399 1.1195689
2.04023 -0.263805 1.121128
2.0483999 -0.27143201 1.1204019
2.0534399 -0.28059798 1.120971
2.0155599 -0.31393299 1.108425
2.0796099 -0.32600603 1.119292
2.09342 -0.32547402 1.121626
2.0880001 -0.335738 1.119893
2.00454 -0.22165801 1.1113529
2.0119901 -0.227945 1.112083
2.0132101 -0.23858801 1.1113579
2.0229499 -0.246145 1.112556
2.0301299 -0.25521901 1.112255
2.04229 -0.26245099 1.1143609
2.04756 -0.27409801 1.1133389
2.0376 -0.292849 1.110024
2.01809 -0.312751 1.1047779
2.0095201 -0.32478499 1.1020269
2.0915601 -0.31660402 1.116689
2.0968599 -0.32177201 1.1177649
2.0067 -0.220663 1.105078
2.01337 -0.22673401 1.105698
2.0214701 -0.23515899 1.1063119
2.02789 -0.24657601 1.1066769
2.0390999 -0.25358498 1.108416
2.0414801 -0.26460999 1.1067389
2.05511 -0.26986799 1.108596
2.04217 -0.28761601 1.105032
2.0278001 -0.307338 1.101162
2.05165 -0.30850101 1.1030699
2.07956 -0.30855501 1.108107
2.0894501 -0.314109 1.110184
2.0176899 -0.22446899 1.0998579
2.0157001 -0.237737 1.0977589
2.0280399 -0.244527 1.100101
2.03655 -0.25358599 1.1016899
2.0420399 -0.262081 1.100287
2.05686 -0.268828 1.1024209
2.04263 -0.28997299 1.098604
2.0353701 -0.30487901 1.0961769
2.0777099 -0.29748899 1.102955
2.07267 -0.31116802 1.101122
2.0673301 -0.32268602 1.0993049
2.0200901 -0.221312 1.0934329
2.01776 -0.23424801 1.092194
2.0263901 -0.24294701 1.093195
2.0366299 -0.251717 1.094641
2.0506399 -0.258863 1.095665
2.0603499 -0.26703 1.095795
2.0492301 -0.28433502 1.0939339
2.05165 -0.296399 1.09324
2.07776 -0.29622298 1.097096
2.06639 -0.31234601 1.094088
2.0229299 -0.234588 1.0873709
2.0470901 -0.24804801 1.089731
2.0547199 -0.25721499 1.0897679
2.06481 -0.26515099 1.089947
2.06041 -0.279587 1.089939
2.0699601 -0.28777599 1.09024
2.07041 -0.29811701 1.0890989
2.0402498 -0.238719 1.0830369
2.0490198 -0.24723101 1.0834509
2.0620501 -0.253833 1.08474
2.0662 -0.264541 1.0835789
2.0683298 -0.27643901 1.0846199
2.0699 -0.287651 1.084026
2.0624599 -0.29929799 1.080994
1.97509 -0.36045799 1.0544229
2.0470901 -0.235697 1.077884
2.0569601 -0.24400601 1.0785799
2.06461 -0.25334999 1.078324
2.06425 -0.26610801 1.0770149
2.0704801 -0.27344599 1.078859
2.07078 -0.28431901 1.077839
1.9974099 -0.34143698 1.055426
1.97883 -0.35829398 1.0506899
2.0581701 -0.23121099 1.0732889
2.0623701 -0.24227801 1.0735699
2.0685201 -0.24974801 1.0730549
2.0748301 -0.259069 1.07336
2.0643899 -0.27675501 1.0709729
2.0597799 -0.29076299 1.066465
2.0079601 -0.33613601 1.051847
1.98912 -0.35494301 1.0469539
1.96209 -0.38561901 1.0347439
2.0651901 -0.22694701 1.0682269
2.0710599 -0.23684999 1.06889
2.075 -0.24776699 1.0689139
2.07656 -0.257525 1.067349
2.0671301 -0.274941 1.0641199
2.05668 -0.29410601 1.0584799
2.0295599 -0.32115898 1.0511509
2.0102799 -0.34437802 1.0452579
1.98663 -0.370107 1.037186
1.9727401 -0.39003399 1.031179
2.02965 -0.22218001 1.055775
2.0631301 -0.219027 1.0627999
2.0723901 -0.22536801 1.064183
2.07864 -0.232528 1.0638579
2.0753901 -0.24664301 1.0625139
2.07726 -0.258984 1.0611429
2.06724 -0.27748099 1.0563979
2.0550699 -0.29625499 1.051653
2.0450699 -0.31302601 1.048466
2.0248399 -0.336184 1.042262
2.0046799 -0.35982499 1.035589
1.99105 -0.38006601 1.030383
1.9876 -0.39270002 1.027717
1.9926 -0.399441 1.0268689
2.03231 -0.22184901 1.0495811
2.0569501 -0.219531 1.055338
2.0710099 -0.22481701 1.0570799
2.07373 -0.23682301 1.05624
2.0760801 -0.248812 1.0554509
2.0761001 -0.261522 1.0539
2.0701699 -0.275911 1.050524
2.0669 -0.28920799 1.04869
2.0527999 -0.308979 1.043838
2.0353999 -0.330773 1.0381099
2.0097201 -0.35608003 1.030601
2.0016999 -0.373124 1.026583
1.99222 -0.389911 1.0226649
2.0585899 -0.21972901 1.0483919
2.0761399 -0.22172099 1.0520999
2.07932 -0.23075099 1.051688
2.0764399 -0.24471901 1.049209
2.07724 -0.25780001 1.047626
2.0824099 -0.26746401 1.048391
2.07583 -0.28317699 1.0443389
2.0677001 -0.30076501 1.040998
2.0490601 -0.32325801 1.034904
2.0203102 -0.35219502 1.0266739
1.9936 -0.37962002 1.0182219
1.9943401 -0.388441 1.017251
2.0308599 -0.222782 1.03429
2.05181 -0.22287001 1.039292
2.06531 -0.226979 1.0434349
2.0671499 -0.23826599 1.041683
2.0662699 -0.25205299 1.039289
2.0699499 -0.26183701 1.0394839
2.0739501 -0.27217302 1.039106
2.07795 -0.282823 1.038555
2.0779901 -0.294958 1.036671
2.0683601 -0.312076 1.033626
2.04338 -0.335556 1.0266939
1.99461 -0.37853 1.0136809
2.02475 -0.2245 1.026685
2.0273101 -0.232197 1.026227
2.0476999 -0.235613 1.031423
2.0542099 -0.246608 1.0309119
2.05796 -0.25677201 1.030445
2.06692 -0.26357201 1.032831
2.06602 -0.27599502 1.02938
2.07322 -0.28612 1.0306569
2.0789101 -0.29609501 1.030044
2.0842299 -0.30319402 1.031145
2.0673699 -0.32147202 1.0275749
2.0155299 -0.228706 1.0174129
2.01946 -0.23625499 1.0174519
2.02894 -0.241879 1.020008
2.0383401 -0.25042298 1.020118
2.04755 -0.26013902 1.0213439
2.05761 -0.26773599 1.023647
2.05409 -0.280927 1.0197749
2.0606101 -0.290207 1.019926
2.0689499 -0.29932699 1.021367
2.0913401 -0.29857701 1.0268669
2.0993299 -0.30224299 1.027874
2.00613 -0.23267999 1.0073029
2.0123398 -0.23925801 1.009069
2.02964 -0.242452 1.013634
2.0339 -0.25229901 1.0118779
2.0408201 -0.261704 1.0122889
2.0514998 -0.27076501 1.0148209
2.0560501 -0.281488 1.014388
2.0546 -0.29256099 1.0116429
2.0619099 -0.30067199 1.012661
2.0759599 -0.30484101 1.0158429
2.0090699 -0.23039401 1.001321
2.0103102 -0.23924901 1.001387
2.02806 -0.24398701 1.005806
2.0334899 -0.25512099 1.005154
2.0481701 -0.259027 1.0079269
2.0462101 -0.270789 1.006359
2.05353 -0.281151 1.007198
2.05474 -0.293504 1.0052199
2.05443 -0.30599701 1.0035119
2.04755 -0.31917 0.99934596
2.0106699 -0.22920001 0.99599594
2.0125899 -0.236764 0.99540192
2.0167799 -0.24700899 0.99501592
2.0357101 -0.25129998 1.0000449
2.04245 -0.261729 0.99979192
2.0495701 -0.27182999 1.000971
2.05352 -0.282024 0.99997497
2.0492599 -0.29688901 0.99669492
2.0498099 -0.308451 0.99501193
2.03212 -0.32650799 0.98778898
2.00897 -0.23052299 0.98945397
2.01442 -0.237764 0.98852694
2.01929 -0.246831 0.98889595
2.03388 -0.25216201 0.99220198
2.0401199 -0.26324698 0.99115396
2.0492599 -0.271438 0.99433899
2.0490899 -0.284042 0.99180597
2.05145 -0.29572999 0.99045789
2.0365801 -0.31468901 0.98433495
2.0274899 -0.32810602 0.98027301
2.0113299 -0.22988801 0.98318595
2.0176101 -0.23544399 0.98250288
2.0231199 -0.24546601 0.98301798
2.03667 -0.253315 0.98537195
2.0407801 -0.263715 0.98446792
2.0482099 -0.27184799 0.98693496
2.04847 -0.284475 0.98462892
2.04474 -0.29897699 0.98163694
2.03666 -0.31320801 0.97751999
2.0149801 -0.228227 0.977323
2.0178699 -0.23668501 0.97538298
2.0275102 -0.244553 0.97685897
2.0305901 -0.253602 0.97769493
2.04179 -0.26049298 0.97911191
2.0456901 -0.27279601 0.97840995
2.0458 -0.28676599 0.97714293
2.046 -0.29806399 0.97495192
2.0339301 -0.31371501 0.96904695
1.92123 -0.247777 0.93898797
2.01085 -0.23024799 0.96893996
2.0107801 -0.23891701 0.96591997
2.0213299 -0.24582599 0.96855998
2.03262 -0.25388801 0.971156
2.0429201 -0.26205701 0.97272992
2.04702 -0.27124399 0.97146696
2.04619 -0.28546301 0.96979797
2.04649 -0.29812801 0.96823591
2.0320899 -0.31398299 0.96238399
1.90408 -0.24783501 0.92974591
1.9212101 -0.24788201 0.93387794
2.00651 -0.23182501 0.96046096
2.00669 -0.24063401 0.95760393
2.01562 -0.246858 0.96050292
2.0271401 -0.25414801 0.96245193
2.04285 -0.26147899 0.96535295
2.0429699 -0.27487698 0.96376097
2.0483902 -0.283849 0.96264696
2.0495799 -0.29425201 0.96308595
2.0328 -0.31227601 0.956765
1.9204601 -0.24015599 0.92869997
1.93032 -0.243248 0.93095797
2.0065601 -0.23188999 0.95320791
2.0053799 -0.241294 0.94996399
2.0180199 -0.24778 0.95383501
2.03896 -0.25235799 0.95864195
2.0427902 -0.26190299 0.95830894
2.0457001 -0.27261299 0.9575389
2.05336 -0.28103 0.95810789
2.05071 -0.29344699 0.95567596
1.9172 -0.22977699 0.92020297
1.91794 -0.23841299 0.92018801
1.9346601 -0.240107 0.92506498
2.0075102 -0.23115601 0.94602603
1.9981101 -0.24376601 0.94155902
2.0152001 -0.24698099 0.94532591
2.02513 -0.25655299 0.94729996
2.0389299 -0.26395202 0.95051497
2.0446601 -0.272861 0.95073092
2.0487299 -0.282621 0.95038092
2.0453799 -0.297012 0.94559097
2.0318401 -0.31434602 0.93950999
1.91457 -0.23028798 0.91400301
1.92531 -0.23441701 0.91602892
1.93694 -0.23897199 0.91746598
2.00576 -0.23129299 0.93888593
2.0090899 -0.23843399 0.93883795
2.0095501 -0.248951 0.936288
2.0232899 -0.255178 0.93957794
2.0357299 -0.26366699 0.94190794
2.0463901 -0.27179599 0.94524896
2.0453999 -0.28481999 0.94184196
2.0485601 -0.29475099 0.94013792
2.0325501 -0.314208 0.93329394
2.02088 -0.33049402 0.92724591
1.9201199 -0.199242 0.90830594
1.92574 -0.207802 0.909693
1.92434 -0.223131 0.90971595
1.92765 -0.233979 0.90890396
1.9474499 -0.237745 0.91284502
2.0009398 -0.23261699 0.93111694
2.0033998 -0.24105601 0.92957795
2.0089998 -0.25169098 0.92867297
2.0325999 -0.25470901 0.93531299
2.0357401 -0.265257 0.93452394
2.0447302 -0.27256399 0.93748796
2.0466001 -0.28414601 0.93522489
2.0407 -0.300044 0.93085802
2.0274699 -0.319464 0.92401397
2.01331 -0.33585 0.918284
1.9330001 -0.186074 0.90839094
1.92431 -0.198421 0.90438193
1.92125 -0.211927 0.90305895
1.92858 -0.22180401 0.90330797
1.9390199 -0.23074301 0.90508389
1.9548801 -0.236656 0.9084509
1.9891901 -0.234735 0.92008394
2.00036 -0.24247999 0.92119598
2.00563 -0.25273702 0.91987795
2.0302901 -0.25435498 0.92776293
2.0397799 -0.26160401 0.93019998
2.04143 -0.27354401 0.92900091
2.0414999 -0.28727302 0.92619687
2.0410202 -0.301615 0.92303193
2.027 -0.320499 0.91665792
2.0160699 -0.33486998 0.91287893
1.9256901 -0.187603 0.89953798
1.9257001 -0.196742 0.89859796
1.92655 -0.20868701 0.89737695
1.9215 -0.223157 0.894247
1.93004 -0.23093399 0.89553994
1.93802 -0.239645 0.89653796
1.98684 -0.23676901 0.91118503
1.99498 -0.24590901 0.91233492
2.0050001 -0.25315499 0.91250992
2.0253501 -0.256019 0.91894591
2.0389102 -0.26311198 0.92279595
2.03846 -0.276921 0.92057097
2.0420198 -0.287642 0.91857994
2.0431499 -0.29966399 0.91673392
2.0341902 -0.315409 0.91258395
2.02179 -0.33114499 0.90785402
1.9356799 -0.180843 0.89526486
1.9260601 -0.19521999 0.89166397
1.9238299 -0.208977 0.88846797
1.9302499 -0.219669 0.89087397
1.93467 -0.230709 0.88999295
1.95152 -0.237316 0.89436799
1.9920599 -0.23481101 0.90471101
1.99888 -0.244049 0.90639395
2.0037398 -0.25451902 0.90521097
2.0254202 -0.25596601 0.9120459
2.0372 -0.26212499 0.91554797
2.0414701 -0.273866 0.91426301
2.05143 -0.28130099 0.91565794
2.0517101 -0.292355 0.91383898
2.0429101 -0.309412 0.90871596
2.0276899 -0.32773301 0.90196395
1.95021 -0.16555999 0.89458692
1.9338499 -0.18045601 0.88809198
1.9291701 -0.19362101 0.88514102
1.92147 -0.20825 0.88142896
1.9223599 -0.22283702 0.88170195
1.9161501 -0.237554 0.87817597
1.94103 -0.23783399 0.88578492
2.00507 -0.229049 0.90107191
2.00035 -0.241815 0.89930695
2.0062101 -0.252103 0.89977801
2.0230999 -0.25730601 0.90420294
2.0345299 -0.26409999 0.90760392
2.0381701 -0.27436301 0.90570188
2.0474999 -0.28270799 0.90759295
2.04758 -0.29695699 0.90444398
2.0420501 -0.31244698 0.9009909
2.0269701 -0.32916099 0.89436799
1.9373801 -0.168522 0.88329297
1.93582 -0.17856701 0.88187999
1.9122701 -0.19836399 0.87309396
1.98665 -0.227961 0.88910997
2.0051401 -0.227878 0.89553696
2.0047801 -0.23766001 0.89419693
2.00741 -0.24988399 0.8927449
2.02073 -0.257379 0.89627296
2.03475 -0.26477802 0.89983094
2.0448 -0.27332699 0.90144998
2.04654 -0.28499001 0.89913195
2.0497999 -0.295248 0.89853698
2.0467701 -0.30785802 0.89541495
2.02999 -0.32688302 0.88877594
1.93679 -0.157667 0.87703997
1.94275 -0.163923 0.87843996
1.9307801 -0.178343 0.87402099
1.99094 -0.225577 0.88370699
2.0001299 -0.230106 0.88776594
2.00579 -0.239196 0.88716197
2.00508 -0.25258401 0.88376999
2.01847 -0.25720501 0.88877791
2.0264001 -0.26629299 0.88956594
2.0472999 -0.27138001 0.89483202
2.0415699 -0.28635401 0.89093894
2.04722 -0.29547 0.89120895
2.05075 -0.30572501 0.88939303
2.03408 -0.32411999 0.88225394
1.9423399 -0.143107 0.87180388
1.9458299 -0.15101901 0.87331194
1.9442199 -0.160653 0.87276995
1.9882801 -0.22572799 0.87538391
2.0025201 -0.22967501 0.88077193
2.01019 -0.23929301 0.88103294
1.99869 -0.256459 0.87434596
2.01987 -0.25875798 0.88161588
2.03529 -0.265692 0.88470793
2.0455999 -0.27341899 0.886338
2.0478899 -0.283548 0.886944
2.0504899 -0.295443 0.88433295
2.0490301 -0.308413 0.881859
2.03637 -0.323787 0.87574995
1.9467399 -0.14120799 0.86812097
1.9601899 -0.143581 0.87181693
1.98862 -0.22516 0.86889189
1.9992599 -0.22939199 0.87166494
2.01053 -0.235745 0.87534696
2.0000401 -0.25354201 0.86824495
2.0153201 -0.25915301 0.87311196
2.0289299 -0.26592299 0.87530088
2.0385799 -0.274997 0.87705493
2.0506001 -0.282671 0.88024402
2.05651 -0.29129201 0.88006502
2.05316 -0.303698 0.87686098
2.04 -0.32088402 0.86982501
1.9583701 -0.13571499 0.86529189
1.95727 -0.14253101 0.86246794
1.9949601 -0.22255599 0.86440396
2.0035601 -0.227514 0.86651397
2.0070601 -0.23691 0.86644793
1.9989101 -0.25459298 0.85947096
2.0153701 -0.26052001 0.86550492
2.03298 -0.264388 0.870067
2.03971 -0.27261201 0.87030792
2.0456901 -0.28239799 0.87182802
2.05233 -0.292189 0.87208098
2.05387 -0.303978 0.86973691
2.0412199 -0.32007098 0.86205292
1.9461 -0.129547 0.85223889
1.96018 -0.13275799 0.85735494
1.96123 -0.139944 0.857063
1.98095 -0.22844401 0.85186094
2.00103 -0.22879101 0.85877591
2.00546 -0.23891 0.85783392
1.9981599 -0.25477502 0.85165387
2.0099299 -0.262384 0.85569793
2.0241799 -0.26842698 0.86031199
2.0316999 -0.27665299 0.85974991
2.0490899 -0.28135201 0.86541694
2.0527499 -0.29355201 0.86428797
2.0504899 -0.306418 0.86091292
2.04076 -0.320364 0.85429293
1.9549401 -0.12610501 0.84999299
1.9703599 -0.128334 0.85407591
1.96459 -0.138523 0.85125089
1.98444 -0.22786599 0.84583694
2.00069 -0.230349 0.85132599
2.00213 -0.24109301 0.84898698
1.99949 -0.254803 0.84483093
2.0062199 -0.262961 0.84739596
2.02619 -0.26737201 0.8529309
2.0469599 -0.27208701 0.85842794
2.05144 -0.28343099 0.85837996
2.0557799 -0.29340899 0.85869402
2.0490999 -0.30702499 0.85328096
2.04072 -0.32027599 0.84692794
1.96856 -0.12116 0.84775496
1.9697 -0.12893 0.84713697
1.96 -0.14017101 0.84266299
1.97427 -0.23253599 0.83447397
1.99783 -0.231875 0.84252691
2.00261 -0.24220301 0.84157789
1.9943601 -0.25795099 0.83573794
2.0107801 -0.26277199 0.84149396
2.0280099 -0.26656401 0.846371
2.0371799 -0.273635 0.84788394
2.0518899 -0.28072202 0.85102797
2.0557499 -0.29218701 0.85199893
2.0499101 -0.306665 0.84636897
2.0423598 -0.31964898 0.84035295
1.96666 -0.12088899 0.84005195
1.9712199 -0.126743 0.84086496
1.97995 -0.13166501 0.843826
1.99877 -0.230818 0.83607793
2.0042701 -0.23886499 0.83527893
1.99928 -0.25327599 0.83186889
2.0054801 -0.26324901 0.83151698
2.0311501 -0.265542 0.84040499
2.04456 -0.27326199 0.84282196
2.0536001 -0.28122401 0.84401697
2.05686 -0.29192698 0.84450501
2.0482299 -0.308303 0.838557
2.0454299 -0.318234 0.83442289
1.9735899 -0.117613 0.83611596
1.9733 -0.124602 0.83437502
2.0019 -0.231102 0.82934594
2.0102401 -0.236754 0.82987791
2.0041099 -0.251421 0.825804
1.99972 -0.26599702 0.82191586
2.0260699 -0.26528001 0.83098596
2.03776 -0.27379 0.83295494
2.0495901 -0.28162399 0.83594793
2.05532 -0.29075801 0.83686996
2.05424 -0.30416098 0.83357894
2.04055 -0.32060298 0.82595795
1.9480001 -0.115759 0.81760591
1.9731899 -0.115906 0.82775497
1.97454 -0.123004 0.82652891
2.0060999 -0.230492 0.82276696
2.0104601 -0.237911 0.82330793
2.0035801 -0.25136 0.81784391
2.0061998 -0.263592 0.817213
2.0317299 -0.26528701 0.82608992
2.03686 -0.27454701 0.82457995
2.04865 -0.280545 0.82884097
2.0536599 -0.292027 0.82809198
2.0569 -0.303298 0.82662797
2.05196 -0.31468201 0.82433593
1.96539 -0.110186 0.81987089
1.9702001 -0.116572 0.82061195
1.97369 -0.123145 0.8206659
2.00633 -0.23007601 0.81528497
2.0111001 -0.23738399 0.8158229
2.00193 -0.253793 0.81016189
2.00351 -0.265398 0.807428
2.0269599 -0.26690599 0.81705993
2.0314701 -0.276546 0.81549895
2.0450399 -0.28333101 0.81922197
2.0486999 -0.29440999 0.81846792
2.05794 -0.30108899 0.81998199
2.05689 -0.31136701 0.81905693
1.9452499 -0.117092 0.80699098
1.97744 -0.12194701 0.81755692
2.0059299 -0.23038799 0.80768496
2.0145299 -0.23537099 0.81011891
2.0007401 -0.25326401 0.80178994
2.0021501 -0.26661599 0.799142
2.0286 -0.266974 0.80985993
2.04509 -0.271759 0.81489491
2.04775 -0.28121299 0.81294596
2.0529499 -0.29188001 0.81292498
2.0578201 -0.301368 0.81300294
2.0608799 -0.30857 0.81267703
2.0032499 -0.23099701 0.79858398
2.0132499 -0.235698 0.80289489
2.00441 -0.249855 0.79577589
2.00051 -0.265109 0.79131097
2.02384 -0.26821101 0.80019099
2.0408399 -0.27288699 0.80654299
2.0451701 -0.28311101 0.8047049
2.05005 -0.29274201 0.80393392
2.05844 -0.300457 0.80636996
2.0592399 -0.30959699 0.80346596
2.0052001 -0.229776 0.79232389
2.0127299 -0.235421 0.79479098
2.0051401 -0.25076699 0.78860891
1.99681 -0.26707 0.78147596
2.0202498 -0.26940301 0.79087591
2.0406501 -0.273022 0.79890597
2.0462399 -0.28410199 0.79704893
2.05707 -0.29139701 0.80049896
2.0576899 -0.30215499 0.79794097
2.0551 -0.31281999 0.79381394
2.01056 -0.22819099 0.78745794
2.0130701 -0.236656 0.78770888
2.00419 -0.251414 0.7807669
1.99617 -0.26635399 0.77416795
2.0186701 -0.269099 0.78270197
2.0362 -0.275489 0.78857797
2.0468202 -0.28332099 0.78959394
2.0562699 -0.29176 0.79237396
2.0575101 -0.30334899 0.79019094
2.0563099 -0.31254399 0.78796393
2.0095701 -0.228229 0.77857894
2.01509 -0.23519899 0.78126889
2.0027499 -0.25213102 0.77255893
1.98965 -0.27023 0.76395392
1.9686099 -0.288573 0.75065494
2.0229201 -0.28134599 0.77555102
2.04076 -0.28393802 0.78067696
2.05477 -0.28902799 0.78450394
2.06111 -0.29872298 0.78445792
2.0639 -0.30770001 0.78491998
2.0069299 -0.22905301 0.77018392
2.01403 -0.23511499 0.77212596
2.00034 -0.25496998 0.76379198
1.9776801 -0.276669 0.75138497
1.9576601 -0.29380199 0.73937994
2.0262001 -0.28360701 0.76800191
2.04719 -0.283176 0.77638292
2.0538599 -0.29108101 0.77629197
2.05428 -0.302239 0.77338898
2.06177 -0.30775499 0.77570999
2.0108099 -0.227715 0.76465392
2.02283 -0.230203 0.76901698
2.0125101 -0.243393 0.76248091
1.97338 -0.27922899 0.74339795
1.9567101 -0.29503098 0.73338592
2.02899 -0.28281298 0.76059496
2.0460899 -0.28395301 0.76862198
2.0508201 -0.293439 0.76692289
2.0606799 -0.30032501 0.76980191
2.0618699 -0.30802098 0.76740193
2.00875 -0.228765 0.75523996
2.0206199 -0.23123699 0.76112592
2.0151 -0.24170299 0.75555497
1.9708501 -0.28091601 0.73666793
2.02753 -0.283456 0.75184393
2.0437801 -0.28458402 0.75973696
2.05107 -0.29176101 0.75974494
2.05864 -0.30024901 0.76131594
2.06358 -0.30737698 0.76027793
2.0034499 -0.23000799 0.7449649
2.0221 -0.230546 0.75348395
2.0119901 -0.24329799 0.74675488
2.0252001 -0.28444901 0.742733
2.05006 -0.282208 0.75446898
2.0603499 -0.289305 0.75721896
2.0649002 -0.298141 0.75588095
2.0590601 -0.30996501 0.75113893
2.00705 -0.227714 0.74014395
2.01928 -0.230297 0.74468595
2.0187199 -0.239226 0.74321991
2.02179 -0.284951 0.73366493
2.0483298 -0.28162801 0.74563098
2.0599201 -0.28893101 0.74944901
2.06019 -0.29991099 0.74667692
2.0698199 -0.30360299 0.74923491
2.00687 -0.228173 0.73437995
2.02371 -0.22891501 0.74093193
2.0083001 -0.24385901 0.73216796
2.0185401 -0.28599301 0.72658098
2.04528 -0.28150401 0.73743594
2.0615699 -0.28479999 0.74277389
2.06792 -0.29455 0.74349296
2.0706899 -0.30276099 0.74127597
2.0060699 -0.22924601 0.72869897
2.0202799 -0.28474399 0.72260797
2.05638 -0.27778199 0.73408294
2.06622 -0.284756 0.73691195
2.0704501 -0.29438999 0.73620588
2.06778 -0.305029 0.731736
2.03388 -0.27816498 0.71613592
2.0592 -0.27719101 0.72737002
2.07041 -0.28414699 0.73148191
2.0676899 -0.29630101 0.72666991
2.0691001 -0.30437002 0.72554398
2.0048199 -0.24134701 0.70106894
2.0311501 -0.26643199 0.70914894
2.0453901 -0.27176601 0.71541697
2.0588601 -0.275996 0.72039396
2.0612299 -0.287065 0.71889693
2.06845 -0.295302 0.71993589
2.07177 -0.30254599 0.71970195
2.0187399 -0.235093 0.70276499
2.0103102 -0.24760701 0.69718897
2.0130498 -0.26019698 0.69566399
2.02636 -0.26614201 0.70087898
2.0380001 -0.27175599 0.70498794
2.0562 -0.27607098 0.712129
2.06106 -0.285741 0.71094996
2.06457 -0.29681399 0.7101959
2.06545 -0.306355 0.70868492
2.0178199 -0.235847 0.69695592
2.01425 -0.24610001 0.69352496
2.0088799 -0.26132798 0.68717694
2.0311301 -0.26450199 0.69629997
2.04879 -0.26963601 0.70254493
2.06059 -0.275888 0.70651597
2.06178 -0.28697398 0.70360792
2.0630999 -0.298482 0.70032591
2.07039 -0.30479202 0.70290297
2.0009699 -0.24352801 0.68332595
2.00161 -0.252428 0.68151993
2.0316801 -0.264368 0.68940091
2.04443 -0.26983401 0.692931
2.0561302 -0.277749 0.69621193
2.06358 -0.28757501 0.69656098
2.0726099 -0.293888 0.698753
2.07143 -0.30498898 0.6951319
2.0649002 -0.31767598 0.69006997
2.00243 -0.28274599 0.66316092
2.02406 -0.27923799 0.67481595
2.0469701 -0.27867499 0.68411094
2.06108 -0.285478 0.68782789
