# .PCD v0.7 - Point Cloud Data file format
VERSION 0.7
FIELDS x y z
SIZE 4 4 4
TYPE F F F
COUNT 1 1 1
WIDTH 1611
HEIGHT 1
VIEWPOINT 0 0 0 1 0 0 0
POINTS 1611
DATA ascii
1.54821 -0.54930502 1.4920599
1.55179 -0.56333804 1.489423
1.55882 -0.57750702 1.4786321
1.5662199 -0.59206504 1.4787359
1.5872999 -0.61192101 1.476853
1.60832 -0.62869704 1.473219
1.61834 -0.45076698 1.485278
1.6371601 -0.45899102 1.479314
1.6060801 -0.45914599 1.480368
1.6038699 -0.45762798 1.492838
1.5765401 -0.45842302 1.483375
1.58963 -0.463025 1.495847
1.52869 -0.47864699 1.488788
1.5365601 -0.49369499 1.4899111
1.53966 -0.50809103 1.4878081
1.5431399 -0.52196699 1.4840269
1.5444 -0.53540701 1.4835471
1.5473199 -0.54831797 1.4798629
1.54053 -0.55868101 1.4804379
1.5847099 -0.61185503 1.4774201
1.5855299 -0.62071699 1.4637899
1.64349 -0.45314601 1.471011
1.652 -0.457715 1.460508
1.6114399 -0.44784999 1.476321
1.5885299 -0.452618 1.479015
1.57182 -0.455587 1.4783729
1.5369099 -0.48199299 1.4810311
1.538 -0.49390203 1.4821761
1.5433201 -0.50912201 1.478134
1.5438 -0.521815 1.4776829
1.54054 -0.53338504 1.48041
1.5400701 -0.54562098 1.472581
1.5214 -0.55122101 1.471313
1.51976 -0.56486803 1.490618
1.5086 -0.57396197 1.480716
1.5136701 -0.56307399 1.4881599
1.5924801 -0.44032601 1.470415
1.5728199 -0.44386199 1.4746209
1.5544299 -0.44913399 1.4759461
1.53356 -0.48055303 1.476277
1.5431501 -0.496986 1.4713299
1.54522 -0.50965899 1.4711951
1.54365 -0.52108699 1.4735711
1.5396 -0.53290904 1.471417
1.5323501 -0.54245901 1.4674749
1.52084 -0.54949498 1.4669549
1.5098801 -0.55994803 1.47997
1.57016 -0.42851299 1.473454
1.56042 -0.436827 1.473479
1.55202 -0.44832802 1.4679201
1.55088 -0.45571098 1.482623
1.5376899 -0.48099801 1.4673669
1.53996 -0.49365601 1.4688319
1.54355 -0.508228 1.465016
1.54371 -0.52125001 1.4632739
1.5406599 -0.532583 1.4614559
1.53283 -0.542472 1.464211
1.51987 -0.54971904 1.45875
1.55258 -0.41814998 1.474622
1.55099 -0.43207002 1.467283
1.5504401 -0.44653198 1.4623539
1.54559 -0.458186 1.4617341
1.5390601 -0.46761501 1.464011
1.5425501 -0.48179999 1.46517
1.5437199 -0.49611402 1.457253
1.54348 -0.50759202 1.459695
1.5419 -0.52028 1.457635
1.53945 -0.53185201 1.4578729
1.53054 -0.54130602 1.452131
1.53302 -0.423926 1.464896
1.54313 -0.44705701 1.455022
1.54491 -0.45715699 1.4575191
1.54488 -0.46972698 1.455132
1.5458599 -0.48290199 1.455029
1.5457699 -0.49610999 1.452332
1.54293 -0.50732201 1.453717
1.54116 -0.51958901 1.454337
1.53959 -0.53145003 1.451251
1.5338 -0.54197603 1.451367
1.50985 -0.55984199 1.4572611
1.5264101 -0.42314702 1.460856
1.5314101 -0.439987 1.452724
1.5446899 -0.46949798 1.4501289
1.5208 -0.43200502 1.4513519
1.55822 -0.55983198 1.4986169
1.55775 -0.57199502 1.4978211
1.61551 -0.654558 1.488746
1.62009 -0.65702903 1.495784
1.61157 -0.640818 1.4777369
1.61457 -0.66557902 1.4773309
1.5248899 -0.49702999 1.497883
1.54853 -0.53029001 1.4987601
1.56007 -0.57165998 1.4914639
1.61867 -0.64438796 1.475018
1.6155901 -0.65419298 1.480148
1.52922 -0.49604699 1.494522
1.53605 -0.51154798 1.495266
1.54221 -0.52578998 1.496616
1.54242 -0.53779101 1.4982589
1.5464599 -0.553096 1.494128
1.5578799 -0.57033998 1.4895599
1.60974 -0.63997799 1.4696001
1.61274 -0.65258795 1.469606
1.6136501 -0.66416001 1.465991
1.6384599 -0.46221599 1.4867619
1.65157 -0.46574298 1.481113
1.6259599 -0.467305 1.4831171
1.6222099 -0.469924 1.4840131
1.6047701 -0.46987203 1.490665
1.60343 -0.46664602 1.488332
1.58866 -0.47170898 1.4904699
1.51773 -0.47491902 1.4993471
1.5332 -0.49798697 1.4879241
1.5377699 -0.51243401 1.4897121
1.5430599 -0.52748197 1.486428
1.54522 -0.540277 1.485947
1.5493699 -0.55395103 1.487781
1.5563201 -0.57022595 1.479817
1.61386 -0.64135903 1.4693919
1.6091901 -0.65098 1.4650741
1.6091299 -0.66225195 1.462703
1.65784 -0.46303099 1.472749
1.6470399 -0.463871 1.4762449
1.6148599 -0.45848802 1.4830251
1.59035 -0.45973098 1.4842731
1.5624001 -0.460803 1.48332
1.51422 -0.472626 1.493029
1.5265199 -0.49439898 1.481516
1.5355099 -0.50986099 1.484144
1.5398899 -0.52544802 1.48069
1.54591 -0.53916198 1.480785
1.55138 -0.55374599 1.4804981
1.5516 -0.5686 1.470469
1.6212699 -0.45220602 1.4717889
1.5982801 -0.45169699 1.4763169
1.5699699 -0.450766 1.4781531
1.5549201 -0.455558 1.479594
1.55448 -0.46266201 1.4907539
1.5077499 -0.46933499 1.486071
1.5285699 -0.49532101 1.474985
1.5383 -0.512151 1.474624
1.53968 -0.52337599 1.4791991
1.54194 -0.53575498 1.4788871
1.55225 -0.55417001 1.472623
1.56801 -0.43410701 1.476048
1.57652 -0.426608 1.4738001
1.5570301 -0.44100398 1.475795
1.5518299 -0.45355302 1.475836
1.5256799 -0.45537999 1.473793
1.50041 -0.44918498 1.4966279
1.50353 -0.44623199 1.496837
1.50261 -0.46524501 1.4845951
1.51407 -0.489647 1.467248
1.53105 -0.50865901 1.468112
1.53877 -0.52320802 1.470837
1.54143 -0.53661901 1.469139
1.54861 -0.551947 1.470755
1.5498101 -0.42259499 1.4722619
1.54993 -0.44047299 1.470116
1.54173 -0.44885501 1.4681309
1.53202 -0.45531899 1.4715781
1.5222701 -0.46124101 1.475554
1.51174 -0.46854302 1.4779711
1.5167199 -0.492428 1.4582919
1.5368299 -0.51089197 1.463336
1.5397501 -0.52329201 1.4642689
1.54237 -0.536632 1.4641969
1.54494 -0.55117297 1.459396
1.5398599 -0.41305301 1.4767461
1.5354899 -0.432116 1.4633549
1.5320799 -0.44279802 1.461447
1.53308 -0.45724702 1.462271
1.5262101 -0.46641898 1.463517
1.5205799 -0.475126 1.464807
1.53485 -0.4971 1.456774
1.53616 -0.50986999 1.456372
1.5393201 -0.52243501 1.4583031
1.5417501 -0.53512102 1.4596311
1.51709 -0.41839802 1.462823
1.51243 -0.43474302 1.461955
1.5297799 -0.45586899 1.455448
1.53422 -0.47037899 1.4542069
1.5390199 -0.48568499 1.4510911
1.5411201 -0.51076001 1.452096
1.5408701 -0.53544301 1.451592
1.51914 -0.42672002 1.465872
1.5233001 -0.44540799 1.452845
1.58035 -0.594078 1.4979359
1.5806199 -0.606161 1.4982581
1.5838799 -0.63596201 1.497251
1.59812 -0.65285796 1.4983881
1.5619999 -0.55568701 1.4991729
1.56988 -0.56987798 1.498453
1.57298 -0.58274198 1.497624
1.5764301 -0.59338903 1.493716
1.5807201 -0.60659403 1.491789
1.5814 -0.623788 1.4958169
1.59438 -0.63226801 1.487635
1.60289 -0.64463401 1.485127
1.6057601 -0.65480304 1.482473
1.60395 -0.44613099 1.4937171
1.54173 -0.48949102 1.499831
1.5435201 -0.50306302 1.499503
1.54478 -0.543679 1.498891
1.5462199 -0.55815399 1.498824
1.5437 -0.56308001 1.489812
1.56785 -0.57933599 1.488232
1.57099 -0.59249198 1.4867591
1.57612 -0.60512102 1.484623
1.57182 -0.62105203 1.4876311
1.5835201 -0.63174099 1.483609
1.5954499 -0.64375901 1.4808561
1.60897 -0.65531802 1.4772071
1.54313 -0.41219503 1.497951
1.5434899 -0.42467603 1.4982049
1.61058 -0.44925702 1.490806
1.5976199 -0.45796502 1.487684
1.51933 -0.46140099 1.499557
1.5373501 -0.47561601 1.493643
1.54187 -0.49159801 1.49604
1.54002 -0.50485998 1.4969411
1.5369 -0.51969504 1.498178
1.53733 -0.52991796 1.493553
1.53979 -0.542907 1.492467
1.5496299 -0.56002498 1.493927
1.5568401 -0.58611196 1.4896671
1.55633 -0.59001398 1.480369
1.55945 -0.60511297 1.4788381
1.56318 -0.629915 1.487283
1.56414 -0.63456702 1.4816499
1.5873599 -0.64764601 1.4759779
1.5931799 -0.64866501 1.4678379
1.5343 -0.39816201 1.494993
1.5446299 -0.41163501 1.4901241
1.5480599 -0.42568401 1.4919231
1.6065401 -0.44681799 1.4803439
1.60227 -0.45952201 1.4819909
1.52362 -0.46155497 1.494399
1.5327699 -0.47295398 1.4854989
1.54008 -0.48920101 1.487571
1.5411301 -0.50119203 1.484622
1.53925 -0.51472199 1.484259
1.53817 -0.52938902 1.4858299
1.5398599 -0.54087102 1.4832389
1.5329499 -0.55377299 1.4836689
1.54713 -0.399735 1.490844
1.5455499 -0.41034198 1.4836349
1.5436599 -0.42398497 1.4838181
1.59943 -0.44475102 1.468094
1.59094 -0.45587799 1.473058
1.52741 -0.464322 1.487622
1.5313901 -0.47608101 1.483701
1.53699 -0.48844102 1.4808561
1.53983 -0.50248796 1.4800079
1.5383201 -0.51770002 1.4821069
1.53614 -0.53041303 1.4817179
1.5374899 -0.537799 1.473827
1.5345399 -0.558056 1.4802589
1.5309 -0.40601003 1.474146
1.55081 -0.426025 1.478392
1.58639 -0.45796299 1.4697909
1.54355 -0.46817601 1.481884
1.5422 -0.47817001 1.4750819
1.5419501 -0.489189 1.473105
1.54075 -0.50144297 1.471396
1.5379699 -0.51495397 1.471808
1.5364101 -0.528283 1.471702
1.5368401 -0.535842 1.464839
1.52862 -0.55323398 1.470095
1.5507201 -0.41403702 1.4805909
1.53521 -0.42025399 1.466819
1.57355 -0.45425099 1.462016
1.5587 -0.46623698 1.468621
1.54793 -0.476399 1.465952
1.54347 -0.48890099 1.466019
1.5409801 -0.50208902 1.465227
1.5374401 -0.51725101 1.468078
1.53479 -0.52956796 1.467544
1.53459 -0.53706002 1.460199
1.52865 -0.55391902 1.4635049
1.5707201 -0.45560101 1.4619591
1.5535899 -0.466207 1.4611369
1.5449001 -0.47620702 1.460265
1.5444 -0.48718798 1.457163
1.54258 -0.49887797 1.453723
1.53791 -0.515549 1.4597861
1.5352 -0.53049302 1.4599891
1.5355099 -0.53495604 1.450611
1.52794 -0.55395901 1.45679
1.56171 -0.451161 1.452444
1.5505999 -0.465619 1.456678
1.54361 -0.47714198 1.4556739
1.54178 -0.48910001 1.454506
1.5388 -0.51332498 1.450281
1.4880099 -0.55015397 1.5499949
1.48147 -0.53413796 1.5474341
1.47698 -0.51901799 1.545107
1.47817 -0.50620002 1.544523
1.4901199 -0.49746701 1.5465381
1.4965301 -0.565615 1.545697
1.49793 -0.55431998 1.544415
1.4854801 -0.53532201 1.541093
1.477 -0.519041 1.538192
1.4805701 -0.507231 1.5380729
1.4876199 -0.49647799 1.5387861
1.5176101 -0.56097102 1.542143
1.4806199 -0.53319097 1.5328161
1.4772 -0.51892698 1.530988
1.47996 -0.50689298 1.530965
1.4881301 -0.49640399 1.5319681
1.4908501 -0.56308001 1.52982
1.4966 -0.553213 1.5298229
1.48392 -0.53401399 1.5263679
1.4799401 -0.52012801 1.524343
1.4809899 -0.50734901 1.523649
1.4944501 -0.498907 1.5260119
1.4965401 -0.46051499 1.523887
1.50498 -0.45028499 1.525388
1.49949 -0.554533 1.52353
1.48006 -0.53342199 1.518412
1.47947 -0.51976401 1.5173759
1.4830201 -0.50815701 1.5174581
1.4908201 -0.497462 1.517976
1.49852 -0.48734701 1.518779
1.50183 -0.47496101 1.5184801
1.5099001 -0.46481201 1.5198081
1.49841 -0.448322 1.516294
1.5009301 -0.43603501 1.516785
1.52402 -0.57608104 1.5223421
1.52931 -0.564789 1.522748
1.47232 -0.53031898 1.509529
1.4768801 -0.51863599 1.510222
1.48334 -0.50818098 1.509501
1.4896899 -0.49720401 1.510702
1.4986 -0.48770902 1.511429
1.4987301 -0.47312501 1.510188
1.4962 -0.46042702 1.5096539
1.49852 -0.44836798 1.5093671
1.50573 -0.437554 1.5100861
1.56768 -0.44159302 1.5218221
1.5913299 -0.434894 1.527367
1.6100999 -0.42712602 1.5286231
1.53046 -0.57904398 1.5166221
1.52413 -0.56289202 1.5141009
1.47349 -0.53149801 1.5027111
1.4759101 -0.51852399 1.502278
1.4802201 -0.50705796 1.502381
1.4864999 -0.49684298 1.50305
1.4936999 -0.48582801 1.5035809
1.49465 -0.47257 1.502673
1.49575 -0.46031898 1.502733
1.4998599 -0.44873798 1.5024871
1.5141799 -0.44044998 1.5051379
1.5620599 -0.440837 1.5139371
1.58393 -0.43275398 1.517542
1.60313 -0.42465699 1.5216169
1.6128501 -0.41340899 1.522589
1.5321499 -0.57946301 1.509187
1.52434 -0.56367296 1.5062829
1.5240101 -0.443423 1.500092
1.55088 -0.43697602 1.503945
1.58232 -0.43283299 1.5096941
1.59716 -0.42334703 1.5119001
1.61283 -0.41328999 1.515247
1.5257001 -0.57698601 1.5003309
1.53237 -0.56580299 1.5007851
1.56382 -0.441641 1.500147
1.5851401 -0.43355301 1.5028551
1.5980999 -0.42360002 1.504707
1.6117901 -0.41280401 1.5064991
1.4736301 -0.51879299 1.549572
1.4957401 -0.55632001 1.549628
1.47681 -0.53143901 1.543447
1.47473 -0.519804 1.541505
1.4797599 -0.50851899 1.542367
1.5000399 -0.50125402 1.5459089
1.49084 -0.55502898 1.5413851
1.48086 -0.536654 1.5377561
1.4758099 -0.520275 1.534616
1.4783 -0.508169 1.534493
1.4908099 -0.49879798 1.536283
1.52556 -0.499246 1.5430701
1.4950501 -0.55721301 1.5350231
1.4864399 -0.53847498 1.5316271
1.4776199 -0.52115399 1.528519
1.4789599 -0.50694698 1.52809
1.48651 -0.49732497 1.528051
1.5000701 -0.490345 1.529946
1.50968 -0.48378199 1.530129
1.5136399 -0.46582001 1.5309019
1.5122701 -0.45220298 1.528263
1.5067101 -0.43966302 1.5284179
1.49659 -0.55958003 1.5278469
1.4913901 -0.54231 1.5254409
1.4844 -0.52315301 1.5226401
1.4812399 -0.50971901 1.520802
1.4881599 -0.49828601 1.521335
1.49674 -0.48963502 1.5218821
1.50349 -0.47814098 1.522092
1.50202 -0.460592 1.5190711
1.50203 -0.44916198 1.5197819
1.5075101 -0.43808401 1.518353
1.5237399 -0.429391 1.5227259
1.4903301 -0.55619204 1.519027
1.4877 -0.53920299 1.5170219
1.4821899 -0.52243501 1.5144039
1.4816499 -0.51017499 1.51388
1.48647 -0.49725202 1.513492
1.49326 -0.48751 1.5138429
1.49859 -0.47823501 1.5135989
1.49905 -0.46178502 1.513136
1.5014501 -0.44865 1.5125231
1.5093499 -0.43751299 1.512376
1.52694 -0.43173999 1.516291
1.56749 -0.43368998 1.5231711
1.5757201 -0.42621201 1.524965
1.4980099 -0.54311401 1.511945
1.48461 -0.52367502 1.5080451
1.4813 -0.50845903 1.506686
1.4865601 -0.49703801 1.505893
1.49023 -0.48763901 1.506073
1.49483 -0.47523898 1.5057069
1.4948599 -0.45903099 1.504655
1.4988201 -0.44741198 1.504665
1.51389 -0.44003701 1.5071549
1.54256 -0.43766701 1.511691
1.56276 -0.43303397 1.5151601
1.57935 -0.42399701 1.517745
1.6084801 -0.419554 1.5218899
1.49025 -0.54088902 1.503157
1.4809899 -0.52101201 1.5002229
1.5236501 -0.44365501 1.501066
1.54321 -0.439302 1.5054179
1.55989 -0.43107498 1.506066
1.5791701 -0.42433998 1.510141
1.5949401 -0.41580701 1.5115891
1.57142 -0.43512002 1.5014811
1.5866499 -0.427369 1.503484
1.59878 -0.41740298 1.505339
1.4788001 -0.51727599 1.5496581
1.48411 -0.50688499 1.5492779
1.4907899 -0.55717599 1.547871
1.4808099 -0.53275502 1.5439399
1.47966 -0.51753199 1.542293
1.48777 -0.508632 1.542407
1.51413 -0.50334901 1.5473199
1.49475 -0.55882299 1.541069
1.4831799 -0.534325 1.536891
1.4795899 -0.51999003 1.533625
1.4854801 -0.50746202 1.5342419
1.49974 -0.49973202 1.535843
1.5355901 -0.50147301 1.542663
1.57205 -0.50730902 1.5496581
1.58253 -0.50218397 1.5498841
1.4906399 -0.55824 1.5326951
1.4894201 -0.53783202 1.530633
1.48245 -0.52061701 1.527619
1.4865199 -0.50880098 1.527109
1.4965401 -0.49795398 1.528317
1.5102299 -0.49292499 1.529322
1.52282 -0.48627999 1.530345
1.5137399 -0.45938501 1.5271111
1.5094501 -0.44442299 1.525031
1.5240899 -0.43482199 1.5269749
1.49655 -0.558478 1.526203
1.48404 -0.53633898 1.5220641
1.48326 -0.51972198 1.520357
1.48552 -0.50851899 1.519043
1.49151 -0.49721599 1.519454
1.50185 -0.48963299 1.5199181
1.51254 -0.48111802 1.520875
1.50612 -0.45731801 1.520182
1.5076401 -0.44419101 1.5179069
1.5175799 -0.43450099 1.5167611
1.53768 -0.43064499 1.5208391
1.55338 -0.427809 1.5226281
1.4889599 -0.55720103 1.516503
1.48987 -0.54329801 1.515432
1.4867599 -0.52349603 1.5129429
1.4860899 -0.50893003 1.5122091
1.49105 -0.49417701 1.511474
1.49711 -0.48693401 1.5116029
1.50208 -0.47550598 1.5113429
1.5021499 -0.45549598 1.5073429
1.5066701 -0.44119701 1.509424
1.51832 -0.43523997 1.511304
1.54067 -0.43499902 1.5144529
1.5602601 -0.42813501 1.5161481
1.5767101 -0.42182899 1.51925
1.58832 -0.412238 1.5188699
1.49787 -0.54609299 1.509909
1.48584 -0.52412999 1.5057911
1.48647 -0.507792 1.5041181
1.48888 -0.49453899 1.503719
1.4944201 -0.48629799 1.5032449
1.4977001 -0.47304499 1.502535
1.50222 -0.456727 1.502467
1.50871 -0.44562802 1.501563
1.5255799 -0.43915901 1.505679
1.5438499 -0.43617198 1.506902
1.55808 -0.426366 1.5084931
1.57244 -0.41879502 1.5102071
1.58857 -0.40989301 1.512154
1.49378 -0.54513502 1.500715
1.5514901 -0.43681198 1.5022579
1.56494 -0.42947799 1.503535
1.58367 -0.42255101 1.504128
1.59518 -0.411569 1.505459
1.48355 -0.54860502 1.5463381
1.48084 -0.52737498 1.54313
1.48192 -0.51346999 1.5419631
1.48849 -0.50450802 1.5421741
1.50343 -0.496916 1.5430599
1.52688 -0.496088 1.546917
1.54407 -0.49899799 1.5485871
1.48911 -0.55303401 1.540013
1.4836 -0.534042 1.535614
1.48304 -0.51559103 1.534595
1.49207 -0.503703 1.534806
1.50974 -0.49925801 1.537019
1.5257601 -0.49525601 1.538765
1.5411099 -0.49519798 1.5398231
1.5290401 -0.46405801 1.535979
1.52468 -0.445654 1.532764
1.49198 -0.55585599 1.53214
1.4894999 -0.53820097 1.529843
1.48642 -0.51706797 1.527274
1.48831 -0.50409698 1.5258729
1.5031199 -0.49494302 1.5272591
1.51772 -0.49198699 1.5292979
1.53499 -0.483419 1.531188
1.5220701 -0.45476899 1.527595
1.51905 -0.438815 1.5255131
1.53328 -0.425643 1.5257131
1.55134 -0.43481299 1.526879
1.50045 -0.55939001 1.5257181
1.48805 -0.53460401 1.520952
1.4848801 -0.51671296 1.518957
1.48831 -0.50229001 1.517939
1.49657 -0.49280399 1.5181129
1.51226 -0.489824 1.519843
1.51428 -0.47446498 1.5180889
1.51442 -0.451987 1.517262
1.52084 -0.437011 1.5167171
1.53917 -0.43528402 1.5193919
1.5518299 -0.42993501 1.520291
1.57295 -0.42680499 1.521217
1.59158 -0.42186001 1.5237911
1.59901 -0.415925 1.525826
1.49497 -0.55932897 1.5159489
1.4909599 -0.53820205 1.5144709
1.4857401 -0.51463401 1.510872
1.48724 -0.50348204 1.509928
1.4949601 -0.48996201 1.509841
1.50302 -0.486819 1.5098
1.50885 -0.470662 1.5106751
1.51482 -0.45459899 1.508165
1.5240899 -0.440193 1.5090621
1.5397301 -0.43664798 1.510862
1.5590401 -0.43241799 1.513642
1.57663 -0.42981702 1.5153819
1.59163 -0.419489 1.517395
1.6025 -0.40987098 1.518608
1.5067799 -0.563546 1.511124
1.4870399 -0.533813 1.505374
1.48437 -0.51553899 1.502592
1.48763 -0.501468 1.501863
1.4941701 -0.49363202 1.5019749
1.5008 -0.48498499 1.502364
1.5089301 -0.46971297 1.5022861
1.51677 -0.45655999 1.5017911
1.5298899 -0.444767 1.500764
1.54993 -0.44490501 1.504926
1.56567 -0.4377 1.507997
1.5795599 -0.42768601 1.508005
1.59106 -0.419332 1.509178
1.6039799 -0.40951401 1.5113831
1.4900999 -0.56196702 1.501387
1.5740499 -0.439542 1.501345
1.5828799 -0.430044 1.501546
1.59497 -0.41901001 1.502437
1.6040699 -0.407482 1.5021989
1.4733299 -0.53166902 1.5449769
1.4727901 -0.51433802 1.542727
1.4814999 -0.503618 1.5420331
1.49586 -0.49598098 1.543985
1.4682499 -0.52919501 1.5369509
1.47232 -0.519068 1.5345379
1.4811599 -0.503708 1.5343989
1.4914399 -0.495819 1.5345089
1.51112 -0.493332 1.5372901
1.5239501 -0.49338201 1.5384461
1.5380701 -0.47606999 1.539142
1.5176101 -0.444015 1.5307679
1.51949 -0.43464601 1.528989
1.4739701 -0.53290796 1.52912
1.4761701 -0.51695299 1.5269501
1.4832699 -0.50537497 1.525892
1.4936301 -0.49694002 1.526503
1.50737 -0.49221298 1.52799
1.51633 -0.48683497 1.529279
1.5156 -0.453834 1.52676
1.51902 -0.438793 1.5238041
1.5330299 -0.429883 1.525771
1.5559801 -0.440321 1.5302521
1.56705 -0.43703401 1.52745
1.47551 -0.53897899 1.5216881
1.47758 -0.52296299 1.519565
1.48429 -0.50924999 1.5188161
1.49071 -0.496189 1.51828
1.50077 -0.48552701 1.5178779
1.52114 -0.47956797 1.5209739
1.5117199 -0.45236999 1.516808
1.5214701 -0.441053 1.516418
1.5411099 -0.43649399 1.5187371
1.5525501 -0.43554297 1.5206641
1.56964 -0.42862701 1.5213361
1.58986 -0.41980201 1.5234621
1.5996499 -0.412541 1.5227209
1.4795101 -0.54211897 1.5136399
1.48157 -0.52422404 1.512126
1.48472 -0.50992602 1.5111051
1.4903901 -0.49564999 1.509915
1.4983901 -0.48809299 1.509969
1.50108 -0.47249198 1.509558
1.5064501 -0.45098799 1.5071629
1.52116 -0.44050899 1.5080119
1.54026 -0.44183201 1.5098461
1.56138 -0.44028401 1.512529
1.57584 -0.425457 1.5143679
1.5870399 -0.41912702 1.515072
1.59727 -0.41117001 1.516116
1.48404 -0.54347402 1.506259
1.48357 -0.52325404 1.504148
1.48401 -0.51130599 1.5033979
1.4878999 -0.493478 1.501073
1.50975 -0.452005 1.50073
1.52529 -0.445281 1.5010331
1.54268 -0.44447899 1.503188
1.56752 -0.449604 1.504521
1.5823399 -0.43179199 1.507406
1.5901401 -0.41984299 1.507516
1.5990601 -0.40882197 1.5072819
1.5982201 -0.42555302 1.500748
1.60572 -0.412678 1.500098
1.4819299 -0.53460401 1.5475481
1.4775 -0.51924998 1.54498
1.47867 -0.50622702 1.544453
1.4906399 -0.49763098 1.546695
1.49709 -0.56609899 1.545754
1.49849 -0.55470002 1.544512
1.48593 -0.53578401 1.541208
1.4774499 -0.51913899 1.5383571
1.48101 -0.50727403 1.538334
1.4879899 -0.49660599 1.5389
1.51815 -0.56140596 1.542287
1.4810001 -0.53371203 1.532903
1.47755 -0.519265 1.531203
1.4803799 -0.50689799 1.5313251
1.4886 -0.49640203 1.532231
1.4913601 -0.56355101 1.5299201
1.49714 -0.55358499 1.529917
1.48426 -0.53450698 1.526467
1.4803799 -0.52041501 1.5242391
1.48149 -0.50751096 1.5233741
1.4951401 -0.49880299 1.5259601
1.49783 -0.46105498 1.5243311
1.51905 -0.45462 1.528649
1.50036 -0.435258 1.526195
1.5 -0.55494303 1.523587
1.48066 -0.53328097 1.518445
1.4798599 -0.51993501 1.5175771
1.48351 -0.50828803 1.517385
1.4913601 -0.49756899 1.5180479
1.4990801 -0.48736301 1.518978
1.50239 -0.47541198 1.518888
1.51529 -0.46668899 1.5211861
1.4996099 -0.44876498 1.516912
1.51412 -0.43991297 1.519825
1.52459 -0.57651901 1.522547
1.52984 -0.56518602 1.522948
1.4727299 -0.53039902 1.5095481
1.47728 -0.51897699 1.510056
1.4837199 -0.50834703 1.509915
1.4902 -0.497224 1.5110221
1.49921 -0.487708 1.511674
1.49922 -0.473499 1.5103661
1.4974201 -0.461169 1.5099369
1.50194 -0.44952402 1.5097231
1.5048399 -0.43707299 1.509635
1.5683099 -0.44170102 1.521806
1.5918801 -0.435168 1.5277141
1.6108 -0.42738602 1.52905
1.53101 -0.57944798 1.516811
1.5246201 -0.56342602 1.514281
1.47394 -0.53140098 1.5028321
1.47618 -0.51885104 1.5025369
1.48051 -0.50741202 1.5026579
1.48698 -0.49686599 1.50323
1.49427 -0.485865 1.50371
1.49501 -0.47304901 1.5030389
1.49629 -0.46062699 1.502454
1.5012699 -0.44925299 1.5026759
1.5179 -0.44138899 1.5056751
1.56284 -0.440988 1.513918
1.5847099 -0.43274602 1.517843
1.60378 -0.42492402 1.521813
1.61352 -0.41360801 1.5229629
1.53271 -0.57996798 1.50928
1.52483 -0.56419897 1.506254
1.52477 -0.443535 1.500051
1.55162 -0.43699601 1.5038949
1.58301 -0.433092 1.5094521
1.5978 -0.423417 1.512133
1.61349 -0.41341901 1.515637
1.5262399 -0.57737702 1.500369
1.53291 -0.56630701 1.500728
1.5644799 -0.44192699 1.500175
1.5857899 -0.43390399 1.502654
1.59872 -0.42401299 1.504505
1.61243 -0.41297501 1.5065891
1.66386 -0.60346502 1.545367
1.6391701 -0.57745099 1.546931
1.6515601 -0.59219801 1.5474541
1.6627001 -0.60444903 1.5425551
1.6242 -0.57372397 1.539045
1.6470599 -0.59164602 1.5397431
1.6539501 -0.60358202 1.537158
1.54531 -0.54091704 1.5489999
1.6107899 -0.56679404 1.545814
1.6196699 -0.57472903 1.5360229
1.6357601 -0.58950597 1.5348539
1.63165 -0.60315496 1.537591
1.6563699 -0.62033403 1.535694
1.57487 -0.54780102 1.540324
1.59218 -0.56177402 1.5374111
1.59588 -0.572815 1.534803
1.6196699 -0.59511 1.5417321
1.53131 -0.49066502 1.546468
1.5423399 -0.50773001 1.5463251
1.5485899 -0.52307802 1.546748
1.5552499 -0.53523701 1.545814
1.56582 -0.54451799 1.5336779
1.58678 -0.565705 1.5389619
1.5178599 -0.476926 1.5432249
1.54036 -0.49304101 1.538167
1.5501801 -0.50818801 1.5390919
1.5580901 -0.51985598 1.532613
1.5638299 -0.53462398 1.531481
1.56709 -0.54794902 1.5310631
1.5642101 -0.56458902 1.53583
1.49177 -0.46182701 1.545189
1.5167 -0.47560501 1.532692
1.53067 -0.49236199 1.5344291
1.5505 -0.50534302 1.528157
1.5589999 -0.519696 1.525434
1.5624601 -0.534311 1.5252659
1.56214 -0.55077302 1.5290941
1.5603999 -0.56940299 1.53645
1.4942 -0.462093 1.538613
1.5158401 -0.47586301 1.5280709
1.5419501 -0.491521 1.521248
1.55732 -0.506782 1.519729
1.56249 -0.52059698 1.518754
1.56301 -0.53187299 1.5155791
1.5599899 -0.54749501 1.519122
1.56071 -0.56108898 1.5196429
1.50191 -0.46205398 1.52817
1.52557 -0.47744301 1.5201559
1.54242 -0.49165198 1.5159531
1.55076 -0.505651 1.513555
1.5573 -0.52001595 1.512496
1.56037 -0.534661 1.513139
1.5603999 -0.54672998 1.512316
1.5632401 -0.55844802 1.5094529
1.56847 -0.57101798 1.505477
1.5043401 -0.460841 1.516413
1.52394 -0.47786701 1.515542
1.53491 -0.48857498 1.5070151
1.5441099 -0.50448799 1.50735
1.5481 -0.52052897 1.510098
1.5568299 -0.53191203 1.503916
1.56056 -0.54640096 1.5043581
1.56388 -0.55793798 1.500248
1.56778 -0.58331501 1.5049781
1.57121 -0.60082102 1.50982
1.57213 -0.61108202 1.5064
1.51248 -0.46382099 1.5134031
1.5236701 -0.47632301 1.5086571
1.5391999 -0.489519 1.500201
1.54441 -0.50442296 1.500628
1.54278 -0.51850897 1.502586
1.5509399 -0.54666197 1.501097
1.51425 -0.45971298 1.500988
1.5402 -0.41189602 1.503352
1.54021 -0.40238202 1.504624
1.5412601 -0.42728299 1.5046899
1.63491 -0.58807701 1.541898
1.661 -0.60443503 1.541348
1.63428 -0.58706003 1.5368581
1.6458299 -0.60172796 1.5360161
1.6507201 -0.61299199 1.5326539
1.57512 -0.55299199 1.5425571
1.60632 -0.57248402 1.5394291
1.61364 -0.58344299 1.533062
1.64132 -0.60741597 1.541862
1.57462 -0.55580002 1.540779
1.59963 -0.57376897 1.538213
1.5347501 -0.49950299 1.5433481
1.54654 -0.51584798 1.546062
1.56339 -0.54373097 1.540473
1.56882 -0.55503702 1.5365131
1.5716901 -0.57086104 1.545366
1.51125 -0.48161203 1.5424761
1.5412601 -0.50019002 1.537428
1.55267 -0.51565599 1.535279
1.55724 -0.53075498 1.538185
1.56183 -0.54116201 1.5309559
1.56199 -0.55534697 1.534472
1.5559599 -0.56924802 1.544184
1.52465 -0.486269 1.5332409
1.5386701 -0.500067 1.5321749
1.5540401 -0.516177 1.530624
1.56181 -0.52943003 1.5257381
1.56022 -0.541821 1.5273809
1.55593 -0.55454499 1.531109
1.55133 -0.56817299 1.5371339
1.5188 -0.48298198 1.5269079
1.5477901 -0.501127 1.524585
1.55585 -0.51687002 1.525273
1.55993 -0.529158 1.5227311
1.5585699 -0.54118699 1.521189
1.5562199 -0.55388999 1.5228959
1.55398 -0.56594801 1.522773
1.5386599 -0.48780602 1.5224479
1.5226899 -0.47416902 1.534319
1.54752 -0.50142401 1.519372
1.55188 -0.515984 1.518103
1.5575399 -0.52859998 1.5165601
1.55822 -0.53969598 1.5122639
1.55715 -0.55195802 1.5125611
1.5544701 -0.56582803 1.5158639
1.56027 -0.57608199 1.5093429
1.52008 -0.47264802 1.5275011
1.53185 -0.48588601 1.5150951
1.5463201 -0.50104201 1.512805
1.55159 -0.51434398 1.5105079
1.55302 -0.52775598 1.5109129
1.55242 -0.54034197 1.511253
1.55468 -0.55278999 1.5089689
1.5580499 -0.565009 1.505976
1.5650799 -0.576038 1.5010029
1.56327 -0.58859503 1.507188
1.5652299 -0.60478902 1.512018
1.56938 -0.61600298 1.5086031
1.5224401 -0.47251901 1.514321
1.53228 -0.48622102 1.5094321
1.5413201 -0.498905 1.505474
1.54699 -0.51342702 1.505592
1.55055 -0.52686399 1.505054
1.54978 -0.538149 1.5010229
1.55294 -0.55192202 1.5026511
1.5308701 -0.47376901 1.5078039
1.5392799 -0.485769 1.5003439
1.5410299 -0.538827 1.5012261
1.5615 -0.430453 1.516078
1.55761 -0.41620499 1.502211
1.5422 -0.46280998 1.502212
1.53966 -0.47640201 1.505072
1.63471 -0.587668 1.540619
1.6626601 -0.60577798 1.5399561
1.6086501 -0.56837201 1.546293
1.62228 -0.58152503 1.5344729
1.6276401 -0.59496897 1.5356231
1.62823 -0.60692602 1.535463
1.5945799 -0.56374902 1.537272
1.5948199 -0.57487398 1.535049
1.62077 -0.597341 1.543345
1.5591701 -0.54187 1.5455031
1.57927 -0.56069601 1.5395759
1.5381 -0.49979198 1.539691
1.54916 -0.51618302 1.54251
1.55533 -0.53112203 1.5412719
1.55752 -0.54152197 1.5367141
1.55505 -0.55514002 1.537431
1.5414 -0.56629199 1.546504
1.5436301 -0.50194299 1.5340891
1.5522301 -0.51592803 1.534081
1.55707 -0.53045499 1.53456
1.5572301 -0.541237 1.5279001
1.5469501 -0.55301499 1.5375619
1.53746 -0.561867 1.5380141
1.53431 -0.49788299 1.5265061
1.55481 -0.51650798 1.5269099
1.55989 -0.53019202 1.524991
1.5574899 -0.54076999 1.521399
1.54664 -0.55354601 1.53186
1.53687 -0.56579399 1.5344949
1.54676 -0.501553 1.5194
1.52929 -0.482407 1.532454
1.55839 -0.51784098 1.5185189
1.5616701 -0.53168797 1.519632
1.56007 -0.54229403 1.51626
1.5556799 -0.55489999 1.521502
1.5486301 -0.56573004 1.523127
1.54993 -0.578852 1.5237739
1.5092999 -0.46692798 1.544493
1.5010899 -0.46293899 1.537659
1.5256 -0.48329499 1.529923
1.5258701 -0.494964 1.510359
1.5505 -0.51462603 1.5127671
1.55732 -0.52946496 1.513292
1.5605999 -0.542633 1.5142599
1.5620199 -0.554775 1.5060871
1.5600101 -0.56467199 1.504867
1.55879 -0.57632101 1.5062881
1.55424 -0.58649504 1.5012751
1.49482 -0.46028399 1.5257801
1.5348101 -0.48479199 1.516534
1.5397999 -0.500144 1.507897
1.54933 -0.51432997 1.507259
1.55548 -0.52783298 1.505249
1.55953 -0.54155201 1.5064011
1.56278 -0.55396998 1.502103
1.57152 -0.60712701 1.511806
1.4971601 -0.46043301 1.5190581
1.5166299 -0.47870702 1.5075489
1.53364 -0.49653098 1.501588
1.54344 -0.51286298 1.504758
1.5488 -0.52629203 1.5015359
1.50203 -0.46128899 1.5082201
1.5243201 -0.47975299 1.501669
1.5103999 -0.46395802 1.5038761
1.5246 -0.468353 1.500286
1.61683 -0.58789098 1.533339
1.60921 -0.58422202 1.538938
1.6141601 -0.57273501 1.546248
1.59308 -0.56720197 1.537503
1.5966201 -0.58098 1.532061
1.5595 -0.54393697 1.5420359
1.57565 -0.56158 1.5340201
1.5804499 -0.57536203 1.543079
1.54026 -0.511401 1.5456591
1.5608701 -0.54392302 1.5293809
1.56242 -0.55671197 1.532652
1.54995 -0.56588799 1.5409939
1.5188401 -0.489775 1.5487911
1.53888 -0.51080102 1.5358189
1.5643401 -0.53054297 1.5409681
1.56435 -0.54483396 1.524438
1.5568601 -0.55410498 1.5267531
1.54133 -0.562307 1.5309441
1.5091701 -0.564574 1.543407
1.5238099 -0.49119201 1.5361439
1.5452499 -0.51275396 1.5301021
1.5555 -0.52769297 1.530616
1.55882 -0.54239297 1.525758
1.54899 -0.55116701 1.526763
1.52891 -0.55592602 1.525267
1.50869 -0.56259501 1.5412641
1.5313499 -0.493801 1.532281
1.5502499 -0.51443696 1.521351
1.55952 -0.52983701 1.5207781
1.55907 -0.54224098 1.51571
1.5483 -0.55079401 1.518978
1.52994 -0.55734998 1.520426
1.5070701 -0.56130403 1.5325371
1.5353199 -0.49438599 1.524621
1.5436301 -0.51081598 1.5173019
1.55441 -0.527273 1.51463
1.55884 -0.542319 1.510097
1.55644 -0.553666 1.5116941
1.53956 -0.56061298 1.513847
1.5237399 -0.56728899 1.52496
1.53633 -0.496117 1.51188
1.5522799 -0.51478297 1.50934
1.5589501 -0.52963001 1.5064579
1.5606101 -0.54235804 1.506617
1.56183 -0.55505198 1.501452
1.55897 -0.57862204 1.5033721
1.53845 -0.495101 1.509784
1.54458 -0.51170802 1.504045
1.5555099 -0.52828002 1.5010091
1.57382 -0.59478599 1.500334
1.5369201 -0.47809899 1.51212
1.63938 -0.59603 1.5488451
1.63429 -0.60845101 1.5326229
1.5670799 -0.55242002 1.54533
1.56924 -0.56839901 1.5414109
1.5714999 -0.57090998 1.534112
1.55972 -0.53810501 1.549716
1.56818 -0.55467302 1.5382271
1.56241 -0.56424201 1.54418
1.5508599 -0.56830198 1.5494599
1.53536 -0.50007099 1.549965
1.54953 -0.51889902 1.549852
1.55662 -0.53643 1.5419201
1.56192 -0.55174804 1.533587
1.5567999 -0.55984199 1.5379291
1.5509599 -0.56865197 1.5450231
1.5402299 -0.50228196 1.543094
1.5505999 -0.520078 1.5392461
1.55961 -0.53655499 1.5335561
1.56027 -0.55032599 1.5308059
1.5558901 -0.55994499 1.5327791
1.5456901 -0.56779999 1.5313251
1.53842 -0.50177598 1.5323269
1.5535899 -0.52029902 1.5336729
1.5590601 -0.53654701 1.5272011
1.56058 -0.55028403 1.524026
1.55553 -0.55929399 1.5261379
1.5483299 -0.56800199 1.5290581
1.5340199 -0.48087102 1.5454581
1.53526 -0.49975398 1.5283051
1.54804 -0.51833898 1.5249741
1.55586 -0.53458601 1.52123
1.55942 -0.54943103 1.518031
1.5574601 -0.55989802 1.518189
1.55127 -0.567882 1.522516
1.52785 -0.49775502 1.5193989
1.5478301 -0.517528 1.5191859
1.5577699 -0.53572798 1.513007
1.55916 -0.54836297 1.514074
1.5579699 -0.56006503 1.5132761
1.55193 -0.56962299 1.512975
1.53273 -0.49917802 1.511575
1.5500799 -0.51796603 1.5126641
1.5580901 -0.53569901 1.508042
1.55958 -0.54843497 1.506462
1.5586799 -0.55999297 1.507322
1.55767 -0.57172102 1.506128
1.52683 -0.49517301 1.509352
1.5384599 -0.51244497 1.50877
1.5496001 -0.53102201 1.5016479
1.55321 -0.54481798 1.5033439
1.5294501 -0.475903 1.527092
1.5302401 -0.478201 1.5173
1.54322 -0.515544 1.5003411
1.54642 -0.54015803 1.502538
1.55304 -0.55583304 1.500782
1.52767 -0.47866601 1.505172
1.6630701 -0.602974 1.5487961
1.62502 -0.57119101 1.544333
1.64736 -0.59066099 1.545827
1.65521 -0.60106701 1.5417081
1.62129 -0.57188201 1.539057
1.6372399 -0.58716601 1.537797
1.63291 -0.60218501 1.538663
1.6582299 -0.61747801 1.5382789
1.57526 -0.54717898 1.546297
1.5932801 -0.56019002 1.5417911
1.5973599 -0.57085901 1.537153
1.6210899 -0.59414399 1.5433279
1.5662199 -0.54397202 1.539675
1.58857 -0.56386501 1.5419921
1.51766 -0.477835 1.5488831
1.54015 -0.49316201 1.5440969
1.55 -0.50810903 1.545014
1.55799 -0.520634 1.537783
1.56408 -0.534307 1.537594
1.56793 -0.54669899 1.53705
1.5649 -0.56432998 1.540693
1.51683 -0.47581401 1.5383
1.5306799 -0.492659 1.5402651
1.55045 -0.50590301 1.533559
1.5592599 -0.51938498 1.5315441
1.5630499 -0.53351003 1.531324
1.56274 -0.55017 1.5351621
1.56102 -0.568551 1.5426359
1.49431 -0.46228999 1.5445939
1.516 -0.47599602 1.534191
1.5423 -0.491483 1.527142
1.55768 -0.50686902 1.5258501
1.56311 -0.52020097 1.525185
1.5638901 -0.53111196 1.5210609
1.56091 -0.54635203 1.525249
1.5613699 -0.560489 1.5243809
1.50188 -0.46337301 1.533419
1.52599 -0.47726399 1.525833
1.5432 -0.49073601 1.5219949
1.55221 -0.50376499 1.5188941
1.5588901 -0.51819903 1.517238
1.56155 -0.53363001 1.518594
1.5609801 -0.54656702 1.518391
1.56362 -0.55866599 1.5149721
1.56836 -0.57032102 1.5115849
1.56769 -0.58243501 1.510963
1.57125 -0.59990698 1.5114141
1.57249 -0.61044002 1.5080479
1.5049601 -0.45990199 1.522265
1.52459 -0.47665599 1.5213499
1.53509 -0.48924598 1.5131309
1.54513 -0.50354803 1.513007
1.5498599 -0.51917195 1.514359
1.55794 -0.53106201 1.5109509
1.5611999 -0.54624403 1.5109351
1.56414 -0.55729198 1.5081911
1.5673699 -0.56921399 1.5049859
1.5735401 -0.58397299 1.5040491
1.58253 -0.623707 1.502208
1.5126801 -0.46304902 1.5193131
1.52371 -0.47674599 1.514783
1.5395199 -0.48992401 1.5062089
1.54532 -0.50377601 1.506654
1.5438901 -0.51816702 1.5081559
1.54825 -0.53187001 1.50571
1.5528101 -0.54497397 1.505495
1.5401 -0.39847401 1.5087559
1.54027 -0.41240701 1.508075
1.5405099 -0.42568299 1.508539
1.6060201 -0.461925 1.5002151
1.51425 -0.46133202 1.5061971
1.53069 -0.477898 1.5030839
1.5394701 -0.51781499 1.501057
1.5417999 -0.53107399 1.5009509
1.5415699 -0.39945701 1.5057781
1.4764 -0.54505402 1.598003
1.47149 -0.52989203 1.595451
1.47541 -0.51877999 1.595524
1.49001 -0.51054001 1.598386
1.48745 -0.56181997 1.5947529
1.4730099 -0.54388696 1.589811
1.4723599 -0.53013003 1.5885201
1.4793299 -0.52012503 1.589431
1.49226 -0.51238096 1.591889
1.5089301 -0.50410002 1.5948241
1.48453 -0.56069803 1.5867171
1.48173 -0.54773599 1.5849091
1.47609 -0.53188002 1.58224
1.48148 -0.52080899 1.582513
1.49395 -0.51315898 1.5841119
1.5082201 -0.50367999 1.5872661
1.49271 -0.56410998 1.5813589
1.47918 -0.54652601 1.577096
1.47692 -0.531789 1.575071
1.47849 -0.51937801 1.574584
1.48871 -0.51022702 1.575773
1.5060401 -0.50312102 1.5792069
1.49212 -0.56547999 1.573812
1.48383 -0.54839599 1.570767
1.4747 -0.530599 1.566856
1.4776601 -0.51946199 1.567232
1.48706 -0.50907099 1.5685401
1.5003901 -0.500539 1.5707879
1.4994701 -0.56675202 1.5683819
1.4778301 -0.54621202 1.561972
1.4715401 -0.53004003 1.5592661
1.47436 -0.51806498 1.559082
1.4834599 -0.50743002 1.5603529
1.4970599 -0.50020003 1.5624901
1.6193299 -0.525181 1.591205
1.6227299 -0.51259798 1.59136
1.6551601 -0.50956297 1.598225
1.49712 -0.56615698 1.5604539
1.48727 -0.55026197 1.556965
1.47567 -0.53159696 1.5532299
1.47355 -0.51790798 1.551622
1.47916 -0.50737202 1.5519791
1.48929 -0.49711701 1.5535389
1.6006 -0.51901698 1.578912
1.6210001 -0.51213801 1.5828869
1.64588 -0.50611699 1.587823
1.6700901 -0.499926 1.5927141
1.5102699 -0.57074296 1.556294
1.61867 -0.52585399 1.5755039
1.62149 -0.51235598 1.5749879
1.66149 -0.50950503 1.5831261
1.64423 -0.51933104 1.572059
1.6653501 -0.511774 1.5763831
1.6561099 -0.52358603 1.5673519
1.6745501 -0.51414603 1.56973
1.47969 -0.53528303 1.596709
1.47812 -0.52146399 1.595191
1.4889101 -0.51265097 1.596481
1.50603 -0.50556499 1.599342
1.5007601 -0.57376701 1.597701
1.48043 -0.54726297 1.590557
1.4760499 -0.53213602 1.588163
1.4784801 -0.52092397 1.587671
1.4914399 -0.51301998 1.589591
1.51403 -0.50872701 1.594205
1.5282201 -0.50261396 1.596544
1.4824001 -0.56889999 1.585597
1.4842999 -0.55148202 1.584489
1.4786099 -0.53262597 1.583145
1.47931 -0.52239299 1.5800819
1.4905499 -0.51268798 1.582381
1.50738 -0.50702703 1.5846859
1.5265499 -0.50119996 1.588599
1.5071001 -0.55842 1.582204
1.4774801 -0.53524703 1.5739821
1.47673 -0.52027601 1.571907
1.48535 -0.51078999 1.573372
1.50349 -0.50465697 1.576313
1.52539 -0.50048 1.580533
1.47331 -0.565355 1.568266
1.4858501 -0.55186296 1.570003
1.48028 -0.536479 1.567062
1.47787 -0.521689 1.564845
1.4808201 -0.50844002 1.5644851
1.5007601 -0.50392503 1.568262
1.52644 -0.50012201 1.5733141
1.5013901 -0.555215 1.565246
1.47606 -0.53345901 1.5583211
1.47475 -0.51961899 1.5563741
1.4783901 -0.50741297 1.556856
1.4951199 -0.50266802 1.558553
1.52823 -0.50088799 1.5661681
1.5419099 -0.496957 1.568205
1.6455001 -0.52006304 1.592083
1.65864 -0.50900799 1.593514
1.4806501 -0.552863 1.55374
1.47808 -0.53312999 1.5521021
1.4843899 -0.50917798 1.550378
1.5100999 -0.50508803 1.5562841
1.5439 -0.50707698 1.562325
1.5585201 -0.50306302 1.564708
1.63269 -0.51596999 1.580641
1.6596899 -0.51090801 1.58627
1.52259 -0.49860802 1.5502321
1.54448 -0.49930099 1.554019
1.64009 -0.519382 1.574203
1.6516701 -0.50904399 1.57595
1.6795399 -0.50420099 1.5797751
1.6441499 -0.52030897 1.5667011
1.6654899 -0.51457298 1.571727
1.47954 -0.53482199 1.597342
1.48286 -0.51759899 1.5959289
1.4927601 -0.51107198 1.597417
1.51003 -0.50577998 1.599442
1.5008999 -0.58212101 1.599179
1.4988 -0.55971402 1.595896
1.48831 -0.53829104 1.5921839
1.4858099 -0.52163798 1.5897881
1.49849 -0.51429999 1.5911951
1.52025 -0.50964803 1.5952321
1.53534 -0.50522 1.5972561
1.50806 -0.58328497 1.5929471
1.4935299 -0.55919302 1.5880051
1.4854 -0.53582799 1.5836999
1.48733 -0.52135897 1.5819631
1.49701 -0.51303297 1.583168
1.51254 -0.50637901 1.585659
1.53283 -0.50268698 1.588879
1.49582 -0.57849902 1.581955
1.4908999 -0.55758798 1.5795461
1.48702 -0.53622103 1.57638
1.48563 -0.52094901 1.5739779
1.4980299 -0.51288199 1.5757021
1.51546 -0.50581402 1.5783581
1.54801 -0.50600797 1.584882
1.50401 -0.56169498 1.574756
1.48594 -0.53637904 1.5680859
1.4815899 -0.52005601 1.56576
1.49222 -0.51039904 1.566287
1.51134 -0.50367296 1.5691589
1.5320799 -0.501647 1.572953
1.53671 -0.49697497 1.572648
1.6140801 -0.51489902 1.590107
1.64649 -0.51331902 1.5958501
1.6581 -0.505346 1.5966921
1.49304 -0.55564803 1.564208
1.4817901 -0.53524798 1.5599049
1.4802099 -0.517905 1.557093
1.4922 -0.509525 1.55901
1.5125901 -0.50473499 1.5626919
1.56818 -0.51433396 1.5737939
1.61731 -0.52499098 1.583901
1.6158201 -0.51413202 1.5818131
1.6311001 -0.50658798 1.5842329
1.6520101 -0.50275099 1.587437
1.49432 -0.55679899 1.556579
1.48409 -0.53669703 1.552597
1.50288 -0.50051701 1.5521451
1.53317 -0.50339198 1.5576531
1.5567999 -0.50284201 1.561614
1.5861599 -0.50548303 1.566918
1.6380401 -0.510611 1.577737
1.6615601 -0.50625199 1.5823311
1.5413699 -0.50616002 1.5518421
1.5970399 -0.51653802 1.5628301
1.62035 -0.51664197 1.5669141
1.6464599 -0.51343298 1.5726351
1.66861 -0.50954199 1.574809
1.6164 -0.49646801 1.555885
1.4777 -0.52744001 1.59911
1.48203 -0.51564002 1.5975
1.4945101 -0.50688398 1.599357
1.4817799 -0.54726499 1.593873
1.48068 -0.52994096 1.590784
1.4837601 -0.51568002 1.590327
1.4917101 -0.50775903 1.591097
1.50683 -0.50146902 1.593082
1.5288901 -0.49584201 1.5958439
1.48879 -0.549411 1.587567
1.4821299 -0.53293997 1.583701
1.48686 -0.51704001 1.582999
1.49977 -0.51049703 1.5844861
1.5185699 -0.50788599 1.587113
1.53306 -0.500552 1.5888991
1.4698501 -0.56308603 1.5768449
1.47995 -0.546224 1.577136
1.48026 -0.53207803 1.575156
1.4865401 -0.517977 1.5748981
1.49649 -0.50649899 1.574749
1.51314 -0.50230002 1.576658
1.5572901 -0.50635999 1.586424
1.48824 -0.549384 1.5713201
1.47987 -0.52911401 1.566884
1.4852999 -0.517645 1.5669211
1.50025 -0.50840098 1.5681281
1.5216 -0.505027 1.571836
1.54405 -0.50359297 1.575477
1.5729699 -0.507976 1.580348
1.6048501 -0.507617 1.585958
1.62851 -0.50696802 1.590047
1.66356 -0.50845903 1.5960029
1.47611 -0.546817 1.5603931
1.47909 -0.53219503 1.5594411
1.48453 -0.51613098 1.5584041
1.4967901 -0.50703204 1.559689
1.52294 -0.50589502 1.563586
1.5564599 -0.50849402 1.570033
1.5760001 -0.50850201 1.572809
1.5928199 -0.50472403 1.574487
1.62063 -0.50488204 1.5796061
1.6525 -0.50272101 1.5835769
1.4855599 -0.548868 1.554621
1.4788901 -0.52538896 1.5510421
1.4816099 -0.51620698 1.550154
1.4924201 -0.50503397 1.5505569
1.51229 -0.50036699 1.5535941
1.55452 -0.50522 1.560954
1.58399 -0.51119101 1.566348
1.60507 -0.51160198 1.5689321
1.6320599 -0.50858998 1.573813
1.65504 -0.50365698 1.577356
1.67716 -0.500063 1.580578
1.6022201 -0.511563 1.560567
1.6318099 -0.50883096 1.565002
1.6575999 -0.50651699 1.5702499
1.47007 -0.53255498 1.593871
1.47843 -0.52062601 1.593652
1.48729 -0.510611 1.593927
1.5015601 -0.50444299 1.5963531
1.52159 -0.49844301 1.5982021
1.4722301 -0.53703201 1.5864431
1.47926 -0.521779 1.58576
1.49317 -0.51418096 1.5873109
1.5113699 -0.50893998 1.58921
1.52399 -0.50216901 1.590489
1.4698 -0.53180999 1.577209
1.47996 -0.51876599 1.57646
1.48972 -0.51132101 1.578063
1.5073199 -0.50441599 1.579921
1.5465199 -0.50783098 1.587585
1.4578 -0.55112201 1.5674729
1.47948 -0.534926 1.5710181
1.4750999 -0.52004099 1.567853
1.48706 -0.50852603 1.568153
1.5077699 -0.504291 1.5717751
1.5291001 -0.50115299 1.5750301
1.55676 -0.50596899 1.5796541
1.58559 -0.513026 1.5858411
1.6079299 -0.50796396 1.587757
1.63375 -0.50576699 1.591758
1.66616 -0.50698501 1.598145
1.67697 -0.50797904 1.598471
1.47916 -0.53368002 1.563287
1.4754601 -0.51864499 1.5596631
1.4851199 -0.50782901 1.560191
1.50183 -0.50179499 1.5620461
1.5269901 -0.49509299 1.565781
1.52686 -0.49691898 1.563862
1.57789 -0.51094604 1.574276
1.60615 -0.508192 1.5789731
1.63074 -0.50558603 1.582563
1.65811 -0.50473398 1.586267
1.46306 -0.532502 1.5509959
1.47373 -0.51658201 1.5536979
1.48395 -0.50864798 1.5525579
1.50622 -0.50222701 1.553859
1.53685 -0.50441301 1.559692
1.55898 -0.50805002 1.562683
1.5881799 -0.51430303 1.567899
1.6202 -0.513722 1.573714
1.6462899 -0.51092398 1.577058
1.6665199 -0.50902802 1.5789931
1.5347099 -0.501719 1.550851
1.56011 -0.51003301 1.553026
1.5878 -0.51484603 1.559124
1.61475 -0.51252997 1.5626249
1.64266 -0.50987101 1.5673691
1.6616499 -0.50968599 1.56988
1.6680599 -0.51514304 1.563472
1.47755 -0.54589999 1.598243
1.4717799 -0.530379 1.5956911
1.47598 -0.51868898 1.595631
1.49072 -0.51047796 1.598404
1.4878999 -0.56228399 1.59487
1.47338 -0.54442799 1.5898871
1.4727 -0.53064603 1.588593
1.47998 -0.52000803 1.5893891
1.4929401 -0.51238501 1.5920199
1.50957 -0.50444698 1.594952
1.48498 -0.56125802 1.586785
1.4821299 -0.54827601 1.5850121
1.47648 -0.53234798 1.582355
1.48208 -0.52081501 1.582697
1.49459 -0.51316899 1.5843589
1.50902 -0.50365198 1.587564
1.49314 -0.56460303 1.58153
1.4795599 -0.54703701 1.5773261
1.47729 -0.53230596 1.575327
1.47903 -0.51948899 1.574724
1.48929 -0.51029301 1.5761391
1.50668 -0.50321603 1.579481
1.49261 -0.56597 1.573902
1.48426 -0.54894298 1.5708549
1.4751199 -0.53096199 1.567162
1.4782801 -0.51949698 1.5672669
1.48765 -0.50906801 1.568753
1.50103 -0.500525 1.570985
1.49994 -0.56728697 1.5684911
1.47831 -0.54665601 1.562037
1.47192 -0.53041804 1.55969
1.47483 -0.518107 1.559513
1.4840199 -0.50747603 1.560516
1.49772 -0.500148 1.5627611
1.62001 -0.52522999 1.591306
1.6233701 -0.51263601 1.591599
1.65589 -0.50957 1.5981309
1.49761 -0.56673098 1.560551
1.4877901 -0.55070996 1.557023
1.4761 -0.53211397 1.55325
1.47405 -0.51797098 1.551906
1.4797 -0.50728804 1.5521561
1.4896801 -0.49710998 1.5538189
1.60131 -0.51901698 1.5789959
1.6216701 -0.51222497 1.5830001
1.6465801 -0.50615001 1.587842
1.67081 -0.49995399 1.5927341
1.5108099 -0.571217 1.556348
1.48852 -0.55055696 1.5501801
1.6194 -0.52584499 1.5755581
1.6221499 -0.51252997 1.574921
1.6622 -0.50958598 1.5831261
1.64496 -0.51952499 1.571919
1.666 -0.51196998 1.576411
1.65676 -0.52383202 1.567111
1.6753 -0.51438802 1.569545
1.52246 -0.50641102 1.5965461
1.5282401 -0.54788703 1.5958929
1.5255499 -0.56307799 1.598049
1.4921601 -0.46290299 1.598124
1.52068 -0.492789 1.5929829
1.5261099 -0.50848401 1.59261
1.52403 -0.52355999 1.59666
1.52396 -0.53610003 1.594854
1.52724 -0.54790503 1.588936
1.5345 -0.56547403 1.592926
1.4977901 -0.45224398 1.595338
1.50621 -0.466115 1.595193
1.5147799 -0.48047799 1.592437
1.52625 -0.49326 1.585439
1.5296899 -0.50847304 1.58453
1.52643 -0.524032 1.5906681
1.5302401 -0.53546 1.584205
1.53414 -0.54973 1.5843761
1.5430901 -0.56160402 1.5819341
1.4780201 -0.42048001 1.59398
1.48375 -0.43622398 1.594666
1.49078 -0.45098999 1.595163
1.50658 -0.46650398 1.586246
1.5229601 -0.48126 1.581957
1.5316499 -0.49463698 1.576584
1.53328 -0.50756502 1.5749099
1.53183 -0.52068901 1.5751041
1.53268 -0.53427297 1.574759
1.53733 -0.54977798 1.5764841
1.5649201 -0.566122 1.5760789
1.65724 -0.595402 1.555271
1.64493 -0.58578497 1.562888
1.46631 -0.41806301 1.58636
1.48271 -0.43552399 1.587906
1.4962801 -0.450735 1.579808
1.50456 -0.46744701 1.5839101
1.5165601 -0.480041 1.572865
1.52692 -0.49453202 1.5712669
1.53326 -0.507743 1.568562
1.53363 -0.52193999 1.569658
1.53503 -0.53700501 1.57241
1.53768 -0.547279 1.566713
1.5816901 -0.56220502 1.5578551
1.45469 -0.41957101 1.594815
1.47857 -0.433256 1.5769889
1.4771899 -0.44681302 1.5755881
1.49595 -0.46630099 1.57707
1.51 -0.47783002 1.5674241
1.5197001 -0.49202001 1.565448
1.5308 -0.50726503 1.562307
1.53737 -0.52338296 1.5644341
1.54021 -0.54145199 1.5700301
1.4826699 -0.46226299 1.5697881
1.5064501 -0.47578999 1.557888
1.52465 -0.490778 1.5554531
1.53622 -0.506724 1.553228
1.54173 -0.521505 1.5529131
1.5462601 -0.53363097 1.550349
1.48562 -0.46130198 1.5596831
1.51136 -0.47586799 1.5513201
1.4893601 -0.46241298 1.5503399
1.5212399 -0.50055301 1.599587
1.5302401 -0.54133397 1.596617
1.5316901 -0.553298 1.594449
1.52696 -0.56699598 1.59851
1.49061 -0.46822202 1.596736
1.5156701 -0.488051 1.5973719
1.52654 -0.500848 1.5911161
1.52965 -0.51513201 1.5898579
1.5291001 -0.528772 1.593194
1.5326899 -0.541291 1.5908501
1.53268 -0.55177504 1.584404
1.5326101 -0.568178 1.5922191
1.49577 -0.45529801 1.599092
1.4754601 -0.44007802 1.598485
1.5133901 -0.47435299 1.5897591
1.52235 -0.48827201 1.5891479
1.52527 -0.501104 1.5874699
1.5281199 -0.51530999 1.587234
1.5293801 -0.52904803 1.58801
1.5297799 -0.54120302 1.586138
1.53259 -0.55269098 1.581998
1.53356 -0.56057 1.5717109
1.66056 -0.60197902 1.5709041
1.64623 -0.59094501 1.5531571
1.4846699 -0.44201002 1.595004
1.49859 -0.45727298 1.59071
1.50972 -0.472433 1.587479
1.5216099 -0.487533 1.581331
1.5265499 -0.50157905 1.580719
1.53126 -0.51426101 1.5769591
1.53448 -0.527942 1.5767959
1.5330901 -0.54057997 1.5810161
1.53957 -0.55328399 1.574787
1.4628501 -0.422474 1.595301
1.47009 -0.43630299 1.586454
1.4918801 -0.45528302 1.5815581
1.5056 -0.470296 1.581044
1.5184801 -0.48615602 1.5743099
1.52946 -0.50097799 1.5710601
1.53567 -0.51525903 1.5700639
1.54168 -0.529414 1.56909
1.54524 -0.544227 1.575459
1.62412 -0.57850498 1.550302
1.5971899 -0.57596296 1.5632319
1.59507 -0.56503302 1.560562
1.47864 -0.45193601 1.577291
1.50281 -0.47142398 1.57828
1.52315 -0.48728502 1.5651331
1.53348 -0.50123698 1.5618891
1.53804 -0.51571202 1.5634421
1.54196 -0.52927399 1.5637211
1.54983 -0.54413104 1.563977
1.48394 -0.46476799 1.5694591
1.51511 -0.48431399 1.5573759
1.53382 -0.50075197 1.554687
1.54356 -0.51627702 1.557543
1.55055 -0.53157598 1.5591209
1.5719299 -0.54735297 1.5509109
1.4931599 -0.466692 1.5613761
1.5218201 -0.485668 1.5514951
1.5535001 -0.53102899 1.5501871
1.4987199 -0.466162 1.558743
1.5119901 -0.47014099 1.5524479
1.53119 -0.55126595 1.59824
1.52579 -0.562334 1.597811
1.5120701 -0.57205504 1.5985091
1.51565 -0.49642199 1.5930949
1.53114 -0.51340902 1.5915291
1.53236 -0.52640802 1.5931649
1.5353799 -0.54046702 1.5951871
1.5363901 -0.55215597 1.586904
1.5376601 -0.56613201 1.591332
1.52729 -0.49923098 1.5848241
1.5342101 -0.51374799 1.583161
1.53562 -0.52824599 1.58997
1.5376401 -0.54116499 1.590737
1.5450599 -0.55537599 1.5835071
1.5443699 -0.56364703 1.56864
1.46515 -0.415831 1.59806
1.51825 -0.48341 1.590281
1.50565 -0.46642503 1.593847
1.5331799 -0.50083697 1.5790911
1.53601 -0.51417899 1.5782561
1.5361301 -0.52714801 1.5801491
1.53817 -0.540986 1.5817889
1.55328 -0.55540001 1.560662
1.65108 -0.59988499 1.5514979
1.63858 -0.58935499 1.555159
1.46657 -0.41723901 1.59033
1.46281 -0.428065 1.5898399
1.45298 -0.438411 1.598828
1.51099 -0.46811402 1.590598
1.5165801 -0.48189801 1.57876
1.5268899 -0.49872899 1.57543
1.53387 -0.513331 1.573373
1.53927 -0.52758998 1.571269
1.54338 -0.54267699 1.581149
1.6222399 -0.57324904 1.5592281
1.4570799 -0.41242599 1.585471
