# .PCD v0.7 - Point Cloud Data file format
VERSION 0.7
FIELDS x y z
SIZE 4 4 4
TYPE F F F
COUNT 1 1 1
WIDTH 1346
HEIGHT 1
VIEWPOINT 0 0 0 1 0 0 0
POINTS 1346
DATA ascii
0.048981007 0.024077266 0.63529956
0.024660712 -0.0042864382 0.61160743
0.042346418 0.01318252 0.64171183
0.041196845 0.01321079 0.64726216
0.01307178 -0.010447743 0.62529492
0.0041514733 -0.010477086 0.62833995
-0.05674978 0.10225195 0.64022911
-0.040932059 0.077648059 0.61185557
-0.039717343 0.081482701 0.61358666
-0.075066879 0.097868286 0.63528258
-0.058035493 0.068095274 0.60588056
-0.050463479 0.064590357 0.6033749
-0.087864459 0.10690822 0.62527275
-0.088083439 0.12246674 0.61364269
-0.074427441 0.13423543 0.6070224
-0.056224138 0.13554159 0.60907996
-0.046197899 0.1337017 0.62437797
-0.045084089 0.12064976 0.63722885
-0.029789405 0.090707891 0.60274166
-0.030715676 0.096052155 0.60395956
0.011594751 0.047849685 0.64656264
0.014719843 0.051117219 0.64537859
0.021684663 0.051877979 0.63229948
0.026316492 0.05259528 0.63174564
0.035815306 0.044281986 0.62419993
0.039144978 0.042364247 0.62476915
0.046857469 0.027964741 0.6289705
0.046861362 0.01761725 0.64415538
0.050563537 0.02162339 0.64566803
-0.049816489 0.072166272 0.61127895
-0.046498552 0.072053507 0.61028904
-0.067612596 0.070271432 0.60093611
-0.068300702 0.074663639 0.60752839
-0.034386713 0.080064878 0.60727888
-0.03102967 0.080956899 0.60330808
0.035734627 -0.031508312 0.64615047
0.0037606771 -0.064038828 0.64142478
-0.041446302 -0.063765861 0.64167571
-0.072801471 -0.031042423 0.64065146
-0.071487442 0.013615906 0.63972956
-0.039911538 0.044201847 0.64295423
0.0038897174 0.043804474 0.64711171
0.034532893 0.013952981 0.64896178
-0.015213397 0.0055951416 0.6291576
-0.018895986 0.020618571 0.61751032
-0.010140089 0.028551845 0.60226208
0.015296318 0.051371232 0.64094609
0.028786147 0.050895575 0.62900114
0.039700337 0.038899995 0.62310457
0.022256831 -0.0036495749 0.60203761
0.047467273 0.019678036 0.63793236
0.01342266 -0.013990046 0.61610693
-0.0025012279 -0.0091534629 0.62895644
-0.043396045 0.074269809 0.6108079
-0.052552171 0.10900331 0.64206874
-0.065404579 0.074553318 0.61028922
-0.070193671 0.10002028 0.63988394
-0.085045658 0.10383017 0.62997091
-0.090290636 0.11867035 0.61903501
-0.081181742 0.1334857 0.61066008
-0.063915938 0.13959363 0.61081749
-0.049819063 0.13826932 0.62240875
-0.029755756 0.085259221 0.60242081
-0.044711631 0.126279 0.6352337
-0.070610605 0.12256993 0.66041142
-0.055204369 0.13506299 0.65622634
0.031810734 0.035711903 0.67778254
0.022543142 0.038569976 0.67108351
0.042594317 0.034274895 0.68177754
0.026610633 0.052445225 0.67511249
0.020242412 0.053095531 0.66205221
0.029915027 0.064192228 0.66295636
0.041927081 0.06623631 0.65096724
0.064218648 0.052381624 0.65125442
0.063425794 0.035670385 0.65721589
0.056982871 0.027523637 0.65919483
0.054105919 0.027683729 0.66940337
0.042741306 0.024086807 0.66967487
-0.094034493 0.15450844 0.68765068
-0.076044403 0.15999067 0.68788797
-0.096230112 0.14037439 0.6696918
0.034070656 0.0060786568 0.6828227
0.037480857 -0.0099308603 0.67833573
0.029730631 -0.04066756 0.68055028
0.020943709 -0.05309169 0.67222995
-0.0057082488 -0.068350427 0.67543882
-0.020881545 -0.070194289 0.66832817
-0.050503295 -0.062512979 0.67640191
-0.063412189 -0.051965818 0.67266798
-0.077607408 -0.024013184 0.66861629
-0.078875229 -0.0096922945 0.66862655
-0.069616377 0.019968951 0.66921061
-0.060635757 0.030897856 0.66976494
-0.035272788 0.044724654 0.67198718
-0.020587271 0.046484798 0.67537731
0.008146828 0.039029498 0.67456478
0.019483324 0.030756153 0.67565012
0.046856456 0.075273141 0.69602072
0.056124482 0.087576173 0.69448513
0.054156117 0.084798366 0.68401164
0.067396477 0.088666178 0.68131149
0.069638766 0.084106125 0.67534244
0.080971546 0.079230063 0.67642719
0.084205046 0.075112633 0.67720181
0.084967442 0.063176244 0.67755914
0.089820407 0.063096948 0.68621278
0.079408735 0.048665807 0.68596596
0.083232783 0.052862938 0.69730484
0.03598731 -0.025059016 0.67759281
0.0095185516 -0.06187069 0.67170852
-0.035108186 -0.068319879 0.66967881
-0.07301037 -0.038331486 0.67472094
-0.076206341 0.0061564543 0.67358994
-0.048537228 0.039394751 0.67354161
-0.0050426484 0.044072013 0.67798877
0.028240284 0.019876895 0.67724884
0.051807027 0.082860343 0.69577003
0.062136456 0.088495716 0.68351996
0.076447569 0.082512334 0.67607337
0.084323622 0.068718731 0.67604911
0.086529903 0.056435116 0.68796635
0.038674999 -0.00083615235 0.65346152
0.016208665 0.036481086 0.65231836
0.039311577 -0.016396891 0.65181535
-0.078598037 -0.028683798 0.69926977
-0.073052615 0.015101288 0.69909835
-0.048791748 0.038277499 0.69680685
-0.042702898 0.041130263 0.69317573
0.00098267442 0.039910991 0.69633943
-0.010772205 0.047505073 0.65109575
0.026549865 0.026493797 0.65317875
0.012123317 0.027313918 0.65879995
0.0091491444 0.027834736 0.65600717
0.052234478 0.044879448 0.69499356
0.055938795 0.045101486 0.69633353
0.038574815 0.056068536 0.69044501
0.03780289 0.048619449 0.68824071
0.03772486 0.069734529 0.68035066
0.033656936 0.063350216 0.68023992
0.075770564 0.098887965 0.69585973
0.047061898 0.075931802 0.66756403
0.040415641 0.072545141 0.66748548
0.061286755 0.070641994 0.6591872
0.054845553 0.071545497 0.65819412
0.074880131 0.060609672 0.66444016
0.076083437 0.064682283 0.66645056
0.075321332 0.046278287 0.67345691
0.078424044 0.050519858 0.67477345
0.066001631 0.039610285 0.68600273
0.07027673 0.042083226 0.68684751
0.027059726 0.016874395 0.66061056
0.026233379 0.023044679 0.6660735
0.022273229 -0.050145406 0.69914818
0.018079421 -0.054743201 0.69921964
-0.017063841 -0.071007676 0.6946907
-0.023259923 -0.071297847 0.69530612
-0.060232326 -0.057760645 0.69851202
-0.080128588 -0.017936075 0.69239807
-0.080570824 -0.011472851 0.69759089
-0.066786543 0.024265803 0.69262427
-0.062564433 0.028735695 0.6972754
0.044885729 0.050565869 0.69492722
0.045742106 0.047748227 0.69398421
0.018362157 0.020368433 0.6604048
0.017505143 0.02327561 0.66158915
0.011155057 0.034677207 0.65829563
0.01178493 0.039182749 0.65807784
0.037104998 0.06467475 0.68607461
0.041015342 0.066705495 0.69176328
0.042601265 0.075176023 0.67374748
0.045542892 0.078074895 0.67987937
0.058111981 0.078075498 0.66678876
0.055784691 0.078378059 0.66750878
0.071736991 0.065981872 0.6627695
0.069027923 0.068084925 0.6616587
0.074219957 0.052689854 0.66441453
0.075698398 0.050894849 0.66811818
0.069656625 0.039537877 0.67455727
0.069268182 0.039634615 0.67916042
0.034037769 0.013307828 0.65548557
0.028839078 0.0098873423 0.65191662
0.038852412 0.015964033 0.65760827
0.055966154 0.040132299 0.6906637
0.057483062 0.037569676 0.68700832
0.013691296 -0.05867137 0.6953482
-0.029236848 -0.070708506 0.69215161
-0.079644233 -0.0028250527 0.69997859
-0.05606899 0.033936724 0.698111
0.021736609 0.024229171 0.69996536
0.0150144 0.025562041 0.66078132
0.048582822 0.045861296 0.6942758
0.042005878 0.064293131 0.69419295
0.010140505 0.040995352 0.65440553
0.044304263 0.076875694 0.68297666
0.055035081 0.079855777 0.67031729
0.06861221 0.071360834 0.66346747
0.074278854 0.056355938 0.66364807
0.072213344 0.042302076 0.67324263
0.037362676 0.012009419 0.6503973
0.061423693 0.037857916 0.68598229
0.025667291 0.010233066 0.65289593
-0.082791366 0.15138423 0.68522233
-0.067974523 0.16162799 0.68073994
-0.086817421 0.13227883 0.66773319
0.073633395 0.093887039 0.72839302
0.031277269 -0.016286608 0.74386901
0.027132669 0.0062354994 0.74108624
0.014643836 -0.05658298 0.73202127
-0.005840546 -0.069419444 0.74519277
-0.02619643 -0.072507121 0.72808337
-0.049426328 -0.068307444 0.74457377
-0.06665691 -0.055677146 0.73556131
-0.078242168 -0.03708753 0.73182493
-0.082498595 -0.015283536 0.73100078
-0.078046158 0.0065143374 0.73101884
-0.06589438 0.025112581 0.72931319
-0.047378834 0.03778642 0.7231403
-0.026765428 0.041430078 0.74260795
-0.0039012085 0.038529616 0.72719467
0.014762768 0.025366735 0.73748428
0.057302434 0.058453366 0.70774335
0.051408794 0.061727133 0.70467097
0.05196666 0.075387619 0.70536679
0.069235742 0.048170932 0.70066911
0.066830464 0.052022737 0.70587498
0.061377611 0.053965524 0.70648891
0.051516205 0.069481283 0.7059074
0.07751222 0.050697181 0.70077688
0.069652714 0.070016898 0.72156036
0.065572172 0.070440039 0.71910316
0.061580207 0.083875217 0.71607679
0.059291381 0.084316477 0.71212924
0.066579998 0.09660852 0.70686591
0.065942295 0.095863603 0.7021423
0.083546452 0.059679147 0.71403998
0.079784006 0.060261995 0.71581054
0.031564668 -0.031073598 0.71137673
0.025562244 -0.044030767 0.71455318
0.0032625857 -0.065059096 0.70433497
-0.010028164 -0.070100248 0.709171
-0.04093558 -0.068592362 0.70285755
-0.053908277 -0.063309573 0.71090657
-0.075459972 -0.037753195 0.70137447
-0.07710427 0.0063223201 0.70065868
-0.0053765266 0.041752353 0.70138317
0.0269765 0.014993375 0.70776427
0.030805182 0.0060698069 0.71012378
0.07025411 0.066385016 0.71966201
0.060706571 0.080343463 0.71594477
0.063471414 0.093612932 0.70666331
0.03340039 -0.0032648863 0.71025932
0.034590609 -0.01215842 0.70842898
-0.065426178 -0.053104032 0.70148313
-0.032827161 0.043421913 0.70184523
-0.023534311 0.044091489 0.70603186
0.0098916674 0.034339044 0.70220709
0.016734084 0.028828451 0.70357168
0.034822881 -0.019000618 0.70327872
-0.070901424 -0.046124063 0.70206261
-0.014041524 0.04349057 0.70490223
0.077430099 0.065228984 0.72106361
0.0643766 0.076986492 0.71985984
0.062242039 0.090485774 0.71110958
0.025580965 -0.039461508 0.75168908
0.010003366 -0.060026672 0.7995671
-0.0020577095 -0.06908641 0.79972905
-0.030658975 -0.076341689 0.79510432
-0.045425151 -0.074268907 0.79615474
-0.069901593 -0.060214076 0.79421055
-0.078359596 -0.049472161 0.79304588
-0.086920202 -0.020687247 0.79178935
-0.085614689 -0.0067616566 0.79246145
-0.071173921 0.020432018 0.79190862
-0.058074266 0.030771861 0.78990322
-0.014640172 0.036266688 0.79579687
0.020906396 0.0071083698 0.79857957
-0.01485642 -0.07422483 0.79482365
-0.057885181 -0.068819769 0.79262698
-0.083863288 -0.03609724 0.7875942
-0.080283172 0.0071970625 0.78795856
-0.044014964 0.036327537 0.79813731
0.0269065 -0.0025036358 0.77430403
0.023766188 0.0066313343 0.77187693
0.021990407 -0.044458676 0.77710831
0.024182608 -0.039049465 0.78309274
-0.011455429 -0.072215259 0.77152067
-0.0058536208 -0.070305772 0.77708262
-0.054646399 -0.068203114 0.77022272
-0.049317349 -0.071014978 0.77469981
-0.081184976 -0.036549721 0.76163357
-0.077542819 -0.045182988 0.76386964
-0.079202421 0.0068454663 0.76153916
-0.082584821 -0.0021017494 0.762936
-0.045010097 0.037147086 0.76539612
-0.056643918 0.032139421 0.75566465
-0.001246603 0.033358075 0.76774806
-0.013713383 0.038561705 0.76265907
0.027541595 -0.02848934 0.77851099
0.028681708 -0.019711139 0.77792794
0.0042208857 -0.06463024 0.77101594
0.011897689 -0.058433581 0.76906079
-0.038425427 -0.073582254 0.76766837
-0.028700763 -0.074444279 0.76484394
-0.072472662 -0.054107502 0.77125245
-0.067827977 -0.058627781 0.76747733
-0.084999561 -0.012670534 0.76914698
-0.084809184 -0.019005358 0.76395983
-0.064574949 0.026460327 0.76692617
-0.069271214 0.021949043 0.76321399
-0.022873422 0.039238885 0.77632248
-0.028833481 0.039570257 0.77507204
0.019061763 0.015039029 0.7713815
0.013342786 0.021993298 0.77259219
0.028266357 -0.013209537 0.78188926
0.017846739 -0.051495742 0.77207285
-0.019513749 -0.073931165 0.76710099
-0.061476845 -0.063852131 0.76775831
-0.083666936 -0.027526354 0.76182443
-0.074597567 0.015096757 0.7617076
-0.035119507 0.038968999 0.77737486
0.0078132246 0.026543064 0.77700078
-0.075291887 -0.061818589 0.84912711
-0.091214985 -0.021893496 0.84805447
-0.03280326 -0.021995749 0.84794211
0.026774636 -0.020922096 0.80582762
0.02456856 -0.034793016 0.80548167
-0.030402487 0.038072456 0.80102772
0.011225308 0.020340754 0.80173331
0.025509305 -0.0070047406 0.80452853
0.019593574 -0.047372606 0.80000347
-0.00032639719 0.029657254 0.80084372
0.024590597 -0.021453192 0.83175957
0.024287082 -0.028568534 0.82817078
0.0079115145 -0.06142623 0.82721829
0.0024776834 -0.066178069 0.82325566
-0.032863274 -0.077871151 0.82262254
-0.04000337 -0.077069446 0.81894433
-0.072448067 -0.061037112 0.82015336
-0.076777361 -0.055564117 0.81633985
-0.088886134 -0.02127395 0.81863558
-0.088275403 -0.013982517 0.81553733
-0.072727464 0.019142924 0.81994784
-0.066681676 0.024540061 0.81673175
-0.032582685 0.036302336 0.82678717
-0.024711497 0.036058493 0.82300401
0.0082488237 0.019299252 0.82921332
0.013673615 0.013492418 0.8254509
0.024523504 -0.014163801 0.82810146
0.013202467 -0.055466857 0.82426488
-0.024919443 -0.077212632 0.81946671
-0.066569962 -0.065672725 0.81679338
-0.087881319 -0.02867244 0.81436241
-0.077437073 0.013345479 0.81548995
-0.039479882 0.036011539 0.82256866
0.0030027928 0.024452705 0.82541764
0.020405125 6.5572829e-05 0.83117509
0.020053664 -0.042760834 0.83088821
-0.010872765 -0.073631942 0.82603699
-0.054415524 -0.073178813 0.82232457
-0.084266119 -0.043029409 0.81941622
-0.084883481 3.9060713e-05 0.81991124
-0.053976711 0.03178684 0.82397348
-0.010557608 0.03174204 0.82848662
0.021517035 -0.022088936 0.86027008
0.0050679664 -0.062489323 0.85719997
-0.035532951 -0.079038911 0.85258693
-0.074747853 0.017746126 0.85025156
-0.035289008 0.034346513 0.85529315
0.0046580732 0.017995331 0.8588559
-0.020167829 0.0056919958 0.88431984
-0.022070058 -0.0019715601 0.85974789
-0.045991234 -0.042609077 0.85511965
-0.054363955 -0.05242734 0.87731338
-0.017933628 -0.076065287 0.89902139
-0.039982144 -0.080410831 0.8967253
-0.061890356 -0.075771034 0.89449167
-0.080181509 -0.062987827 0.89277613
-0.092053205 -0.044239137 0.8916378
-0.095829658 -0.022520982 0.89141482
-0.091148116 -0.0011376826 0.89197659
-0.078820959 0.016738228 0.89338702
-0.060806349 0.028609456 0.89539278
-0.03968979 0.032745231 0.89770252
-0.018529249 0.028644431 0.8998152
0.037683614 -0.033264499 0.89891237
0.054335743 -0.042519528 0.89454198
0.036857288 -0.033923112 0.87485766
0.047948353 -0.046005815 0.87025005
0.031606115 -0.052924655 0.85840631
0.036537431 -0.064870164 0.85828912
0.030514643 -0.080507055 0.86170167
0.020147664 -0.084457301 0.86689359
0.0075514656 -0.088202387 0.88998514
0.043815862 -0.035491806 0.88491213
0.044230994 -0.051560652 0.86391675
0.031277306 -0.070654713 0.85831523
0.019086024 -0.090320125 0.87490922
0.012689528 -0.089343317 0.89878964
0.013217155 -0.015858347 0.89249921
0.028981805 -0.025556825 0.89052516
0.0115213 -0.018716196 0.86876535
0.01751468 -0.025466183 0.86604851
0.0038136726 -0.037912391 0.85334998
0.0077441004 -0.045577917 0.85339862
-0.0021249491 -0.066177614 0.85911924
-0.0110358 -0.066303417 0.86188531
-0.011881696 -0.077131577 0.88122886
-0.020299591 -0.072854921 0.88548106
0.060475826 -0.047825832 0.88207614
0.015053761 -0.016065551 0.88458693
0.023560841 -0.034091864 0.86305636
0.012292521 -0.054877378 0.85443372
-0.0018785257 -0.080902085 0.87657672
0.011720365 -0.015440149 0.87568158
0.0077547128 -0.031269062 0.85659653
-0.0023580615 -0.054800905 0.85393494
-0.014623011 -0.070591353 0.86882192
-0.020593809 -0.071327418 0.89384186
0.00944083 -0.012564376 0.8879742
-0.021286404 -0.070671223 0.87570882
0.0060822843 -0.022181727 0.86082834
-0.0046940763 -0.04360858 0.85163593
0.012201622 -0.02287223 0.94107091
-0.0036750482 -0.063265398 0.93987221
-0.043976083 -0.080539227 0.93596315
-0.084427543 -0.06346947 0.93183279
-0.1003691 -0.022711053 0.9299953
-0.083035797 0.016861117 0.93140876
-0.043560863 0.032591075 0.93514985
-0.0045615234 0.016346129 0.93906105
-0.018759701 -0.031302955 0.9493503
-0.02418372 -0.029927665 0.92887759
-0.04186387 -0.025339114 0.91871518
-0.061245333 -0.020279709 0.9239279
-0.071979195 -0.017452927 0.94158578
-0.041844491 -0.024937859 0.91438013
-0.02840713 -0.0038947344 0.90703493
-0.052683502 -0.045128997 0.90214843
0.016689606 -0.022767309 0.90319657
0.012781492 -0.044652969 0.90255886
0.012013514 -0.0012227541 0.90279001
0.00064445753 -0.0634313 0.90111142
-0.00040019967 0.016750155 0.90158546
-0.036218818 -0.084859014 0.93624586
-0.042835079 -0.096024394 0.93122643
-0.051644672 -0.084232695 0.92196077
-0.059721038 -0.090679869 0.92085785
-0.073650427 -0.090008937 0.92299336
-0.079249166 -0.083024517 0.92736381
-0.088247918 -0.088181995 0.94029379
-0.086346805 -0.075726986 0.94674635
0.029644601 -0.075724818 0.92025751
0.02243335 -0.061894957 0.92087251
0.034372609 -0.051054735 0.91815048
0.042418301 -0.048444122 0.91455722
0.02027661 -0.090034381 0.90638012
0.0090354094 -0.079394653 0.91028756
-0.036028765 -0.090682223 0.94385833
-0.047800072 -0.093931839 0.92586261
-0.065528981 -0.087791175 0.92077893
-0.084376611 -0.083194651 0.93364018
0.031117521 -0.057549272 0.92055774
0.037104357 -0.037984829 0.90747589
0.016292289 -0.077391721 0.91530955
-0.030586058 -0.072868906 0.94993836
-0.029970638 -0.061094355 0.93354958
-0.033747867 -0.068391755 0.93113148
-0.046173532 -0.058602605 0.92020649
-0.050964527 -0.064665057 0.91972095
-0.069849066 -0.06075928 0.92342925
-0.071923301 -0.053912662 0.92591572
-0.082116425 -0.057994634 0.94212544
-0.080629349 -0.050075762 0.94540119
-0.0011293652 -0.053463526 0.91853458
-0.0047088335 -0.046396382 0.91863865
0.018249441 -0.036986414 0.91484541
0.013126289 -0.028395142 0.91092551
-0.011884696 -0.070798688 0.90504152
-0.016742988 -0.065508649 0.90732169
-0.043235768 -0.11364754 0.94297427
-0.041907866 -0.10708117 0.94004124
-0.027669702 -0.064092226 0.94552153
-0.054985061 -0.11668614 0.92653257
-0.055822428 -0.1097785 0.92462528
-0.037431605 -0.069768593 0.92742324
-0.074586727 -0.1157326 0.92258137
-0.081529021 -0.1199014 0.92465109
-0.055922996 -0.065115012 0.91936612
-0.085261799 -0.10941909 0.92831481
-0.088547453 -0.11037512 0.9316265
-0.081151202 -0.059569582 0.93737489
-0.091803066 -0.10090179 0.94491911
0.0017757569 -0.04502029 0.91896629
0.057229616 -0.048011962 0.90503502
0.0079804827 -0.021183811 0.9068504
-0.0054289154 -0.07740888 0.90110415
-0.011119998 -0.065447152 0.91053027
-0.044066794 -0.10972652 0.93643415
-0.049792629 -0.12426942 0.93421668
-0.061491594 -0.11296403 0.92293406
-0.065508343 -0.11285311 0.92210937
-0.082190752 -0.10768101 0.9261604
-0.093115039 -0.10800287 0.9425841
-0.094114617 -0.11494354 0.94019186
-0.027607899 -0.060684562 0.93917799
-0.044840317 -0.12022188 0.94710845
-0.040876176 -0.060375687 0.92265248
-0.052937735 -0.12164351 0.92943478
-0.061660629 -0.057955202 0.9201678
-0.067679852 -0.10906488 0.9217205
-0.076037429 -0.052482441 0.93079931
-0.091013126 -0.10773974 0.93640876
0.0021652612 -0.034410536 0.91665292
0.008680068 -0.016506327 0.9002288
-0.010602203 -0.057654109 0.91499275
0.00112237 -0.025386551 0.91281408
-0.023393558 -0.066371404 0.90083712
-0.1062098 -0.021732405 0.9984234
-0.089320198 0.018483868 0.99885988
-0.05079313 -0.037035845 0.98929292
-0.05097831 -0.022066105 0.98264289
-0.051527608 -0.0067251879 0.98807549
-0.049400102 -0.023307281 0.9730069
-0.029378599 -0.028523425 0.96772379
-0.067226358 -0.018664327 0.96222591
0.0083343675 -0.022286071 0.97468364
0.0043448415 -0.043672003 0.97482222
0.0040430687 -0.0011846144 0.97387147
-0.0075554806 -0.062092066 0.9741838
-0.025660869 -0.074713767 0.97283483
-0.0472982 -0.07939481 0.9709785
-0.069070421 -0.075280204 0.96899766
-0.087561063 -0.062928043 0.96718812
-0.099836394 -0.044286191 0.96584183
-0.10393362 -0.022323754 0.96515864
-0.099244334 -0.00054363307 0.96518373
-0.086599834 0.017628221 0.96596569
-0.068119437 0.029453579 0.96728581
-0.046710324 0.033268437 0.96902472
-0.025615178 0.028753757 0.97082883
-0.0078789592 0.01664816 0.97253495
-0.13238721 -0.04274429 0.9981758
-0.14973378 -0.038613319 0.99006915
-0.14408641 -0.032011669 0.98487091
-0.16038553 -0.025743464 0.98296505
-0.14269873 -0.016657829 0.98390877
-0.13544481 -0.0085286051 0.98886627
-0.15573743 -0.0050162515 0.99557644
-0.091649249 -0.12565455 0.96338689
-0.08769314 -0.041872814 0.9954378
-0.11062329 -0.039393935 0.99099976
-0.19253831 -0.040094201 0.99113292
-0.1757845 -0.035392527 0.98658866
-0.090584472 -0.03060912 0.9840278
-0.11848135 -0.025999639 0.98283327
-0.1940638 -0.026309233 0.98243088
-0.18747015 -0.020193176 0.98285669
-0.11286534 -0.011942125 0.98543483
-0.097298793 -0.0079166591 0.98786706
-0.17640567 -0.0091509251 0.98946297
-0.19411634 -0.0072515486 0.99296683
-0.1166859 -0.0025926379 0.99788743
-0.072750151 -0.092051856 0.97099185
-0.063637391 -0.0831526 0.97271532
-0.052081633 -0.089189857 0.97063434
-0.047896504 -0.094922438 0.96736711
-0.036349587 -0.086106732 0.9560222
-0.039397772 -0.10089395 0.95088905
-0.085421607 -0.086861141 0.95938146
-0.079964399 -0.076167263 0.96373338
-0.17252192 -0.04216006 0.99608785
-0.11719652 -0.034926061 0.98654199
-0.19616944 -0.032158338 0.98406351
-0.098226517 -0.017110649 0.98304331
-0.173033 -0.01331379 0.98578084
-0.095954381 -0.0034569649 0.99345905
-0.18894821 -0.0055048168 0.99787909
-0.058292799 -0.088940576 0.97232598
-0.040814236 -0.088225588 0.96254706
-0.086294919 -0.07996913 0.95353669
-0.076933756 -0.08159522 0.96753377
-0.062387511 -0.062412798 0.97251743
-0.057719134 -0.0579453 0.97322565
-0.042847097 -0.068449534 0.96945459
-0.038777113 -0.068504892 0.96666819
-0.028469117 -0.06282904 0.95386642
-0.07785362 -0.058522724 0.96151888
-0.074970439 -0.052535299 0.96350622
-0.06311921 -0.10958845 0.97176409
-0.059591632 -0.10700291 0.97112501
-0.055299986 -0.062789083 0.97327948
-0.046777952 -0.11108973 0.96129149
-0.04384879 -0.10604765 0.95897681
-0.034430064 -0.061548859 0.96449894
-0.092537299 -0.10486636 0.95019931
-0.07995379 -0.058626603 0.9578374
-0.082564466 -0.11071625 0.96804309
-0.080013745 -0.12059343 0.97055823
-0.073748462 -0.056866352 0.96576679
-0.075888798 -0.11495367 0.97146654
-0.07170973 -0.10791476 0.97201592
-0.057174344 -0.11491033 0.96925467
-0.054424059 -0.1183124 0.96700162
-0.043546177 -0.11034983 0.95563293
-0.046693858 -0.12415327 0.95287633
-0.088714711 -0.10598037 0.9610666
-0.085932329 -0.098645598 0.9625302
-0.09155304 -0.11266427 0.95901048
-0.047552519 -0.060358703 0.97231293
-0.067190222 -0.11018964 0.97222954
-0.030312667 -0.060146395 0.95960706
-0.050539192 -0.11578311 0.96423423
-0.080016173 -0.049759258 0.9514274
-0.091255866 -0.10483109 0.95551097
-0.067725182 -0.055683944 0.96985376
-0.083518915 -0.098544225 0.96510625
-0.085006289 -0.039054103 0.99054676
-0.20124479 -0.037200373 0.98729169
-0.089477025 -0.023977468 0.98240542
-0.090025686 -0.010643326 0.98561424
-0.090770841 -0.0011380003 0.99905634
-0.11749426 -0.030960824 0.98425478
-0.090797387 -0.036547024 0.98779708
-0.16921526 -0.031358201 0.98438001
-0.12995838 -0.02131629 0.98277169
-0.12623172 -0.0046002832 0.99374294
0.0056815394 -0.021528542 1.0058981
-0.010583038 -0.060793824 1.0056427
-0.0498203 -0.077695511 1.0032157
-0.089479432 -0.061745826 1.0001982
-0.049139027 0.034430951 1.0012498
-0.010078396 0.017516503 1.0041029
-0.065523148 -0.022176983 1.0438319
-0.051886205 -0.017721204 1.0386688
-0.038278446 -0.01400197 1.0445516
-0.052324228 -0.02020281 1.0258334
-0.051759176 -0.03604766 1.020079
-0.051113501 -0.043049898 1.0047879
-0.052144952 0.00059935509 1.0028661
-0.052479632 -0.0049285288 1.0186653
-0.20634019 -0.024866173 1.0190187
-0.19612685 -0.03827602 1.0137887
0.0040377495 -0.02109685 1.0367759
-0.0004770798 -0.042105071 1.0367016
0.00023453671 -2.2351263e-05 1.0365368
-0.030535521 -0.071934663 1.0354236
-0.05147016 -0.076270796 1.0343652
-0.072370626 -0.072364487 1.0332805
-0.090284668 -0.060698848 1.0322514
-0.10263701 -0.042838819 1.0316447
-0.10724398 -0.021384101 1.0313195
-0.10319935 0.00034028507 1.0313593
-0.090967707 0.018846223 1.0317713
-0.072534233 0.031082297 1.0327555
-0.050841805 0.035148818 1.0339209
-0.029350789 0.030518301 1.0350221
-0.011431623 0.018083157 1.0359238
-0.087363981 0.068703637 1.0489123
-0.07770434 0.067310005 1.0465497
-0.069101691 0.070870265 1.0493037
-0.13778387 -0.02286428 1.0229037
-0.13828492 -0.029883632 1.0217953
-0.15090586 -0.016942229 1.0213225
-0.1468198 -0.035837609 1.0182736
-0.13167085 -0.040578075 1.0132426
-0.15074696 -0.043010265 1.0061445
-0.13189517 -0.0026476814 1.0038428
-0.15672284 -0.0052310359 1.0098933
-0.13947847 -0.0098478002 1.0179592
-0.072885931 0.026320765 1.0439252
-0.065226108 0.026125643 1.0425622
-0.089364812 0.10525984 1.0496897
-0.057240065 0.040391073 1.0477291
-0.049944073 0.025678735 1.0485359
-0.16884299 -0.022070542 1.0213773
-0.16594362 -0.026507754 1.021385
-0.11848567 -0.017430933 1.0230957
-0.10157648 -0.021447252 1.0243976
-0.097999439 -0.030643299 1.0227962
-0.11551009 -0.036112145 1.018929
-0.17108755 -0.036646646 1.016729
-0.16376424 -0.038876098 1.0147605
-0.089435436 -0.041920185 1.0116112
-0.11524683 -0.043235928 1.0061834
-0.1807681 -0.042593807 1.0068325
-0.17097843 -0.043220073 1.0015279
-0.097719423 -0.00099190406 1.0025988
-0.17111272 -0.0043966295 1.0022705
-0.19417918 -0.006046684 1.0058094
-0.11881052 -0.0047241887 1.0134929
-0.10039636 -0.0067632427 1.0178618
-0.17841406 -0.0093665579 1.0140903
-0.18043146 -0.014799138 1.0183635
-0.083229385 0.043475214 1.0484771
-0.058330424 0.027999353 1.0439428
-0.11398339 -0.025956947 1.0235955
-0.1776109 -0.019511858 1.0204407
-0.17240041 -0.032469217 1.0193331
-0.096269041 -0.038522396 1.017048
-0.16603324 -0.041233357 1.0110841
-0.095219225 -0.043483101 1.0019952
-0.096141696 -0.0018106521 1.0096685
-0.18873122 -0.0077050366 1.0105996
-0.097908765 -0.012426038 1.0222505
-0.092798881 -0.017758997 1.024333
-0.090706885 -0.035637103 1.0200047
-0.088030845 -0.043398146 1.0061253
-0.092115998 -0.0041277548 1.0151534
-0.091745228 -0.024627838 1.0245868
-0.12615108 -0.0032675865 1.0092783
-0.076871879 0.01001454 1.0482241
-0.050769296 0.020248575 1.0458078
-0.19542499 -0.0054497342 1.0009801
-0.07679031 0.018236987 1.0466367
-0.12708905 -0.013955994 1.0214462
-0.12530786 -0.033311572 1.0206558
-0.012653331 -0.059913475 1.0362128
0.0027705119 -0.021550788 1.0698252
-0.014041516 -0.059989259 1.0687788
-0.052533172 -0.07586126 1.0672282
-0.090696417 -0.060558792 1.0656015
-0.10773069 -0.021639485 1.0658871
-0.091849893 0.018218588 1.0661476
-0.052331224 0.03464137 1.0688833
-0.012589965 0.017610632 1.070032
-0.05815275 -0.0087202694 1.0983394
-0.049879812 -0.020325482 1.0925612
-0.043157782 -0.0332205 1.0978305
-0.052196421 -0.020386612 1.0789119
-0.066176578 -0.024207572 1.0725855
-0.07181967 -0.024980685 1.0578281
-0.032344747 -0.01313445 1.0588911
-0.038144447 -0.01579589 1.0732777
-0.09523087 0.11921822 1.0855085
-0.10413455 0.10647687 1.0790414
-0.11282796 0.12374413 1.0688967
-0.10071418 0.14256887 1.0518986
-0.08649537 0.13754889 1.0562564
-0.08151114 0.13912535 1.0685164
-0.086858109 0.13786031 1.0811898
-0.075701877 0.056212109 1.083562
-0.082111657 0.057309549 1.0824857
-0.072466686 0.066435829 1.0833465
-0.088385314 0.058406908 1.0792763
-0.089832045 0.046790853 1.0728304
-0.096911281 0.065446474 1.0679153
-0.092191152 0.050559498 1.0591849
-0.093901046 0.070085429 1.053957
-0.058493007 0.055441827 1.0526069
-0.062817439 0.077949256 1.0601089
-0.055537611 0.058356244 1.0662255
-0.064397618 0.080171078 1.0739127
-0.064259149 0.063808583 1.0793856
-0.082547568 0.084371999 1.0847728
-0.086045183 0.081744052 1.0843503
-0.066439651 0.038376752 1.0824416
-0.065793119 0.02399441 1.0818666
-0.073864281 0.020828906 1.0794582
-0.08194714 0.030908898 1.0764035
-0.096030615 0.082936339 1.0798714
-0.096254855 0.076008603 1.0772458
-0.080583937 0.0090891412 1.06758
-0.088141568 0.033057619 1.0648099
-0.10418046 0.093030006 1.0711865
-0.10231899 0.084929146 1.0655264
-0.079924844 0.010366854 1.0526798
-0.084157571 0.033831254 1.0511261
-0.10529993 0.10539363 1.0587368
-0.099576786 0.098987736 1.0537244
-0.083500475 0.1049173 1.0504616
-0.071403012 0.093370125 1.0549695
-0.074372321 0.11177813 1.0605458
-0.05099861 0.043810077 1.059442
-0.045212425 0.027460685 1.0623537
-0.067960888 0.096634276 1.0678518
-0.074351475 0.11295039 1.0740069
-0.05449431 0.045724988 1.0740372
-0.052027639 0.028475583 1.0765043
-0.073406965 0.09793669 1.0793501
-0.078752965 0.097341157 1.0832261
-0.072974779 0.035179701 1.081997
-0.082317457 0.092796318 1.0847391
-0.09283416 0.085830681 1.0826585
-0.079375856 0.015013143 1.0732729
-0.09915705 0.078789771 1.0738579
-0.083296441 0.015592589 1.0592088
-0.10198372 0.08753714 1.0609914
-0.095194437 0.10488154 1.0507374
-0.077681236 0.10219669 1.0525923
-0.046072043 0.024760263 1.0536773
-0.071575634 0.10693564 1.0642048
-0.045957714 0.02568195 1.0687636
-0.074481919 0.10765761 1.0772756
-0.05760758 0.02587229 1.0803705
-0.081445396 0.0083197318 1.0623257
-0.060492419 0.017190333 1.0813154
-0.075705551 0.010879667 1.0757018
-0.043286331 0.020998271 1.058498
-0.047312666 0.021246014 1.0734144
-0.066364251 0.015139162 1.0809896
-0.05447571 0.050857309 1.0563415
-0.054866251 0.052788243 1.0708325
-0.10824862 0.1348238 1.0829701
-0.002463659 -0.025252776 1.1485443
-0.055172794 -0.079019971 1.1490152
-0.094934523 -0.063253172 1.1463161
-0.09405005 0.013877762 1.1476493
-0.055705689 -0.024564732 1.1326611
-0.062555559 -0.011334471 1.126954
-0.063607097 -0.0046481583 1.1125146
-0.041913766 -0.040119465 1.1118736
-0.047142301 -0.036532607 1.1264526
0.00081439427 -0.023031395 1.1068001
-0.0037033926 -0.043554537 1.106557
-0.0029732038 -0.0022855191 1.1079953
-0.015614888 -0.060829312 1.1062968
-0.033128466 -0.072488949 1.1055943
-0.053639162 -0.076650061 1.1046996
-0.074256353 -0.072736971 1.10375
-0.10288583 -0.046252001 1.1009876
-0.1089419 -0.023228383 1.111199
-0.10352697 0.001036341 1.1018996
-0.092699468 0.016505204 1.1035814
-0.077236898 0.02751804 1.1032326
-0.054280538 0.032166146 1.1137913
-0.030840369 0.027669638 1.1048447
-0.015117165 0.016037118 1.1098522
0.01287104 0.017608447 1.1468827
0.012348116 0.024226665 1.1463605
0.023765024 0.017123802 1.1475097
0.012044947 0.030912807 1.1436882
0.00082725962 0.029943679 1.1361301
0.017662466 0.042072784 1.1335511
0.0048611136 0.034321267 1.1228499
0.023073377 0.040706757 1.1193693
0.023309389 0.034280185 1.1138847
0.024822814 0.024309171 1.1107124
0.035557263 0.020789849 1.1145259
0.020372167 0.0047044614 1.1146837
0.03995876 0.013275648 1.1247114
0.02180838 0.0002748195 1.1282673
0.040254515 0.013745257 1.1388916
0.023716405 0.0088453162 1.1426909
-0.002081505 0.0041065994 1.1432642
-0.015962884 -0.00017489943 1.1411574
-0.020973794 0.0070943795 1.1389961
-0.012955438 0.017847402 1.1375432
0.033977669 0.044600949 1.1473228
0.027372828 0.043283947 1.1439899
-0.033279795 0.011740217 1.1263678
-0.011561834 0.025504036 1.1265386
0.035550181 0.052503146 1.1334325
-0.030773381 0.012742478 1.111459
-0.0090295952 0.022806197 1.1124728
-0.01323757 0.010318951 1.1036854
-0.011805479 0.0027644779 1.1016257
0.0072614402 0.0015977954 1.1079974
-0.0068012746 -0.011137831 1.1067048
0.0093624471 -0.007127068 1.1196436
-0.0055737095 -0.017385002 1.1204531
0.0089488979 -0.0048209336 1.1347343
-0.0075545064 -0.01191042 1.1352545
-0.0068823318 0.009684369 1.1429503
-0.027609598 0.011551649 1.1325974
0.029641777 0.047146138 1.1410607
-0.026988816 0.016805174 1.1187922
0.038508881 0.053060643 1.1289083
0.00050103466 0.024342537 1.1106679
-0.0096582044 -0.0037682692 1.1021914
-0.0074747321 -0.01615073 1.1115444
-0.0080814967 -0.017783681 1.1267531
-0.011874219 -0.0075165862 1.1392688
-0.091561921 -0.061609734 1.1026213
-0.033849075 0.012868682 1.1210746
-0.030059852 0.010037485 1.1067251
-0.012811368 -0.011756755 1.1032732
-0.011046574 -0.020498767 1.1157827
-0.022035034 0.01207738 1.1059171
0.015909608 -0.0013760712 1.1175489
-0.021209579 -0.007035383 1.1395262
-0.03089611 0.0066833496 1.1343484
-0.013174632 -0.018067228 1.1310631
-0.02472013 -0.0018170332 1.1394094
0.016072677 -0.002313796 1.1322707
0.014803463 0.010780628 1.1085029
-0.10717196 -0.0075704986 1.1277691
-0.10702506 -0.040385321 1.1269846
-0.070887782 0.028464131 1.1288973
-0.037469663 0.027672324 1.1307585
-0.02440667 0.021748137 1.1253736
-0.017762944 -0.062227819 1.1510483
-0.11156573 -0.026056658 1.1577004
-0.055357743 0.028073484 1.1579351
-0.018240683 0.012250901 1.1533474
0.038512573 0.031406377 1.1514918
0.035048738 0.03416881 1.1510297
0.0374032 0.041981265 1.1502092
-0.0072466806 -0.017794402 1.1842467
-0.0059526241 -0.027184192 1.1815944
-0.018805571 -0.061247133 1.1916727
-0.022675404 -0.066191562 1.184625
-0.054302983 -0.081484281 1.1889131
-0.060612366 -0.081558637 1.181838
-0.094053052 -0.070292115 1.1865959
-0.098838381 -0.065061294 1.1799839
-0.11454691 -0.03519246 1.1920213
-0.11456481 -0.028532213 1.1890701
-0.10402354 0.0031081522 1.183477
-0.098174766 0.0099255042 1.1802949
-0.069804758 0.024617827 1.1880497
-0.060742937 0.025376616 1.1886427
-0.029459145 0.015655529 1.1885828
-0.022669103 0.010249514 1.1870584
-0.0070943171 -0.036928374 1.1842424
-0.029508717 -0.071945451 1.1845939
-0.069540553 -0.080854803 1.1817565
-0.10465452 -0.05838218 1.1811233
-0.11456753 -0.0223548 1.194407
-0.09386526 0.013648196 1.1880004
-0.0543373 0.024172522 1.1954451
-0.018890163 0.0046435865 1.192444
-0.01227458 -0.051298905 1.1875675
-0.042924024 -0.078662202 1.1856447
-0.083989277 -0.076131716 1.1829292
-0.11156983 -0.045399331 1.1852129
-0.11139678 -0.010772546 1.1893263
-0.084291108 0.019676475 1.187367
-0.042869564 0.021935716 1.1915056
-0.012498765 -0.0041127601 1.1876122
-0.00757406 -0.044661496 1.1662416
-0.035165705 -0.074935399 1.1655821
-0.076441437 -0.076937884 1.1628869
-0.10752189 -0.049136676 1.1652122
-0.10723665 -0.0039090784 1.1674833
-0.076513477 0.023939956 1.1683996
-0.035200924 0.021623733 1.1711351
-0.0076684509 -0.0079287617 1.1671923
-0.012798655 -0.014750061 1.2149498
-0.010272631 -0.028858846 1.2145287
-0.018483363 -0.056310091 1.2260493
-0.026569966 -0.06834919 1.2177678
-0.049970169 -0.081960797 1.2229979
-0.064120859 -0.083841376 1.2145076
-0.090313844 -0.077467687 1.2202964
-0.10201329 -0.067701362 1.212544
-0.11582377 -0.045348573 1.219456
-0.11777874 -0.03114173 1.2206678
-0.10917141 -0.0023525448 1.2208902
-0.10036716 0.0081213703 1.207752
-0.077771045 0.02047712 1.2187499
-0.0642768 0.022220029 1.2207122
-0.036953062 0.014884261 1.2199774
-0.026449498 0.0071052331 1.2185764
-0.012340131 -0.043207057 1.2174882
-0.037061449 -0.07644289 1.2160835
-0.077312276 -0.082038172 1.2130078
-0.11020067 -0.056800455 1.2119684
-0.11593485 -0.016486011 1.2270691
-0.091486119 0.014364571 1.2245448
-0.049928572 0.019086003 1.2283179
-0.018576995 -0.0042072576 1.2213904
-0.020924086 -0.0088349963 1.2478431
-0.017837871 -0.012991177 1.241156
-0.015731538 -0.021603908 1.2454695
-0.10673454 -0.069310836 1.2489117
-0.11974885 -0.041809268 1.2459303
-0.10421201 0.0046818904 1.2378811
-0.073668271 0.019543493 1.2427484
-0.034242813 0.0090884734 1.2418464
-0.014224553 -0.037684795 1.2415206
-0.034487672 -0.074353814 1.240039
-0.07341259 -0.084912784 1.2366909
-0.10910095 -0.063806467 1.2347934
-0.09913718 0.0091907065 1.2311527
-0.11809677 -0.048710305 1.2458637
-0.022599537 -0.015700644 1.2770433
-0.036875926 -0.074072331 1.2982906
-0.053766757 -0.085127994 1.2963698
-0.073580332 -0.089102603 1.2946439
-0.093690991 -0.084559575 1.2933447
-0.11172362 -0.071992427 1.2930124
-0.12147931 -0.017996522 1.298787
-0.11023719 -0.00087277393 1.2974944
-0.093624815 0.010171425 1.2985053
-0.053584617 0.010445436 1.2994733
-0.035823226 -0.00027208144 1.2937561
-0.017996753 -0.046457443 1.2582231
-0.021756697 -0.056152694 1.260352
-0.042407628 -0.079201594 1.2551469
-0.05142143 -0.083275154 1.2568451
-0.082161032 -0.084308483 1.2519169
-0.091524862 -0.080877736 1.2539332
-0.11490221 -0.058071874 1.2505296
-0.12104615 -0.049643807 1.2723432
-0.11846727 -0.017077086 1.2602143
-0.11465386 -0.008780825 1.2587887
-0.09197814 0.012656173 1.2591923
-0.082536265 0.016403463 1.2575803
-0.05130982 0.01492076 1.2612375
-0.042132035 0.011302187 1.2577565
-0.01586807 -0.031313583 1.2560142
-0.026221259 -0.064288802 1.2588534
-0.031803414 -0.071412429 1.2545781
-0.060150441 -0.085598126 1.2552611
-0.069105603 -0.086235553 1.2510729
-0.099636495 -0.075926237 1.2527299
-0.12160008 -0.035478897 1.2583699
-0.10910752 -0.00056219893 1.2545279
-0.06923832 0.018599797 1.2570152
-0.031328272 0.0041282414 1.2534506
-0.12083107 -0.025801318 1.2599571
-0.099833801 0.0081696892 1.2579244
-0.0601601 0.017387638 1.2606342
-0.025429418 -0.0026197047 1.2520046
-0.118419 -0.060010552 1.2828312
-0.12235834 -0.041192088 1.2689266
-0.10599487 0.0030618624 1.26147
-0.074755862 0.017585771 1.2639468
-0.035708282 0.0062948549 1.2616799
-0.017128954 -0.037791774 1.2641425
-0.036180474 -0.074973539 1.2615052
-0.074550584 -0.086405315 1.2580454
-0.11075497 -0.065992095 1.2560544
-0.018461445 -0.025960185 1.270172
-0.021799317 -0.035107899 1.3014276
-0.025761565 -0.056734767 1.3001386
-0.12371485 -0.059083074 1.3181808
-0.12605518 -0.038182721 1.3030258
-0.07369487 0.014414248 1.3000128
-0.029124195 -0.025706414 1.344491
-0.030893888 -0.014095782 1.3234338
-0.033742752 -0.066679075 1.3411789
-0.029584222 -0.057669658 1.3394798
-0.065104872 -0.090579331 1.3374081
-0.055998515 -0.087095805 1.3357114
-0.10485071 -0.084543325 1.3352072
-0.095604703 -0.088599198 1.3327454
-0.12832414 -0.057163961 1.3471109
-0.12450051 -0.018760137 1.3375894
-0.12824228 -0.027971303 1.3404331
-0.095620014 0.0076542017 1.3369583
-0.10431925 0.003564859 1.3382642
-0.055956583 0.0060705058 1.3383147
-0.0652574 0.009099585 1.3414509
-0.02733372 -0.048614644 1.3410397
-0.026959421 -0.039277855 1.3453238
-0.048242457 -0.082707629 1.33734
-0.041496634 -0.077113435 1.3416923
-0.086800568 -0.091237068 1.333961
-0.077868618 -0.092511468 1.3380668
-0.12298251 -0.069582261 1.3487197
-0.11665741 -0.075636648 1.3379979
-0.13046145 -0.040753383 1.3429257
-0.11429884 -0.0039533973 1.3382468
-0.078164138 0.010700922 1.3429064
-0.040438604 -0.0047190548 1.3381865
-0.12973058 -0.04956045 1.3435477
-0.11989992 -0.010872697 1.336484
-0.087034397 0.010019777 1.3386712
-0.047896072 0.0016108527 1.3374723
-0.025473611 -0.022550087 1.3123446
-0.12934795 -0.035674788 1.3354539
-0.11031293 -0.00045225301 1.332016
-0.072762892 0.011085676 1.3360696
-0.035941832 -0.0074640592 1.3273722
-0.026517561 -0.033793122 1.3385556
-0.037693713 -0.073160172 1.3349311
-0.072561733 -0.091690585 1.3312225
-0.11167662 -0.078847587 1.3297899
-0.033438232 -0.017250342 1.3496711
-0.1191569 -0.069438122 1.3243825
-0.03095944 -0.043384284 1.3807611
-0.032376241 -0.057810362 1.372537
-0.045918643 -0.080486849 1.3774548
-0.057154093 -0.088604063 1.3689305
-0.082456745 -0.095516093 1.3739285
-0.096534364 -0.092452213 1.3661453
-0.12032828 -0.079898372 1.3780991
-0.12823862 -0.068646088 1.3782725
-0.13421664 -0.044435877 1.376441
-0.1326718 -0.031856436 1.377039
-0.11822343 -0.0071196444 1.3695985
-0.10913327 0.00011769152 1.3743254
-0.083207242 0.0076516001 1.3778515
-0.070247203 0.0061901067 1.3790215
-0.045856919 -0.0068713422 1.3754648
-0.037207521 -0.018071495 1.3757057
-0.032965269 -0.030239051 1.3821902
-0.038082287 -0.070237242 1.3792416
-0.069661908 -0.093956582 1.3755728
-0.10931955 -0.088083208 1.3747927
-0.13184974 -0.057230521 1.3727193
-0.12697305 -0.018839993 1.3727974
-0.096942879 0.0057311933 1.3692135
-0.057386938 0.0022270258 1.3707604
-0.091537833 -0.09714669 1.3984976
-0.12422453 -0.012850449 1.3983847
-0.13622776 -0.053134568 1.3996027
-0.12726589 -0.062498055 1.3533347
-0.13142362 -0.036080826 1.3550453
-0.11154886 -0.0013312276 1.3516245
-0.073948354 0.0092192851 1.3568082
-0.037144788 -0.01128997 1.3500339
-0.029054359 -0.034613818 1.3596128
-0.03922474 -0.073851876 1.356064
-0.073591545 -0.093295231 1.3523647
-0.11282319 -0.081861243 1.3519065
-0.037616499 -0.049012437 1.4396175
-0.053157985 -0.085668601 1.437778
-0.089517735 -0.10024649 1.4348059
-0.12461619 -0.086473949 1.4366069
-0.14003178 -0.052299306 1.4323742
-0.12805726 -0.015925804 1.4328759
-0.092806518 0.0024719276 1.4355568
-0.053656835 -0.010929493 1.4354069
-0.034315564 -0.045519181 1.4110318
-0.03407491 -0.052061163 1.4046041
-0.048924595 -0.082668602 1.4083792
-0.053485285 -0.08671318 1.4015763
-0.085237242 -0.098135278 1.4050124
-0.12274391 -0.08347448 1.4084679
-0.12838343 -0.076244369 1.4064648
-0.13734485 -0.047305565 1.4048427
-0.13678399 -0.039014746 1.4047103
-0.11667212 -0.0053781536 1.4024433
-0.086926855 0.0050055319 1.4077154
-0.078152455 0.0046056448 1.4079319
-0.049742874 -0.0090797162 1.4059002
-0.045072459 -0.013459292 1.4027042
-0.03514877 -0.036789156 1.4109176
-0.04341555 -0.076084964 1.4087646
-0.076734565 -0.097348645 1.4052696
-0.11555217 -0.089055367 1.4059547
-0.1284467 -0.01822171 1.4039042
-0.092978165 0.0048285141 1.4010361
-0.05402391 -0.0046549453 1.4012179
-0.039796211 -0.022836713 1.4084991
-0.036875974 -0.063090757 1.4078033
-0.063094027 -0.092735603 1.4045061
-0.10254281 -0.095068477 1.402583
-0.13428034 -0.063538708 1.4036826
-0.13271089 -0.025786158 1.4042624
-0.10391774 0.0017430019 1.4032594
-0.063897677 0.00056875055 1.4060261
-0.039585818 -0.029254245 1.4263431
-0.040941913 -0.069610506 1.425962
-0.070064209 -0.096251637 1.4227825
-0.1090844 -0.094843589 1.4219136
-0.13387923 -0.070685349 1.4215165
-0.13656585 -0.032712873 1.4204819
-0.11155741 -0.0024704114 1.4208709
-0.071570337 0.0011956488 1.4239527
-0.12763593 -0.091640949 1.496899
-0.14659861 -0.057128932 1.4952294
-0.13476707 -0.017253436 1.4998968
-0.090593219 -0.035682131 1.4987735
-0.077926211 -0.036172897 1.4862921
-0.075243652 -0.046057019 1.4719416
-0.083857819 -0.059118107 1.4643651
-0.098356932 -0.067906976 1.4674215
-0.11096205 -0.067780674 1.4793949
-0.1141711 -0.058166754 1.4939374
-0.044459075 -0.066979036 1.4764792
-0.04708802 -0.027455712 1.4746172
-0.070422858 -0.096861698 1.4736891
-0.10909903 -0.099466458 1.4699856
-0.053750467 -0.090644851 1.4962268
-0.053578135 -0.099072777 1.4993505
-0.073095903 -0.10196896 1.4978843
-0.05863655 -0.10117453 1.4980583
-0.059844423 -0.063101009 1.4914703
-0.056630142 -0.069644637 1.4935747
-0.06610883 -0.076272197 1.4820402
-0.064687543 -0.082225002 1.4850959
-0.078899771 -0.090021566 1.4861442
-0.084838584 -0.08747761 1.4846239
-0.091983154 -0.091344863 1.4992716
-0.097276054 -0.085652836 1.4974103
-0.0568753 -0.073483646 1.4917058
-0.066947445 -0.085616909 1.4853954
-0.088349752 -0.093649276 1.4971992
-0.060599279 -0.059391819 1.4949553
-0.0630918 -0.072818376 1.4840733
-0.074812457 -0.085506037 1.4826474
-0.088578932 -0.088692524 1.4882476
-0.13849807 -0.073542066 1.4670942
-0.076171592 -0.0016622029 1.4717097
-0.1409941 -0.034481347 1.4672608
-0.11535604 -0.004486341 1.469947
-0.054534275 -0.084600963 1.4755387
-0.041922919 -0.046851855 1.4763368
-0.089582317 -0.10203593 1.4716536
-0.13116914 -0.01696796 1.4687575
-0.059037622 -0.011616832 1.47255
-0.095914766 0.0008350049 1.4710591
-0.14353593 -0.054399043 1.4664745
-0.12636332 -0.089448757 1.4686434
-0.046596617 -0.043457538 1.5066186
-0.056299508 -0.08213862 1.5067384
-0.090075798 -0.10213043 1.5021728
-0.098720439 0.0005697239 1.5007359
-0.064104117 -0.010940664 1.5009477
-0.052734964 -0.057932444 1.5493025
-0.073274456 -0.09263806 1.5474275
-0.11133791 -0.10147832 1.5395265
-0.14322269 -0.080616958 1.5348713
-0.15170388 -0.042885121 1.5348383
-0.13481101 -0.011457507 1.5399181
-0.10182215 0.0005392009 1.5404676
-0.065113395 -0.016598381 1.5442864
-0.090319388 -0.055110175 1.5492873
-0.087634027 -0.06366317 1.5370892
-0.094311424 -0.065212891 1.5240228
-0.10581776 -0.059398174 1.51766
-0.11592074 -0.049712293 1.5207766
-0.11938922 -0.040980622 1.5320981
-0.11322752 -0.038626622 1.5458795
-0.10555951 -0.044760652 1.5019432
-0.11902831 -0.0034511276 1.5202637
-0.080873601 -0.0030492896 1.5222981
-0.022824036 -0.11144403 1.5485113
-0.023497239 -0.11085266 1.5388194
-0.047907975 -0.13283488 1.5263902
-0.057077058 -0.13322148 1.5392703
-0.11133631 -0.09135662 1.543977
-0.12698501 -0.10725143 1.5494405
-0.12479661 -0.093403004 1.5365517
-0.14343233 -0.10753797 1.5447074
-0.14937657 -0.094592594 1.5441922
-0.14170474 -0.076660693 1.5403022
-0.073474012 -0.092737295 1.5375214
-0.074510969 -0.082357824 1.533721
-0.063946486 -0.077551939 1.5335739
-0.058451016 -0.07756976 1.5327941
-0.053295657 -0.072042979 1.5208852
-0.044159364 -0.082338355 1.5242952
-0.048417609 -0.078094102 1.5062481
-0.044324413 -0.088288501 1.5077224
-0.063128605 -0.10540663 1.5002829
-0.075353563 -0.10997849 1.513762
-0.086563446 -0.098347321 1.5090996
-0.078942202 -0.10397981 1.5281378
-0.084919341 -0.092858776 1.5250441
-0.13404655 -0.11094511 1.5485116
-0.1373276 -0.088733517 1.5363634
-0.067020208 -0.082269385 1.5364544
-0.056997284 -0.072786391 1.526437
-0.04715398 -0.077551119 1.514196
-0.047148127 -0.091228075 1.5030779
-0.073020928 -0.10814443 1.5064932
-0.081488393 -0.10383627 1.5198386
-0.081269078 -0.091774501 1.5300926
-0.087321624 -0.071620934 1.5226315
-0.087855056 -0.066302985 1.5205028
-0.072709203 -0.062075898 1.5211455
-0.069930069 -0.060404599 1.5188096
-0.063990392 -0.056024961 1.506439
-0.057502043 -0.063458793 1.508884
-0.094179131 -0.084201373 1.5143995
-0.097227551 -0.078561701 1.5124954
-0.054849535 -0.096890502 1.5483352
-0.052591149 -0.09432102 1.5468528
-0.083348997 -0.067051888 1.5228908
-0.044727366 -0.088630006 1.5384816
-0.044886429 -0.08605615 1.5345591
-0.071337588 -0.055346709 1.5135937
-0.035717722 -0.093777388 1.5263746
-0.037775602 -0.09170647 1.5214206
-0.060399093 -0.058803368 1.5010558
-0.037410021 -0.10537248 1.5148933
-0.041245628 -0.10364816 1.5106339
-0.047034901 -0.11855618 1.5134777
-0.050019115 -0.12278306 1.5163538
-0.062938385 -0.11595131 1.5114095
-0.061093055 -0.12041795 1.5165176
-0.073024437 -0.11411968 1.5227764
-0.069828205 -0.11794023 1.5293854
-0.09397012 -0.087077267 1.5118169
-0.065885365 -0.10888983 1.5457541
-0.094640553 -0.078860775 1.5161134
-0.06271676 -0.099614307 1.5466487
-0.051825467 -0.089673012 1.5429516
-0.048040103 -0.09139502 1.5437737
-0.038410708 -0.09192834 1.5357633
-0.03491123 -0.095181838 1.5349514
-0.0344516 -0.098630801 1.5217918
-0.033409588 -0.10302724 1.5209562
-0.041537579 -0.10938267 1.5117162
-0.043314174 -0.112292 1.5115695
-0.059431259 -0.11592237 1.5103084
-0.066639379 -0.12112679 1.5260072
-0.060698844 -0.12711522 1.5285951
-0.069134191 -0.11428998 1.5395283
-0.073175825 -0.10801014 1.5363059
-0.064821608 -0.12115011 1.5424399
-0.080714777 -0.060915623 1.5199994
-0.057981666 -0.098690607 1.5484564
-0.068489484 -0.053877167 1.50921
-0.045850459 -0.090478487 1.5417887
-0.034552764 -0.095098384 1.531181
-0.034721315 -0.10496041 1.5182984
-0.046757758 -0.11199905 1.5095265
-0.060361084 -0.12434167 1.5221761
-0.098339573 -0.084079951 1.502035
-0.067100473 -0.12052758 1.5359831
-0.093577124 -0.07287591 1.517809
-0.073049091 -0.10507044 1.5376935
-0.11261611 -0.089717068 1.5388796
-0.12792382 -0.087508023 1.5331539
-0.13646732 -0.077409923 1.5348575
-0.13933791 -0.066487283 1.5460893
-0.11841229 -0.093674213 1.5390908
-0.14253841 -0.072261453 1.5451027
-0.15286396 -0.11294314 1.548985
-0.057306193 -0.054077961 1.5918024
-0.07459788 -0.089140125 1.5910671
-0.11201172 -0.10118815 1.5918882
-0.14615537 -0.08408197 1.5875748
-0.15827608 -0.048466139 1.5864415
-0.14258054 -0.013965917 1.5884372
-0.10755469 -0.00013901007 1.5909897
-0.071191043 -0.016198777 1.5905937
-0.11633456 -0.0678268 1.5870283
-0.11721035 -0.060522556 1.5745211
-0.11315361 -0.047882888 1.5699015
-0.10649751 -0.036501303 1.5748943
-0.10059722 -0.032432452 1.5874424
-0.1009394 -0.044666991 1.5530308
-0.060871702 -0.075278804 1.5702456
-0.057623547 -0.034840453 1.5693717
-0.095710278 -0.10094875 1.5673099
-0.11232363 -0.10154039 1.5655719
-0.1300644 -0.095562883 1.5631042
-0.14483455 -0.082896136 1.5609016
-0.15377474 -0.065528184 1.5599061
-0.15560274 -0.046120849 1.5600239
-0.15039441 -0.027751202 1.5612656
-0.1390911 -0.012684847 1.5629483
-0.12321098 -0.0028773351 1.5641465
-0.105328 0.0003395213 1.5652221
-0.088769495 -0.0026827664 1.5662761
-0.19104975 -0.012397507 1.597985
-0.14906901 -0.10623774 1.5849936
-0.14479133 -0.11114991 1.5849149
-0.16102651 -0.1124042 1.5884969
-0.14648622 -0.12220899 1.5859809
