# .PCD v0.7 - Point Cloud Data file format
VERSION 0.7
FIELDS x y z
SIZE 4 4 4
TYPE F F F
COUNT 1 1 1
WIDTH 1442
HEIGHT 1
VIEWPOINT 0 0 0 1 0 0 0
POINTS 1442
DATA ascii
119.044000 -52.586100 129.829000
118.480000 -51.070900 129.707000
118.626000 -50.048500 130.574000
118.942000 -48.973900 131.326000
119.613000 -48.345000 132.413000
119.635000 -47.651200 132.756000
124.525000 -59.433900 134.022000
121.147000 -56.239500 131.364000
117.839000 -53.294400 129.501000
117.600000 -52.082900 129.618000
117.492000 -50.925800 129.942000
116.890000 -49.804500 130.067000
117.549000 -48.970900 131.082000
118.335000 -48.318500 132.213000
118.953000 -47.802600 133.042000
118.919000 -55.137100 131.315000
117.427000 -53.650500 130.128000
117.386000 -52.794000 130.465000
116.443000 -51.101100 130.008000
116.059000 -49.956600 130.275000
116.396000 -49.088200 131.096000
116.626000 -48.046400 131.677000
117.085000 -47.393800 132.306000
116.580000 -53.598800 130.423000
116.118000 -52.396100 130.428000
115.414000 -50.922700 130.216000
115.659000 -50.065700 130.890000
114.987000 -48.891500 130.801000
115.558000 -48.128100 131.867000
115.759000 -47.230500 132.348000
116.293000 -54.108600 131.551000
115.755000 -52.892100 131.177000
114.940000 -51.403100 130.660000
114.756000 -50.246900 131.020000
114.331000 -48.932200 131.327000
114.972000 -48.217700 132.352000
114.703000 -47.209900 132.529000
114.552000 -46.325200 132.644000
116.210000 -54.652000 132.554000
115.415000 -53.347700 132.026000
114.127000 -51.485100 130.937000
113.728000 -50.224000 131.274000
112.861000 -48.688200 131.061000
113.237000 -47.740200 131.582000
113.268000 -46.902300 132.232000
113.986000 -46.460000 133.326000
116.818000 -55.491200 133.985000
114.966000 -53.628400 132.553000
113.361000 -51.701100 131.507000
112.207000 -49.854500 130.956000
111.973000 -48.716000 131.283000
112.385000 -47.780800 131.988000
112.670000 -46.851200 132.838000
113.287000 -46.399100 133.962000
113.589000 -53.196300 132.441000
112.448000 -51.833800 131.825000
111.894000 -50.561400 131.593000
111.159000 -49.050600 131.362000
111.200000 -47.930300 131.984000
111.483000 -46.853600 132.693000
111.962000 -46.109600 133.610000
112.953000 -45.928300 134.966000
112.720000 -53.299700 132.870000
111.416000 -51.633100 131.783000
110.901000 -50.420600 131.776000
110.397000 -48.987600 131.870000
110.593000 -48.054700 132.435000
110.518000 -47.034000 132.851000
111.067000 -46.216500 133.780000
111.213000 -45.456700 134.141000
112.351000 -53.901000 133.752000
110.680000 -51.880900 132.192000
110.049000 -50.420000 132.212000
109.510000 -49.009400 132.082000
109.680000 -48.013000 132.496000
109.541000 -47.054500 133.058000
109.998000 -46.234900 133.731000
110.213000 -45.539400 134.344000
113.234000 -55.723400 135.429000
111.602000 -53.936000 134.002000
109.796000 -51.856300 132.550000
109.277000 -50.588000 132.538000
109.217000 -49.532900 132.703000
108.756000 -48.187800 132.693000
108.522000 -47.055600 133.087000
109.187000 -46.322500 134.090000
108.886000 -45.345000 134.363000
111.109000 -54.130600 134.474000
109.498000 -52.396400 133.119000
109.035000 -51.203400 133.224000
108.595000 -49.754500 133.210000
107.890000 -48.153400 133.111000
108.269000 -47.160800 133.847000
108.204000 -46.181000 134.428000
108.861000 -45.678700 135.643000
108.734000 -52.318000 133.482000
107.890000 -50.897400 133.319000
107.539000 -49.536300 133.329000
106.995000 -48.314000 133.388000
107.309000 -47.220600 133.914000
106.949000 -46.141500 134.262000
107.639000 -45.479500 135.352000
108.478000 -45.168300 136.580000
107.798000 -52.248500 133.984000
107.134000 -51.073700 133.625000
107.172000 -50.106100 134.074000
105.890000 -48.321300 133.385000
106.450000 -47.380700 134.168000
105.840000 -46.121800 134.137000
106.148000 -45.249100 134.809000
106.673000 -44.689700 135.714000
107.319000 -52.588800 134.611000
106.674000 -51.388700 134.212000
105.938000 -49.937100 134.004000
105.052000 -48.392600 133.560000
105.049000 -47.178500 133.952000
105.282000 -46.027800 134.661000
105.784000 -45.326700 135.521000
105.695000 -44.663000 135.946000
106.743000 -52.767400 135.080000
105.407000 -51.168600 134.194000
104.662000 -49.560000 133.778000
104.613000 -48.452800 134.120000
103.818000 -47.136900 133.896000
104.254000 -46.135000 134.675000
104.715000 -45.267000 135.447000
104.462000 -44.491500 135.765000
105.043000 -52.233200 134.370000
104.984000 -51.564300 134.964000
103.880000 -49.864600 133.913000
103.661000 -48.600800 134.163000
103.047000 -47.281500 134.126000
103.119000 -46.225600 134.658000
103.589000 -45.239800 135.449000
103.442000 -44.365300 135.666000
104.818000 -52.583700 135.180000
104.563000 -51.696900 135.597000
103.249000 -49.917900 134.458000
102.594000 -48.360900 134.262000
102.356000 -47.182300 134.413000
102.216000 -46.252900 134.794000
102.291000 -45.238100 135.281000
102.905000 -44.582400 136.126000
102.924000 -50.283500 135.391000
102.192000 -48.868400 134.830000
101.812000 -47.494900 134.984000
101.934000 -46.414400 135.539000
101.824000 -45.506500 135.954000
101.428000 -44.278200 135.824000
99.395300 -41.898300 134.064000
102.368000 -50.396300 136.022000
101.129000 -48.790100 134.982000
100.658000 -47.362000 134.964000
101.274000 -46.569700 135.848000
100.834000 -45.336900 135.918000
100.329000 -43.950400 135.844000
98.539200 -41.801800 134.261000
100.616000 -49.845400 135.113000
100.383000 -49.071700 135.384000
99.821700 -47.649000 135.164000
100.281000 -46.565300 135.901000
99.784600 -45.205800 135.910000
99.553800 -43.984500 136.160000
97.910300 -42.067600 134.685000
99.566300 -49.879000 135.114000
99.354000 -48.972300 135.356000
98.965900 -47.710000 135.389000
98.876000 -46.366200 135.613000
99.076500 -45.197200 136.239000
98.488000 -43.891800 136.160000
97.098000 -41.853300 134.856000
100.184000 -51.555200 136.523000
98.434900 -49.890700 135.012000
97.925300 -48.543000 134.929000
98.153500 -47.493900 135.503000
97.724500 -46.289000 135.598000
98.260600 -45.366100 136.393000
97.887500 -44.280600 136.570000
96.604200 -42.413100 135.383000
96.398800 -41.111000 135.557000
96.990900 -40.640400 136.632000
98.974700 -33.077800 142.366000
97.810600 -31.565400 141.024000
97.277700 -30.231000 140.536000
96.937400 -50.619500 134.183000
96.949800 -49.656700 134.564000
96.831900 -48.456100 134.856000
97.244200 -47.546400 135.563000
96.644800 -46.216600 135.549000
97.057800 -45.234900 136.148000
96.606900 -43.935700 136.154000
95.791500 -42.358500 135.637000
95.916300 -41.490000 136.271000
96.097200 -40.684000 136.751000
97.437000 -36.541700 140.691000
98.205600 -35.877800 141.934000
97.650800 -34.462600 141.559000
97.102800 -32.639300 140.938000
96.418900 -31.147400 140.156000
96.393900 -30.106000 140.647000
97.420400 -52.356400 135.527000
96.243800 -50.804700 134.465000
96.567900 -50.088000 135.174000
95.834300 -48.601000 134.684000
96.018100 -47.478400 135.424000
95.481000 -46.002800 135.308000
96.149500 -45.217400 136.258000
95.628400 -43.865100 136.190000
95.177200 -42.508400 136.123000
95.470200 -41.638900 136.929000
97.113100 -41.593400 139.540000
97.835700 -40.815800 141.222000
97.964500 -39.530100 141.712000
97.502600 -38.035000 141.331000
97.979100 -37.392500 142.223000
96.933100 -35.663000 141.201000
97.053400 -34.622900 141.830000
96.643100 -33.153900 141.576000
96.163500 -31.565400 140.997000
95.903100 -30.481100 141.282000
96.057500 -52.100900 134.989000
95.612600 -51.038400 134.723000
95.637000 -50.087900 135.211000
95.421700 -48.682700 135.459000
95.285100 -47.604100 135.693000
94.998000 -46.475700 135.750000
94.814400 -45.069700 135.922000
94.321900 -43.580600 135.825000
94.535100 -42.601200 136.573000
96.077600 -42.373700 139.066000
97.252200 -41.883600 140.884000
97.216800 -40.920600 141.455000
97.442100 -39.829400 142.008000
97.314700 -38.478600 142.010000
96.429200 -36.903200 141.346000
96.434400 -35.716300 141.881000
95.924800 -34.214000 141.541000
96.088100 -33.197700 142.037000
95.797900 -31.913000 141.732000
95.810200 -30.957700 142.093000
95.177600 -52.256800 135.204000
95.293200 -51.410800 135.433000
95.214000 -50.556600 135.979000
94.762700 -49.109000 135.778000
94.748100 -47.877000 136.188000
93.894500 -46.168200 135.765000
93.764200 -44.796200 135.980000
93.655500 -43.578000 136.184000
93.967500 -42.821200 137.234000
95.395100 -42.500700 139.483000
96.479500 -41.968000 141.008000
96.121100 -40.806000 141.277000
96.844000 -40.059200 142.344000
96.601100 -38.621400 142.467000
95.736600 -36.860100 141.742000
96.006200 -36.090200 142.638000
95.449700 -34.669400 141.952000
95.369500 -33.536500 142.034000
95.669600 -32.376800 142.535000
95.458300 -53.100900 136.755000
94.637200 -51.684900 136.035000
93.919200 -50.032700 135.596000
93.897600 -48.851200 135.907000
93.453200 -47.575200 135.996000
92.821900 -46.106700 135.569000
92.987300 -45.221100 136.132000
93.035700 -43.994700 136.628000
93.058400 -43.006600 137.276000
94.340500 -42.626400 139.343000
95.261300 -41.851600 140.732000
95.115700 -40.770400 141.309000
95.668200 -39.764500 142.223000
95.619700 -38.539400 142.693000
95.360000 -37.204000 142.528000
95.379200 -36.217500 142.877000
95.583800 -35.335600 143.211000
93.763200 -52.450000 135.835000
94.129400 -51.990900 136.611000
93.452800 -50.574300 136.146000
93.062300 -49.052200 136.120000
92.595200 -47.744600 136.155000
92.488100 -46.478700 136.280000
92.252400 -45.172900 136.501000
92.251200 -44.010400 137.067000
92.886900 -43.236400 138.185000
93.449300 -42.693400 139.441000
94.457200 -42.024000 141.163000
94.301000 -40.767000 141.384000
94.359400 -39.719400 141.886000
94.699500 -38.672500 142.661000
95.061700 -37.700000 143.489000
94.885500 -36.462800 143.271000
93.165700 -52.627800 136.350000
93.074800 -51.747900 136.493000
92.593200 -50.343500 136.400000
92.057900 -48.861600 136.246000
91.635400 -47.423700 136.145000
91.277400 -46.035400 136.010000
91.247200 -45.041700 136.593000
91.478000 -44.128400 137.224000
91.815600 -43.266900 137.969000
93.519500 -43.143300 140.789000
93.932500 -42.273300 141.951000
93.850800 -40.946700 142.017000
93.468300 -39.581700 142.056000
93.739700 -38.705000 142.569000
93.514800 -37.492200 142.793000
93.956300 -36.631600 143.685000
94.453100 -54.635700 139.751000
92.926800 -52.409500 137.670000
92.602100 -51.155200 137.486000
91.473300 -49.352200 136.594000
91.175300 -48.004100 136.696000
90.627200 -46.390900 136.484000
90.747100 -45.376900 137.070000
90.715500 -44.272000 137.366000
91.119400 -43.501300 138.379000
93.863900 -43.521200 142.590000
93.799000 -42.771000 143.083000
93.765000 -41.650100 143.117000
93.661900 -40.338500 143.418000
93.209900 -38.716700 143.219000
92.363100 -37.217900 142.514000
92.349300 -36.243200 142.848000
92.261500 -35.055400 143.415000
92.499100 -34.058500 144.376000
95.241100 -56.129400 141.880000
93.773200 -53.869100 139.991000
91.414900 -50.855700 137.306000
90.431800 -49.001900 136.610000
89.813600 -47.454000 136.175000
89.785100 -46.559400 136.714000
89.837900 -45.371000 137.061000
89.976500 -44.370700 137.874000
90.270200 -43.670600 138.589000
93.278900 -43.661800 143.087000
92.506600 -42.555300 142.579000
92.980300 -41.853700 143.383000
92.668700 -38.770400 143.719000
91.712500 -37.139300 142.823000
91.807400 -36.114400 143.410000
91.018700 -34.753700 142.983000
90.786400 -33.488100 142.976000
91.477300 -32.858100 144.395000
95.987200 -58.187500 143.486000
95.418100 -56.983600 143.068000
94.137700 -55.108400 141.582000
90.216500 -50.554800 137.170000
90.009600 -49.563300 137.287000
89.137700 -47.741300 136.635000
89.172500 -46.491800 137.165000
88.932700 -45.176500 137.193000
89.528200 -44.759500 138.572000
89.373700 -43.675400 138.752000
92.101900 -43.561900 142.789000
91.796900 -42.672300 142.924000
92.739700 -42.371200 144.431000
91.534200 -37.364700 143.812000
90.890900 -36.041100 143.322000
90.240000 -34.788300 143.096000
90.426700 -33.812400 143.675000
90.411700 -32.645800 144.073000
90.539300 -31.739800 144.669000
95.151000 -57.988000 143.206000
94.404200 -56.573400 142.543000
93.282300 -54.941500 141.358000
89.269200 -50.576600 137.256000
88.336400 -48.910500 136.489000
88.601900 -48.033000 137.203000
88.323600 -46.797400 137.219000
88.519900 -45.634600 137.965000
88.792700 -44.672400 138.724000
88.719700 -43.724900 139.178000
90.362000 -43.477100 141.723000
90.789600 -42.747000 142.836000
92.073200 -42.615600 144.793000
89.971600 -35.765800 143.382000
89.718600 -34.637100 143.676000
89.705200 -33.520100 144.046000
89.335000 -32.341300 143.812000
89.528800 -31.521500 144.382000
89.654000 -30.598900 145.058000
89.505900 -29.672600 145.369000
88.503300 -54.486700 136.564000
88.150100 -53.096300 136.396000
88.233900 -51.748700 136.848000
88.306400 -50.493400 137.126000
87.310100 -48.950700 136.317000
87.404800 -47.834600 136.903000
87.468100 -46.541400 137.437000
87.443400 -45.484500 137.746000
87.901300 -44.732800 138.760000
88.592300 -43.988900 140.356000
90.265400 -43.811400 142.852000
90.792400 -43.170500 143.857000
92.504300 -43.319100 146.402000
89.666300 -35.011100 144.731000
89.055400 -33.749300 144.350000
88.794700 -32.393800 144.225000
89.109300 -31.398800 144.988000
88.699700 -30.253100 144.820000
87.973800 -29.102500 144.068000
88.484900 -58.442100 135.642000
87.592500 -56.696600 135.294000
86.730100 -54.703800 134.731000
87.300300 -53.865600 135.786000
87.277900 -52.714500 136.136000
86.943400 -51.533400 136.330000
87.254500 -50.460100 136.872000
86.705300 -49.030100 136.734000
86.551000 -47.930900 137.084000
86.613100 -46.795900 137.590000
87.071200 -45.765800 138.402000
86.981900 -44.610000 139.059000
88.022700 -44.218300 140.917000
88.547100 -43.407900 141.614000
89.232500 -34.240900 145.645000
87.952600 -32.568900 144.103000
88.104900 -31.265800 144.536000
87.333000 -29.800800 143.699000
86.714000 -57.340300 134.580000
86.724600 -56.321400 135.277000
86.442300 -55.062700 135.416000
86.418400 -53.970400 135.563000
86.724400 -53.085600 136.512000
87.029700 -52.331300 137.759000
86.658600 -50.705400 137.472000
85.835900 -48.875200 136.899000
85.646100 -47.653600 137.044000
85.486200 -46.638300 137.485000
86.068600 -45.714200 138.527000
86.059100 -44.594500 139.108000
86.877100 -44.156300 140.521000
87.706400 -43.759500 141.794000
87.713500 -33.608800 144.450000
86.357900 -57.605600 135.472000
86.187300 -56.656200 135.491000
86.183600 -55.651300 136.056000
86.109500 -54.316600 136.277000
87.148500 -53.982600 138.450000
87.190400 -53.020000 139.119000
86.365800 -51.401100 138.363000
85.588200 -49.626000 137.750000
84.961400 -47.895400 137.422000
84.625600 -46.611600 137.447000
84.824700 -45.702100 138.195000
85.334400 -44.780900 139.233000
85.509800 -43.844800 139.727000
86.314100 -43.596800 141.218000
86.742700 -58.405300 136.975000
86.487600 -57.388700 136.957000
86.744100 -56.604600 137.762000
86.951600 -55.640000 138.443000
84.377500 -52.459000 136.575000
85.616800 -52.368500 138.229000
85.612000 -51.221100 138.729000
84.580400 -49.274800 137.763000
84.328500 -48.066800 137.813000
84.272800 -46.975200 138.187000
84.620800 -46.108300 139.142000
84.221600 -44.791400 139.018000
84.958300 -44.049100 140.175000
85.885700 -43.959300 141.934000
83.611800 -52.444300 136.476000
83.543300 -51.635500 136.646000
84.787000 -51.545500 138.775000
84.036500 -49.809000 138.175000
83.668900 -48.324600 138.098000
83.418300 -47.132400 138.346000
83.359700 -45.860100 138.594000
83.544000 -44.938800 139.453000
83.880300 -44.054400 140.107000
82.840900 -52.353800 136.442000
83.125000 -51.807600 137.439000
83.738000 -51.121500 138.581000
83.001600 -49.543900 138.044000
82.753400 -48.260300 138.249000
82.590400 -46.964100 138.472000
82.644700 -45.832400 139.101000
82.877300 -44.799900 139.814000
83.261700 -44.266300 140.812000
82.654600 -52.839500 137.554000
82.299200 -51.922600 137.699000
82.626600 -50.926700 138.244000
81.954400 -49.376700 137.901000
81.593500 -47.979800 138.000000
81.761700 -46.833200 138.569000
81.497000 -45.746600 138.822000
82.171000 -45.050900 139.917000
82.288300 -44.209400 140.502000
81.817600 -43.146200 140.142000
81.290200 -52.542100 136.961000
81.079300 -51.697700 137.257000
81.702400 -50.905700 138.248000
81.107900 -49.375000 138.018000
80.610500 -48.060100 137.864000
80.804600 -46.986500 138.482000
80.563200 -45.763000 138.770000
81.109600 -44.861500 139.568000
81.074000 -43.945900 139.789000
80.143500 -52.546100 136.621000
79.784800 -51.429600 136.422000
80.239300 -50.282100 137.381000
80.117800 -49.069300 137.758000
79.983600 -47.983200 138.072000
79.851200 -46.807100 138.403000
79.088100 -45.262300 137.680000
79.739200 -44.596700 138.694000
78.234800 -52.392300 134.517000
78.278500 -51.725500 134.819000
79.723700 -49.129500 138.137000
78.872100 -47.415900 137.441000
78.267800 -45.910700 136.998000
77.894000 -44.665900 136.674000
78.485500 -53.125100 135.732000
85.150300 -62.116900 147.307000
84.072100 -61.767600 147.197000
84.486300 -62.600600 151.052000
74.170300 -43.677500 141.409000
75.449500 -43.959500 143.710000
73.982600 -44.085200 142.154000
74.803200 -43.953200 143.590000
72.910900 -44.866800 141.483000
73.383800 -44.383600 142.549000
74.064100 -43.915600 143.554000
71.828000 -45.458800 140.609000
72.422200 -45.202700 141.977000
72.688700 -44.476400 142.755000
73.264600 -44.006600 143.685000
71.484600 -45.924400 141.356000
71.537200 -45.231200 141.717000
71.840500 -44.585400 142.599000
72.125300 -43.855200 143.389000
70.734400 -46.035900 141.504000
70.939900 -45.357300 142.099000
71.295100 -44.670100 143.270000
71.754800 -44.181800 144.296000
69.940500 -46.011600 141.706000
70.493200 -45.489000 142.978000
70.696300 -44.753800 143.674000
71.035300 -44.198300 144.591000
72.641500 -39.078800 150.264000
72.284200 -38.003800 149.938000
69.178200 -46.190400 142.049000
71.075500 -44.566000 146.390000
72.454500 -44.592900 149.495000
71.921500 -43.091200 149.101000
72.213100 -41.890900 149.936000
72.382700 -40.745500 150.478000
71.468900 -38.755500 149.088000
71.585100 -37.814100 149.625000
71.576000 -36.931900 149.947000
68.272200 -46.153600 141.959000
68.662000 -45.600500 142.672000
70.219700 -44.539200 146.053000
70.816400 -43.854200 147.589000
70.406600 -42.538500 147.587000
70.743300 -41.537000 148.324000
71.242800 -40.329200 149.327000
71.105300 -38.924700 149.330000
71.042700 -37.737100 149.618000
70.900700 -36.686200 149.695000
71.171100 -36.131500 150.485000
67.762700 -46.329000 142.450000
67.749200 -45.472600 142.702000
67.091600 -46.411000 142.699000
66.973900 -45.527800 142.764000
64.134100 -47.379900 141.844000
62.168000 -48.395000 138.984000
63.103500 -48.379500 140.999000
63.541400 -47.775600 142.212000
63.986100 -46.811900 143.125000
65.761000 -44.282800 148.153000
62.337200 -49.033000 140.452000
62.820800 -48.674900 141.823000
63.120200 -47.992100 142.823000
63.150500 -46.924700 142.957000
63.322000 -45.863800 143.815000
64.078900 -45.209000 145.564000
64.556000 -44.671900 146.970000
65.393900 -44.624500 148.913000
61.820800 -48.396400 141.329000
62.424600 -48.059300 142.918000
62.753900 -47.166200 143.747000
62.165000 -45.643100 143.487000
63.303300 -45.298000 145.759000
63.945000 -44.809300 147.197000
60.413700 -47.609000 139.953000
61.413200 -47.835500 142.534000
61.483800 -46.744100 143.038000
61.628900 -45.844000 143.889000
61.854600 -45.073200 144.761000
62.898700 -44.847300 146.768000
60.995500 -48.064300 143.421000
61.021200 -47.242600 143.793000
61.062900 -46.073700 144.277000
61.219200 -45.193800 145.225000
61.814800 -44.789800 146.554000
60.214200 -47.841500 143.419000
60.175300 -47.026500 143.985000
60.309200 -45.880200 144.662000
60.820200 -45.271900 145.997000
61.244000 -44.857700 147.047000
59.238200 -47.571900 143.145000
58.812300 -46.549900 142.942000
59.346100 -45.991800 144.457000
59.978900 -45.327300 145.903000
60.695200 -45.027900 147.436000
58.226300 -47.262700 142.825000
58.652800 -46.923800 144.238000
58.645400 -45.972100 144.723000
59.080400 -45.346200 145.802000
59.640100 -44.878400 146.963000
57.703900 -46.687600 143.927000
58.025100 -46.124900 144.780000
58.070300 -45.195200 145.368000
58.833200 -44.939800 147.302000
57.364800 -47.100500 145.224000
57.392400 -46.118900 145.253000
57.696700 -45.322500 146.410000
57.578700 -44.343300 146.756000
55.732200 -46.100400 143.348000
56.583400 -46.144200 145.348000
57.003400 -45.510000 146.416000
56.865600 -44.410000 146.677000
56.015300 -46.209500 145.729000
56.169600 -45.437100 146.382000
55.726600 -43.974800 145.748000
55.124300 -45.948500 145.784000
55.601200 -45.496100 146.909000
54.241400 -45.821500 145.683000
54.375500 -45.110800 146.313000
53.405900 -43.083300 144.512000
53.685200 -46.006500 146.081000
53.256100 -44.940800 145.627000
53.409400 -44.000300 145.902000
52.606300 -45.672300 145.480000
52.494000 -44.934000 145.617000
51.888900 -45.791900 145.638000
51.989000 -45.311200 146.125000
51.133100 -45.631300 145.218000
51.503700 -45.359500 146.298000
48.395000 -55.903700 138.304000
47.358200 -55.132500 137.136000
47.461600 -54.575000 137.655000
47.383000 -55.825600 138.609000
47.107500 -54.713500 138.239000
46.739500 -53.391900 137.837000
46.560000 -52.098300 138.336000
46.796600 -51.458600 139.319000
46.448100 -50.248800 138.749000
46.583300 -54.784600 138.791000
46.339300 -53.498900 138.548000
45.711100 -51.684600 137.641000
45.744000 -50.824100 138.230000
46.708300 -55.676300 140.695000
45.792000 -53.655400 138.741000
45.289600 -51.986400 138.132000
44.759900 -50.378800 137.837000
45.083200 -49.841200 138.869000
45.310100 -49.434900 140.271000
45.593900 -53.984600 139.555000
43.763500 -50.776600 136.789000
43.976200 -50.105400 137.568000
44.223100 -49.446900 138.489000
45.151600 -49.799400 141.649000
43.498500 -51.974300 137.343000
42.689500 -50.500200 136.117000
43.400700 -50.202500 137.789000
43.734100 -49.490100 139.042000
44.922400 -50.106400 142.880000
44.504400 -48.817200 141.923000
41.254600 -50.699900 134.230000
41.681800 -50.170500 135.345000
42.014800 -49.548400 136.093000
42.744700 -49.523000 138.050000
44.876700 -50.953900 144.841000
44.696800 -49.845000 144.185000
40.410000 -51.582300 133.414000
40.354000 -50.498400 133.448000
40.841100 -49.958600 134.657000
41.378400 -49.679700 136.115000
43.799100 -50.964800 143.299000
44.561400 -51.508100 145.893000
44.330900 -50.465400 145.426000
39.565100 -55.069600 131.697000
39.336700 -53.701100 131.628000
39.135300 -52.001200 131.478000
39.372900 -50.961900 132.053000
39.558400 -50.300800 132.752000
40.389600 -50.114100 134.857000
41.192500 -50.238900 137.108000
44.226200 -52.860000 146.910000
43.961700 -51.577300 146.102000
43.620800 -50.503000 145.725000
38.617600 -53.281400 131.249000
38.676500 -51.133100 131.825000
43.855600 -53.418300 147.957000
43.249300 -51.640200 146.292000
43.008800 -50.632900 146.045000
43.049800 -53.116100 147.446000
42.966600 -52.246700 147.368000
42.437100 -50.747600 146.221000
37.323200 -51.562600 131.981000
42.030700 -51.629300 146.349000
42.017400 -50.885500 146.627000
22.276900 -51.255700 148.558000
22.515400 -50.821900 149.803000
22.017800 -49.977100 150.328000
21.507900 -50.860100 150.077000
21.118800 -49.207700 149.653000
21.068700 -48.070200 150.095000
21.545700 -47.021400 153.057000
20.415900 -46.959900 150.424000
20.854800 -46.675000 152.874000
20.878600 -45.860000 153.734000
19.306300 -46.507400 148.558000
20.194600 -46.603000 153.240000
20.234700 -45.643300 153.736000
20.019800 -44.335700 153.435000
18.628700 -46.539200 149.442000
19.616000 -46.820200 154.043000
19.455800 -45.533600 153.585000
19.587700 -44.587200 154.195000
19.482000 -43.686700 154.900000
17.970500 -49.008400 149.284000
18.077400 -47.671300 149.414000
18.160000 -46.798000 150.569000
18.647400 -46.400500 152.835000
18.753400 -45.415800 153.544000
18.877700 -44.496200 154.322000
19.048900 -43.980500 156.145000
19.068400 -43.260000 156.805000
17.371800 -53.294300 150.236000
17.443300 -52.299800 150.475000
17.539200 -51.011500 150.816000
17.505600 -49.618900 150.709000
17.676500 -48.562400 151.153000
17.457200 -46.666000 149.858000
17.734600 -46.302600 152.144000
18.072300 -45.357600 153.658000
18.429800 -44.796100 155.729000
18.630200 -44.368500 157.573000
18.693600 -43.712000 158.533000
17.011300 -53.895500 151.362000
17.091200 -52.933600 151.295000
17.025000 -51.629200 151.249000
17.071600 -50.473900 152.016000
17.067500 -48.923000 151.879000
17.005600 -47.203400 151.188000
17.017700 -46.413000 152.334000
17.209200 -45.496900 153.349000
17.658900 -45.007000 155.999000
17.995700 -44.452400 158.167000
18.077100 -43.745100 158.845000
16.464400 -54.399400 152.321000
16.473400 -52.947900 151.653000
16.319400 -51.279400 151.229000
16.245200 -50.011100 151.169000
16.377800 -49.242300 152.115000
16.411200 -47.744300 152.512000
16.559500 -46.531900 153.207000
16.628000 -45.628500 154.201000
16.863000 -45.167500 156.160000
17.189000 -44.556000 157.824000
17.305600 -43.716700 158.654000
15.855400 -56.085500 153.485000
15.926100 -55.113800 153.546000
15.783800 -53.267100 152.218000
15.861900 -52.018100 152.306000
15.779800 -50.536500 152.243000
15.681500 -49.108500 152.415000
15.762000 -48.241600 153.776000
15.893700 -46.622400 153.458000
15.995200 -45.816800 155.100000
16.365100 -45.214500 156.955000
16.486200 -44.496100 158.303000
16.505200 -43.499400 158.292000
15.243100 -55.124300 153.634000
15.161400 -53.627500 152.897000
15.112800 -51.884700 152.402000
15.049000 -50.287500 152.284000
15.022100 -49.271000 153.007000
15.080300 -48.471500 154.259000
15.169100 -46.878900 154.174000
15.197000 -45.732900 155.062000
15.639200 -45.237300 157.190000
15.811800 -44.582800 158.793000
15.807800 -43.379700 158.284000
15.904000 -43.500000 161.502000
14.526700 -55.158500 154.036000
14.561800 -54.021600 153.827000
14.489500 -52.358000 153.080000
14.389800 -50.739300 153.087000
14.469400 -49.566600 153.847000
14.475700 -48.753900 154.694000
14.484100 -47.402800 154.713000
14.401800 -45.831000 154.701000
14.715100 -45.005500 156.291000
15.199100 -44.742200 158.811000
15.231300 -43.788400 159.621000
15.154700 -42.904000 160.133000
14.221300 -56.160900 156.237000
13.886200 -54.182200 154.303000
13.787600 -52.420100 153.594000
13.576400 -50.604900 152.843000
13.729300 -49.716800 154.028000
13.730700 -48.191400 154.019000
13.663800 -46.934800 154.378000
13.684800 -45.704500 154.595000
13.844000 -44.920400 155.822000
14.330800 -44.275400 157.874000
14.065100 -42.718000 157.353000
13.280900 -40.164800 154.055000
13.369900 -54.530200 155.133000
13.150300 -53.019600 154.481000
12.943400 -50.977500 153.622000
13.056300 -49.948100 154.553000
12.993300 -48.364600 154.348000
13.040400 -47.182000 154.861000
13.090500 -45.957300 155.115000
12.984400 -44.623100 155.230000
13.110600 -43.259600 155.520000
12.708700 -41.010000 153.891000
12.583500 -54.178700 155.087000
12.330900 -52.663700 154.601000
12.197500 -50.891200 153.634000
12.331800 -49.948100 154.622000
12.258300 -48.382400 154.334000
12.336100 -47.224500 155.037000
12.370300 -45.676500 155.084000
12.241300 -44.228900 154.993000
12.152700 -42.411600 154.126000
12.039500 -41.293800 154.391000
11.777000 -54.207900 155.572000
11.538300 -52.581700 154.519000
11.634400 -51.235200 154.570000
11.595900 -49.812200 154.402000
11.648400 -48.717400 154.960000
11.520800 -47.404400 155.511000
11.632900 -45.699100 155.214000
11.497800 -44.081100 154.529000
11.571300 -43.049100 155.223000
11.584500 -42.267200 156.510000
11.556300 -40.284200 154.424000
10.937300 -54.193100 155.525000
11.097400 -53.399400 155.874000
10.941900 -51.754300 155.351000
10.991800 -49.947800 154.714000
10.949700 -48.895200 155.610000
10.844400 -47.748900 156.263000
10.992600 -46.283500 156.308000
11.026500 -44.525400 155.563000
10.988500 -43.524400 156.592000
11.182900 -43.291600 159.169000
11.232300 -42.315200 159.105000
10.366800 -54.850000 157.021000
10.355500 -53.334700 156.084000
10.193600 -51.641400 155.549000
10.290600 -50.144100 155.256000
10.245700 -49.018200 155.989000
10.095700 -47.573900 155.731000
10.238800 -46.584800 156.718000
10.425600 -45.024700 156.763000
10.514600 -44.367200 158.879000
10.689900 -43.567100 160.022000
10.738900 -42.831400 160.498000
9.815150 -54.976400 157.085000
9.799290 -53.872500 157.094000
9.664920 -52.101700 156.176000
9.563640 -50.435100 156.016000
9.455900 -48.440500 155.053000
9.486080 -47.591700 156.048000
9.603220 -46.987500 157.696000
9.841950 -45.940600 158.843000
9.993840 -45.300100 161.053000
10.100600 -43.795400 160.558000
10.086100 -43.177000 161.602000
9.545800 -54.904700 158.788000
8.850990 -51.542400 155.511000
8.685030 -50.354000 155.991000
8.849430 -48.802500 155.706000
8.819340 -47.744700 156.578000
8.925750 -46.892400 158.123000
9.198890 -46.142600 160.035000
9.340780 -45.362800 161.316000
9.330380 -44.025500 161.164000
9.279810 -42.874100 160.987000
8.135560 -53.688000 158.129000
7.961730 -51.658300 156.115000
7.987340 -50.439100 156.466000
8.169670 -49.072000 156.445000
8.167400 -48.106600 157.737000
8.175710 -46.822000 157.821000
8.431630 -46.344700 159.731000
8.594640 -45.301800 161.176000
8.496180 -43.609800 160.346000
8.597590 -42.951600 161.243000
7.480510 -53.178300 157.211000
7.379540 -51.990300 156.736000
7.318170 -50.824700 156.881000
7.443170 -49.331900 157.125000
7.471610 -48.206700 157.785000
7.534270 -47.101400 158.448000
7.795250 -46.310900 160.274000
7.708670 -45.224800 161.007000
7.841650 -43.806300 160.914000
7.873850 -42.997800 161.475000
6.713080 -51.885000 156.970000
6.599490 -50.537000 156.393000
6.671060 -49.635400 157.120000
6.744300 -48.304800 157.725000
6.709980 -47.134300 158.433000
6.962840 -46.266300 159.992000
7.010950 -45.499100 161.734000
7.085680 -43.949100 161.008000
7.128920 -43.026300 161.512000
5.916210 -52.075400 157.807000
6.048320 -50.846100 157.340000
5.969520 -49.497100 157.466000
5.900460 -48.108000 157.862000
6.120300 -47.196900 159.414000
6.288750 -46.350800 160.911000
6.310100 -45.279000 161.427000
6.349350 -44.058900 161.557000
6.396810 -43.029700 161.682000
5.214180 -52.587300 159.027000
5.263100 -50.765500 157.573000
5.242120 -49.221000 157.282000
5.151230 -48.251900 157.793000
5.300720 -47.456100 159.397000
5.483060 -46.109900 159.742000
5.532780 -45.067400 160.884000
5.487040 -43.751200 161.059000
5.702810 -43.057700 161.856000
4.546220 -53.095800 160.115000
4.544900 -51.279000 158.588000
4.628900 -49.676000 158.064000
4.521890 -48.431200 158.560000
4.529080 -47.461200 159.768000
4.767860 -46.258300 160.387000
4.853180 -45.383300 161.596000
4.792470 -43.943000 161.099000
4.862000 -43.068400 161.781000
3.895420 -53.644700 161.343000
3.872220 -51.825900 159.795000
3.857000 -49.753300 158.495000
3.838390 -48.509800 159.271000
3.851520 -47.524800 160.159000
4.013700 -46.397100 160.449000
4.094920 -45.237900 161.411000
4.153540 -43.855800 161.455000
4.035240 -42.977600 161.753000
3.158160 -53.800500 161.753000
3.174950 -52.197700 160.628000
3.134920 -50.211800 159.292000
3.177880 -48.691600 158.953000
3.199940 -47.817400 160.153000
3.246800 -46.536700 161.009000
3.305080 -45.245600 161.792000
3.452890 -44.025900 161.921000
3.339760 -43.282900 162.620000
2.490720 -54.319200 162.719000
2.439140 -52.445900 161.103000
2.440130 -50.626400 160.286000
2.517920 -48.880800 159.621000
2.480230 -47.807300 160.712000
2.486110 -46.864000 162.024000
2.619380 -45.345400 161.536000
2.650810 -44.203800 162.318000
2.673300 -43.246200 162.674000
0.608401 -60.608000 153.974000
1.945830 -55.167000 164.509000
1.834030 -53.322200 162.774000
1.745460 -51.473400 161.934000
1.737570 -48.986700 160.200000
1.777010 -48.080300 161.902000
1.785950 -46.837700 162.402000
1.948200 -45.450700 162.180000
1.846960 -44.422000 162.947000
1.968050 -43.218200 162.550000
2.047100 -37.783500 166.374000
2.110920 -36.541600 165.805000
0.089539 -60.529700 153.855000
0.090971 -59.497200 153.780000
1.023280 -53.846900 162.096000
1.121520 -53.003900 162.714000
0.919180 -51.263400 161.803000
1.007490 -49.503000 160.773000
1.028690 -48.314900 161.406000
1.017490 -47.063700 162.251000
1.214510 -45.787100 163.166000
1.214470 -44.665900 163.627000
1.111460 -43.139100 162.263000
1.469440 -37.816200 166.397000
1.512110 -36.434700 165.760000
-0.407195 -60.818300 154.564000
-0.475472 -59.508600 154.052000
-0.483790 -58.299900 154.003000
-0.632834 -57.221200 154.882000
-0.011645 -52.898800 160.055000
0.287776 -52.541700 161.960000
0.248126 -51.137600 161.695000
0.272633 -49.549500 161.197000
0.244733 -48.098700 161.520000
0.277284 -47.194800 162.600000
0.378752 -45.906700 162.802000
0.474253 -44.591300 163.323000
0.276596 -42.984700 162.381000
0.584327 -39.622800 167.558000
0.685272 -38.284900 166.814000
0.844907 -36.231000 168.971000
-1.058710 -60.627400 154.567000
-1.159460 -59.345600 154.327000
-1.065770 -58.312700 154.559000
-1.174480 -57.155200 155.082000
-1.240040 -55.800500 155.428000
-1.123820 -54.831500 156.995000
-0.971822 -54.347800 158.965000
-0.931300 -52.628700 158.516000
-0.686231 -51.633300 159.601000
-0.472804 -50.971700 161.550000
-0.516082 -49.156900 161.214000
-0.443518 -48.067800 162.174000
-0.362568 -46.870700 162.564000
-0.405162 -45.616400 163.096000
-0.367474 -44.050300 162.946000
-0.484373 -42.793200 162.746000
-0.029057 -39.483000 167.258000
0.098360 -38.178900 166.868000
0.199538 -37.718100 169.406000
0.238743 -36.683800 170.632000
0.257338 -34.638500 168.301000
0.099662 -33.697600 169.159000
-1.730710 -59.448800 154.841000
-1.770260 -58.024900 154.578000
-1.787740 -56.796200 155.028000
-1.897450 -55.546200 155.274000
-1.739380 -54.442300 155.752000
-1.673160 -53.254300 156.544000
-1.738510 -51.926300 156.938000
-1.462740 -51.420300 158.677000
-1.408240 -50.422100 159.635000
-1.318890 -49.664500 161.661000
-1.191090 -48.132700 161.625000
-1.152290 -47.120700 163.017000
-1.145800 -45.987400 164.032000
-1.069630 -44.383700 163.530000
-1.047370 -42.973300 163.215000
-1.125520 -42.181700 164.659000
-0.881966 -41.741200 169.149000
-0.869786 -39.991500 167.634000
-0.593539 -38.861500 168.418000
-0.511301 -38.898000 173.048000
-0.467207 -37.170600 171.377000
-0.521409 -34.920100 169.296000
-0.621182 -33.709500 169.881000
-0.467863 -33.226500 171.278000
-2.399900 -58.287100 155.405000
-2.482460 -56.653900 154.961000
-2.491240 -55.888300 156.123000
-2.451620 -54.312600 155.914000
-2.361870 -52.886200 156.216000
-2.435070 -51.871500 156.721000
-2.249570 -51.128900 158.240000
-2.198420 -50.376000 160.227000
-2.053260 -49.541900 161.620000
-1.975280 -48.404000 162.345000
-1.942570 -47.034900 162.718000
-1.899490 -46.080700 163.794000
-1.739390 -44.864300 164.354000
-1.817740 -43.044800 163.701000
-1.713720 -42.495200 166.381000
-1.538460 -41.395700 167.475000
-1.524280 -40.018200 167.310000
-1.400880 -39.380500 169.045000
-1.192150 -38.670400 171.775000
-1.288640 -36.683200 170.785000
-1.268380 -34.802400 169.988000
-1.209280 -33.777100 170.487000
-1.173570 -33.094700 171.167000
-3.061720 -57.061900 155.961000
-3.138250 -55.486500 155.564000
-3.175940 -54.350200 156.346000
-3.041160 -52.979700 156.366000
-3.063470 -51.953400 157.296000
-2.988220 -51.234700 158.994000
-2.985530 -50.333200 159.982000
-2.771710 -49.689600 161.894000
-2.787670 -48.509000 162.648000
-2.691110 -47.085400 163.046000
-2.618500 -45.848800 163.566000
-2.537700 -44.701300 164.304000
-2.559810 -42.990300 163.681000
-2.496750 -42.327100 165.513000
-2.268290 -41.374600 166.866000
-2.172960 -40.318500 168.008000
-2.132640 -39.468500 170.460000
-2.004050 -38.215300 171.537000
-2.034180 -36.653400 170.766000
-2.011110 -35.404100 171.022000
-1.861130 -33.892900 170.671000
-1.908080 -33.510900 172.506000
-3.663940 -55.449900 155.325000
-3.676890 -54.581800 156.352000
-3.709770 -53.139400 157.005000
-3.708220 -52.480300 159.021000
-3.612300 -51.752700 160.450000
-3.631000 -50.917400 161.747000
-3.513020 -49.688100 162.597000
-3.524070 -48.020700 162.239000
-3.530330 -46.725200 162.562000
-3.338330 -45.658100 163.489000
-3.304900 -44.357800 163.683000
-3.246970 -43.238900 164.280000
-3.291110 -42.144600 165.259000
-3.086460 -41.366200 167.067000
-2.942120 -40.147100 167.691000
-2.875190 -40.054900 173.162000
-2.769360 -38.543400 172.070000
-2.717600 -36.722700 171.051000
-2.736030 -35.337300 170.918000
-2.647620 -34.303200 171.556000
-2.667950 -33.464100 172.222000
-4.325900 -52.487400 158.916000
-4.339480 -51.768300 160.361000
-4.398590 -51.414700 162.827000
-4.217030 -50.015800 162.662000
-4.223920 -48.552500 162.512000
-4.247430 -47.057800 162.494000
-4.232930 -45.581000 162.827000
-4.024470 -44.352300 163.855000
-4.048230 -42.856000 164.091000
-3.942410 -42.119100 166.023000
-3.856590 -41.306500 167.020000
-3.804590 -40.573200 167.770000
-3.615040 -40.474700 174.592000
-3.530250 -38.771900 172.804000
-3.432000 -37.107300 171.610000
-3.392410 -35.736400 172.003000
-3.443330 -34.512100 172.123000
-4.904560 -52.617100 160.050000
-5.035390 -51.840800 161.384000
-5.057950 -51.520600 163.561000
-4.911570 -49.980700 162.843000
-4.974890 -48.367000 162.501000
-5.054130 -46.343700 161.329000
-5.109690 -44.906700 161.453000
-4.812800 -44.449200 163.579000
-4.785810 -43.141100 163.904000
-4.724690 -42.230900 165.405000
-4.590660 -41.451700 167.196000
-4.644640 -40.661900 167.950000
-4.369510 -40.852700 175.729000
-4.250330 -39.357900 174.541000
-4.191210 -37.159200 172.424000
-4.170260 -35.728500 172.540000
-5.594270 -51.618700 164.046000
-5.603510 -49.791400 162.773000
-5.723540 -47.983700 161.952000
-5.837830 -45.975600 160.667000
-5.892810 -44.244500 159.700000
-5.567000 -44.248100 163.773000
-5.486160 -42.926000 164.147000
-5.466060 -42.557000 166.856000
-5.333100 -41.284300 167.127000
-5.298470 -41.131200 169.131000
-5.076740 -40.812600 175.702000
-5.010830 -39.547800 175.162000
-4.924150 -37.820000 173.904000
-6.227100 -49.526800 162.565000
-6.558520 -47.197100 160.460000
-6.687040 -44.829200 158.128000
-6.620540 -43.940700 158.452000
-6.322210 -44.120900 164.329000
-6.258220 -43.185200 164.847000
-6.292850 -42.519200 166.525000
-6.108230 -41.684200 167.637000
-5.616160 -41.003600 176.287000
-5.667180 -39.800700 176.194000
-5.716740 -37.522300 173.761000
-7.406010 -47.075100 158.165000
-7.433620 -46.161800 158.277000
-7.406460 -43.739200 155.823000
-7.381000 -43.314700 156.771000
-7.113580 -44.065000 164.589000
-7.055830 -43.014800 164.994000
-6.985800 -42.582000 167.268000
-6.926740 -41.800000 167.981000
-6.550990 -37.531900 173.926000
-6.423360 -36.379400 174.270000
-6.565640 -35.627500 174.966000
-8.051340 -46.838900 157.777000
-8.094260 -45.644800 157.101000
-8.067170 -44.528000 157.139000
-8.137480 -44.369200 159.475000
-8.014530 -44.614700 165.311000
-7.798720 -43.089100 164.540000
-7.748620 -42.647500 166.732000
-7.768930 -41.665100 167.725000
-7.818500 -41.465500 173.110000
-7.731670 -40.814300 174.619000
-7.672960 -39.513400 174.331000
-7.498550 -37.929600 174.324000
-7.295580 -36.593900 174.590000
-7.307120 -35.911900 175.693000
-8.700220 -45.760200 157.699000
-8.803430 -45.482300 159.819000
-8.814720 -45.404400 163.289000
-8.690480 -44.720800 165.236000
-8.584620 -43.414000 165.452000
-8.466250 -42.398000 166.698000
-8.531550 -41.887500 168.691000
-8.435100 -41.087500 170.573000
-8.316690 -40.177200 172.528000
-8.275080 -39.034500 173.555000
-8.181910 -37.866200 174.551000
-8.131550 -37.047500 175.755000
-9.491000 -45.858200 158.147000
-9.504710 -45.849100 161.043000
-9.518900 -45.756400 164.106000
-9.414880 -44.659500 165.038000
-9.314200 -43.223200 165.047000
-9.231170 -42.459000 166.706000
-9.267560 -41.872800 169.362000
-9.052060 -41.162200 171.608000
-9.055160 -40.057600 172.467000
-9.030250 -39.127600 174.174000
-8.970460 -38.235200 175.781000
-9.000150 -37.978100 178.250000
-10.065300 -47.472700 159.637000
-10.033100 -46.124300 158.750000
-10.128300 -46.487800 163.835000
-10.133200 -45.565600 164.367000
-10.225700 -44.991800 166.041000
-9.995710 -43.366200 165.456000
-10.039700 -42.748300 167.662000
-10.064300 -41.847000 168.934000
-9.845760 -41.277900 171.621000
-9.793840 -40.204300 173.075000
-9.802720 -39.450200 175.657000
-9.689190 -38.587300 177.080000
-9.773280 -38.220600 178.785000
-10.782500 -45.495400 164.699000
-10.876000 -45.064600 166.357000
-10.809100 -43.774600 166.442000
-10.804300 -42.676900 167.480000
-10.640300 -42.072700 169.853000
-10.413500 -41.319600 172.410000
-10.346100 -40.278800 173.532000
-10.538900 -40.292900 178.891000
-10.394600 -38.921400 177.849000
-10.401600 -38.555500 179.440000
-11.501500 -44.835200 166.331000
-11.581800 -43.618300 166.471000
-11.465200 -42.851300 167.708000
-11.093100 -40.398400 179.307000
-10.996900 -39.109100 178.295000
-12.444100 -44.697200 166.461000
-12.313500 -43.571700 166.309000
-12.420800 -35.268700 164.781000
-12.342600 -34.038000 164.579000
-12.216000 -31.969700 165.407000
-13.372500 -45.036300 166.629000
-13.274000 -43.813300 166.444000
-13.088400 -36.386100 163.786000
-12.991800 -34.871600 162.672000
-12.854800 -33.911600 163.803000
-12.718600 -32.488700 163.423000
-12.658100 -32.040200 165.282000
-14.361400 -46.329300 163.719000
-14.236100 -45.940000 165.701000
-13.999900 -44.916100 166.394000
-14.030400 -43.807100 166.622000
-14.064000 -42.830900 167.175000
-14.136000 -41.737900 167.264000
-13.967200 -37.568500 163.102000
-13.647100 -36.116700 162.731000
-13.558000 -35.040100 162.894000
-13.462300 -34.039000 163.481000
-13.207500 -32.766800 163.780000
-15.029300 -47.012500 165.086000
-14.946800 -46.263700 166.308000
-14.734900 -44.843400 166.361000
-14.684700 -43.624200 166.929000
-14.723100 -41.384200 164.842000
-14.674600 -39.147200 163.677000
-14.546200 -37.740900 163.325000
-14.276900 -36.381900 162.987000
-14.211300 -35.673700 164.199000
-15.772900 -47.840400 164.111000
-15.693800 -47.234500 165.003000
-15.666800 -46.172700 165.399000
-15.504100 -45.253600 166.742000
-15.484800 -43.496900 166.388000
-15.463600 -41.316500 164.822000
-15.338500 -39.781000 164.457000
-15.204100 -38.069200 163.500000
-14.971900 -36.871200 163.636000
-17.438700 -59.397100 167.995000
-17.347300 -58.228200 167.729000
-16.475300 -48.151300 164.411000
-16.397800 -47.131600 164.501000
-16.440900 -46.004500 165.028000
-16.299300 -45.041900 166.371000
-16.316300 -43.386800 165.944000
-16.178300 -41.768600 165.314000
-16.075700 -40.063100 164.534000
-15.984500 -38.749500 164.556000
-15.800800 -37.507900 164.320000
-17.966400 -58.779000 168.471000
-17.254700 -48.207700 164.411000
-17.225600 -46.894600 164.391000
-17.139500 -45.908700 165.689000
-17.086800 -44.497600 165.961000
-16.975400 -42.864300 165.579000
-16.776800 -41.060500 164.384000
-16.777700 -39.892100 164.593000
-16.671100 -38.910300 165.028000
-18.615200 -58.345700 167.315000
-18.235700 -49.672300 165.166000
-18.019700 -48.064600 164.214000
-18.007800 -47.021800 164.764000
-17.831300 -45.752600 164.672000
-17.859400 -44.986700 166.231000
-17.795200 -43.136800 165.655000
-17.534800 -41.543600 165.514000
-17.589500 -40.456200 165.783000
-19.132800 -50.379000 166.266000
-18.818300 -48.592400 164.927000
-18.646800 -47.247800 164.810000
-18.666200 -46.072400 165.640000
-18.571700 -44.511400 165.781000
-18.702500 -43.706200 167.282000
-18.399200 -42.108600 166.689000
-18.566900 -41.333900 167.495000
-19.803500 -51.244400 165.771000
-19.826300 -50.567100 166.389000
-19.645000 -49.089800 165.816000
-19.425900 -47.706700 165.971000
-19.546900 -46.462200 166.370000
-19.421200 -44.717400 166.103000
-19.411900 -43.908300 167.761000
-19.243400 -42.144400 166.607000
-19.415500 -41.713300 168.355000
-20.425100 -50.638300 166.556000
-20.406200 -49.334000 166.057000
-20.280900 -47.712600 165.879000
-20.276700 -46.234200 166.252000
-20.207200 -44.637500 165.723000
-20.089800 -43.642900 166.942000
-20.080500 -42.353600 167.292000
-20.120300 -41.751400 168.392000
-21.049700 -49.993400 165.577000
-21.080400 -48.614400 165.230000
-21.086300 -47.134700 165.365000
-20.912700 -45.779100 165.628000
-20.910300 -44.632600 166.090000
-20.911700 -43.509300 166.992000
-20.915000 -42.680000 168.034000
-21.262300 -42.806800 174.784000
-21.608300 -49.060700 164.145000
-21.703100 -47.258300 162.617000
-21.732700 -46.176700 163.144000
-21.636000 -45.830800 165.614000
-21.727100 -44.739900 166.536000
-21.804000 -43.720100 167.754000
-21.791000 -43.108400 169.049000
-22.424100 -46.284300 162.657000
-22.464900 -45.792000 165.244000
-22.684200 -45.315600 168.178000
-22.653500 -44.388300 169.357000
-22.604500 -43.055000 169.081000
-22.740400 -42.925700 174.926000
-23.189400 -46.236900 162.953000
-23.425100 -46.303400 166.802000
-23.475000 -45.370000 167.973000
-23.349500 -44.221600 168.778000
-23.475400 -43.127900 169.795000
-23.389200 -42.769800 172.715000
-24.087400 -47.715100 163.543000
-24.225600 -47.342400 165.967000
-24.317300 -46.641500 168.024000
-24.164900 -45.502700 168.852000
-24.208300 -44.282400 169.354000
-24.183500 -42.606400 168.594000
-24.016000 -42.005500 169.863000
-25.174000 -49.517500 164.695000
-25.213000 -48.949400 166.485000
-25.085700 -47.622300 167.244000
-25.023900 -46.569500 167.827000
-24.978900 -45.608900 168.940000
-24.978700 -43.905300 168.839000
-24.771400 -42.274400 167.889000
-24.702400 -41.341900 167.996000
-25.832400 -50.185700 163.805000
-25.904800 -49.712400 165.050000
-26.085500 -49.211600 166.819000
-25.922000 -47.935900 167.384000
-25.780600 -46.638000 168.159000
-25.819300 -45.378300 169.086000
-25.735700 -43.768100 168.703000
-25.432000 -42.300100 168.001000
-25.580300 -41.481200 168.509000
-26.656300 -50.811000 165.352000
-26.779600 -50.200400 166.509000
-26.709400 -49.006500 166.430000
-26.689800 -48.034400 167.151000
-26.692900 -46.869400 168.227000
-26.543000 -45.627300 168.857000
-26.566300 -44.193800 169.232000
-26.204800 -42.286400 167.989000
-26.408300 -41.510100 168.870000
-26.860200 -39.864300 174.772000
-26.716600 -38.676900 174.766000
-27.570300 -50.201400 166.641000
-27.434300 -49.014200 166.791000
-27.487100 -47.931000 167.924000
-27.478200 -46.823800 168.560000
-27.405000 -45.499000 168.867000
-27.396000 -44.155400 169.600000
-27.051900 -42.425600 168.538000
-27.299900 -41.556900 169.866000
-27.605100 -41.222200 173.258000
-27.461900 -39.940700 174.308000
-27.340500 -38.797100 174.880000
-28.634300 -50.800500 168.230000
-28.295900 -49.209100 167.074000
-28.117200 -47.824200 167.058000
-28.234200 -46.756500 168.311000
-28.210100 -45.273900 168.640000
-28.100400 -44.309000 169.587000
-28.027100 -42.720600 169.567000
-28.111800 -41.632800 171.187000
-28.175600 -41.024600 173.564000
-28.148900 -39.942400 174.284000
-28.053000 -38.995700 175.221000
-29.481200 -50.968200 168.823000
-29.114500 -49.533600 167.760000
-29.005300 -48.141800 167.752000
-29.093100 -46.861200 168.313000
-28.961200 -45.462200 168.494000
