# .PCD v0.7 - Point Cloud Data file format
VERSION 0.7
FIELDS x y z
SIZE 4 4 4
TYPE F F F
COUNT 1 1 1
WIDTH 1461
HEIGHT 1
VIEWPOINT 0 0 0 1 0 0 0
POINTS 1461
DATA ascii
69.638400 -49.463100 95.137500
69.444700 -49.323100 96.539600
69.206700 -49.768200 98.575300
69.077800 -50.092900 94.649300
68.990900 -49.764000 95.647300
68.968400 -49.022700 95.961400
68.695000 -49.785200 98.476200
68.484100 -50.304400 95.030700
68.549600 -49.595800 95.483900
68.472400 -49.021200 95.908500
68.219700 -49.389600 97.804000
68.060800 -49.637700 95.429500
67.844900 -49.297700 96.466600
67.670100 -49.389500 97.918500
66.330100 -54.776000 99.506100
67.328300 -50.142800 96.173800
67.283300 -49.368800 96.501700
67.142600 -49.295800 97.719500
65.998900 -55.196700 99.047900
66.701600 -49.560800 96.902600
66.526200 -49.330600 97.815500
53.007200 -47.064400 118.313000
53.236000 -46.161500 117.930000
56.644300 -49.455800 97.472000
55.020100 -52.149500 100.077000
56.128800 -47.858000 98.283500
54.405500 -52.777600 100.010000
54.198500 -52.024800 101.352000
54.197800 -51.551400 101.751000
53.929700 -52.200500 100.362000
53.452500 -52.439700 101.948000
52.562300 -52.907500 102.581000
51.692900 -53.318100 103.280000
51.040100 -53.500100 103.688000
49.636200 -56.139800 103.601000
49.226300 -56.092900 103.380000
44.803300 -59.132200 104.226000
44.455800 -55.613400 107.205000
41.188100 -64.377700 110.236000
40.800400 -64.505700 111.465000
44.386900 -57.891200 104.293000
43.970600 -55.655700 107.302000
39.970400 -65.613900 112.100000
40.012700 -64.942100 112.104000
43.511700 -57.988900 104.787000
44.135900 -56.616900 104.031000
43.952700 -55.408800 105.516000
39.424300 -65.457200 111.975000
39.494700 -64.660400 111.832000
42.716800 -58.195600 105.163000
43.404900 -56.730300 104.241000
43.572700 -55.905200 104.675000
43.063700 -55.814400 106.048000
42.629000 -55.948100 107.555000
38.647200 -65.484700 112.018000
38.973800 -64.490100 111.554000
42.138300 -58.110300 105.076000
42.623900 -57.072500 104.673000
42.683400 -56.286000 105.148000
42.262700 -56.113500 106.463000
38.023300 -65.388300 111.936000
38.454200 -64.235900 111.240000
41.470700 -58.116600 105.174000
42.047000 -56.980200 104.700000
41.767700 -56.572700 105.721000
41.436100 -56.280900 106.671000
38.041900 -67.748000 105.954000
37.316400 -68.450000 107.969000
37.274600 -65.567000 112.172000
38.031300 -63.717600 110.477000
40.752400 -58.197900 105.341000
41.199300 -57.242900 105.198000
41.038500 -56.651700 105.863000
40.425500 -56.790100 107.445000
37.437500 -67.891500 106.230000
37.493900 -67.261600 106.448000
36.892000 -65.046000 111.400000
37.356100 -63.627000 110.366000
39.847700 -58.593800 105.863000
40.334400 -57.543100 105.702000
40.062800 -57.109200 106.619000
39.409100 -57.291000 108.277000
37.041700 -67.520700 105.767000
37.177000 -66.747700 105.961000
36.763700 -66.584400 107.196000
36.038000 -65.684000 110.670000
36.713300 -64.210700 109.950000
37.368400 -62.437900 108.884000
38.800200 -59.339400 106.434000
39.440300 -57.896100 106.185000
38.853800 -57.884700 107.849000
38.055500 -58.261700 109.855000
37.079900 -67.096600 104.094000
36.264800 -67.619000 106.006000
36.487200 -66.767300 106.230000
36.411700 -66.115500 106.915000
36.344800 -65.336700 107.536000
36.067400 -64.951800 109.313000
36.676400 -63.307600 108.568000
37.399100 -61.337200 107.539000
38.260400 -59.233600 106.198000
38.501500 -58.237300 106.628000
37.767600 -58.418700 108.814000
36.959700 -58.841200 110.861000
35.175100 -68.210200 107.009000
35.696500 -66.916300 106.518000
35.904200 -65.997900 106.847000
35.845100 -65.145700 107.298000
35.761200 -64.531600 108.370000
36.157900 -63.012500 108.202000
36.966000 -60.836400 107.037000
37.694000 -59.012400 106.340000
37.574100 -58.418900 107.359000
36.692300 -58.984900 109.874000
36.035500 -59.190100 111.422000
34.473700 -67.735300 107.953000
35.353000 -65.796700 106.709000
34.905900 -65.478700 108.106000
35.302900 -64.025200 107.921000
35.787000 -62.460100 107.548000
36.073200 -61.111300 107.343000
36.812100 -59.411600 106.701000
37.095700 -58.395400 106.939000
36.044300 -59.052200 109.755000
34.785300 -59.940200 112.606000
34.179200 -66.348600 107.967000
34.377200 -65.036000 107.922000
34.787100 -63.621700 107.717000
35.440200 -61.978400 107.020000
35.389300 -61.239500 107.462000
35.806700 -59.842000 107.262000
35.983900 -59.019700 107.977000
35.053000 -59.326900 110.354000
34.102000 -59.844700 112.655000
33.373900 -65.588200 108.730000
33.907300 -63.970000 108.040000
34.674200 -62.115700 107.245000
35.150200 -60.619900 106.868000
35.079700 -59.763000 107.338000
35.137200 -59.006300 108.209000
34.019700 -59.675200 111.182000
33.410000 -59.934300 112.902000
33.131500 -63.978300 108.264000
33.472500 -62.809400 108.153000
34.491400 -60.600700 106.881000
34.849100 -59.281400 106.613000
34.555700 -58.852700 107.708000
33.754800 -59.202400 110.223000
33.159000 -59.485700 112.162000
31.643600 -64.902000 110.042000
32.325500 -63.367300 109.115000
33.321800 -61.262400 107.769000
34.192500 -59.387700 106.799000
34.035200 -58.616700 107.393000
33.395800 -58.705700 109.332000
32.807700 -59.062300 111.354000
31.075300 -64.082700 110.466000
32.243700 -61.758400 108.566000
33.334000 -59.503500 107.106000
33.225200 -58.655900 107.888000
32.784900 -58.553200 109.328000
32.272200 -58.701400 110.850000
31.668000 -61.447600 108.408000
32.375300 -59.982600 107.625000
32.731200 -58.624200 107.438000
32.325500 -58.222800 108.883000
31.459400 -58.730200 111.136000
30.816900 -61.306800 108.605000
31.969900 -59.395500 107.125000
32.031000 -58.405000 107.586000
31.495200 -58.197200 109.095000
31.144100 -58.075500 110.447000
29.024400 -59.148800 114.833000
29.984400 -61.386100 108.811000
31.142700 -59.473400 107.287000
31.496700 -58.453400 107.318000
31.404700 -57.662200 107.949000
30.479300 -57.880900 110.357000
29.565100 -58.224500 112.866000
29.399600 -57.341400 113.564000
29.066500 -56.794800 114.782000
29.220300 -55.630500 115.020000
28.970200 -54.965300 116.272000
29.246800 -53.930400 116.262000
28.671600 -53.873200 117.794000
29.137200 -61.586400 109.082000
30.097300 -59.895900 107.925000
30.709500 -58.430900 107.530000
30.560700 -57.593500 108.383000
29.929900 -57.486500 110.158000
29.361700 -57.529500 112.077000
29.206000 -56.854500 112.922000
28.969300 -56.229100 113.925000
29.055500 -55.249100 114.340000
28.911700 -54.540900 115.153000
28.481400 -54.167200 116.782000
28.246300 -53.533500 117.565000
28.137300 -62.058900 109.854000
29.112800 -60.211400 108.421000
30.078900 -58.450000 107.343000
29.962800 -57.598500 108.051000
29.696600 -57.067700 109.275000
29.004600 -57.112900 111.319000
28.759100 -56.569300 112.563000
28.433300 -56.083500 113.728000
28.382100 -55.255300 114.395000
28.333100 -54.491100 115.123000
28.275300 -53.795300 115.778000
27.967400 -53.222900 116.917000
27.379700 -52.840400 118.414000
27.715300 -61.683500 109.515000
28.709100 -59.683500 107.939000
29.252800 -58.420700 107.654000
29.414200 -57.394800 107.873000
29.244400 -56.810400 108.713000
28.750800 -56.747000 110.453000
28.401600 -56.299400 111.675000
27.893400 -55.944100 113.366000
27.397900 -55.404600 114.743000
27.831700 -54.287500 114.905000
27.326800 -53.875700 116.359000
27.202200 -53.042800 117.136000
27.984200 -59.754200 108.090000
28.689600 -58.233200 107.298000
28.800400 -57.310300 107.855000
28.872500 -56.419300 108.249000
27.995300 -56.739800 110.556000
27.518200 -56.326500 112.066000
26.650200 -56.417200 114.322000
26.479800 -55.701000 115.271000
26.654500 -54.683500 115.844000
26.557400 -53.746000 116.618000
26.190800 -53.175300 117.894000
27.280600 -59.679000 108.116000
27.817900 -58.469500 107.569000
28.087500 -57.423000 107.713000
28.210200 -56.449000 108.252000
27.313100 -56.540600 110.501000
26.126800 -57.086400 113.388000
25.084100 -57.573600 116.054000
25.045400 -55.941500 117.862000
25.179100 -54.906900 118.159000
26.635000 -59.440300 108.062000
27.442000 -57.864000 107.179000
27.760200 -56.827000 107.307000
27.482200 -56.297000 108.307000
26.554200 -56.529800 110.626000
25.591100 -57.021400 113.139000
25.729400 -59.527200 108.252000
26.810800 -57.771500 106.970000
26.978500 -56.857200 107.435000
26.648700 -56.297700 108.597000
26.022800 -56.288700 110.284000
24.957300 -59.549900 108.312000
25.691200 -58.239300 107.647000
26.484500 -56.659200 106.928000
26.582600 -55.838000 107.439000
25.598300 -55.996700 109.581000
24.715900 -56.371300 111.707000
23.701600 -60.144300 109.263000
24.990100 -58.229200 107.645000
25.508800 -56.943000 107.395000
25.742200 -55.943900 107.727000
25.251500 -55.423200 108.858000
24.365700 -55.789400 111.073000
23.078900 -60.074100 109.084000
24.112200 -58.431000 107.925000
24.791400 -57.066500 107.441000
24.978100 -55.857900 107.635000
24.773100 -55.084000 108.563000
24.529200 -54.780700 109.679000
24.620400 -53.636400 109.859000
24.226600 -52.920500 111.045000
23.805500 -52.622300 112.251000
22.289000 -60.277200 109.369000
23.013700 -58.909500 108.552000
24.401200 -56.639500 106.844000
24.702400 -55.345500 106.738000
24.441600 -54.765700 107.813000
24.208500 -54.190400 109.059000
24.579300 -52.823100 108.863000
24.436100 -52.222100 109.713000
24.310400 -51.560800 110.470000
23.531400 -51.760500 112.257000
22.005300 -59.847900 108.781000
22.678000 -58.325500 107.950000
24.119600 -55.997000 106.228000
24.022000 -55.204600 106.794000
23.924700 -54.569700 107.588000
23.678100 -54.003400 108.535000
23.847700 -52.965300 108.983000
24.271900 -51.690300 108.828000
24.139200 -51.027400 109.652000
24.180300 -50.327500 110.034000
21.372600 -61.819500 106.054000
21.541000 -61.008800 106.213000
21.921100 -59.795300 106.266000
21.913600 -59.171100 107.496000
22.322400 -57.972000 107.159000
23.239900 -56.202900 106.388000
23.434700 -55.100300 106.530000
23.382100 -54.404300 107.358000
22.926000 -53.881800 108.533000
23.162700 -52.915100 108.867000
23.403000 -51.853300 109.119000
23.879700 -50.558800 108.878000
23.653800 -50.016300 109.779000
23.388500 -49.666000 110.607000
21.317700 -62.595100 103.327000
21.840600 -61.353300 103.293000
21.853900 -60.734700 104.315000
22.025300 -59.815100 104.572000
22.078400 -58.983100 105.047000
21.796400 -58.591100 106.323000
22.102000 -57.300100 106.407000
22.759500 -55.766600 106.045000
23.032400 -54.657300 106.224000
22.444300 -54.450500 107.836000
22.164200 -53.995000 108.791000
22.148700 -53.236800 109.269000
22.551200 -51.992500 109.300000
23.033000 -50.671200 109.120000
23.377400 -49.633000 109.135000
23.184800 -48.932800 109.738000
21.474000 -61.828600 102.384000
21.688000 -60.952500 102.699000
21.574700 -60.343900 103.551000
21.404300 -59.646700 104.607000
21.290800 -59.057100 105.517000
21.503000 -57.910500 105.636000
21.507200 -57.212300 106.251000
22.008300 -55.985000 105.984000
22.131600 -55.059700 106.410000
22.451500 -53.926900 106.489000
21.583500 -53.960000 108.598000
20.907800 -53.745500 110.162000
21.384800 -52.531000 109.992000
22.374700 -50.599800 108.874000
22.708700 -49.443500 109.093000
22.295500 -48.839000 110.125000
21.317400 -49.026600 112.181000
21.095200 -60.962700 102.561000
21.118500 -60.083400 102.973000
20.934200 -59.560500 103.991000
20.693400 -58.910800 105.130000
20.879500 -57.795300 105.466000
21.053400 -56.895200 105.959000
21.736300 -55.328300 105.476000
21.842600 -54.524400 105.959000
21.765500 -53.783100 106.541000
20.924900 -53.692100 108.446000
20.507700 -53.377700 109.927000
21.297600 -51.738500 109.018000
22.444200 -49.685100 107.476000
22.254200 -49.306900 108.593000
22.352200 -48.335800 108.892000
21.445500 -48.199000 110.860000
20.478700 -48.264500 112.915000
20.400000 -60.806800 102.490000
20.062600 -60.410200 103.673000
20.013800 -59.688200 104.462000
19.869300 -59.115700 105.273000
20.025600 -58.302100 105.736000
20.365400 -56.938700 105.916000
20.902400 -55.512300 105.654000
21.085900 -54.616900 106.107000
20.823300 -53.967900 106.901000
20.724300 -53.231000 107.459000
21.083700 -52.106800 107.655000
21.812600 -50.389900 106.923000
22.117200 -49.377700 107.007000
22.000000 -48.829400 107.842000
21.555500 -48.242500 109.207000
20.988700 -47.904400 110.675000
20.849600 -47.214100 111.249000
20.092000 -47.125900 112.889000
18.749800 -61.138100 104.889000
18.811500 -60.307400 105.633000
18.533400 -59.990000 106.718000
20.123800 -55.508400 105.843000
20.440000 -54.546400 105.964000
20.272300 -53.771900 106.602000
20.839000 -52.352000 106.259000
21.327900 -50.962500 106.023000
21.851100 -49.751600 105.784000
21.558600 -49.389100 106.890000
21.021000 -49.161000 108.389000
20.457800 -47.689100 110.711000
20.548800 -46.799400 110.809000
20.407900 -46.152500 111.304000
19.886600 -46.054600 112.631000
19.530500 -55.373300 105.910000
20.247800 -53.925900 105.024000
20.691100 -52.514600 104.731000
20.847500 -51.577500 105.214000
20.712500 -50.900400 105.738000
20.957700 -50.079100 106.245000
20.803800 -49.593500 107.053000
19.981700 -46.606100 110.745000
19.495300 -46.127800 111.600000
19.762000 -45.469900 111.737000
20.980500 -53.062300 102.040000
21.153500 -52.206300 102.319000
20.687500 -51.875300 103.455000
20.204200 -51.595600 104.954000
19.756800 -51.181000 106.094000
20.023700 -50.407900 106.520000
16.203300 -49.904200 114.141000
18.641500 -46.888700 111.474000
18.949700 -45.954000 111.428000
18.890800 -45.308500 111.890000
20.609900 -52.050200 102.059000
20.069300 -51.748200 103.452000
18.671700 -52.202200 106.188000
17.687900 -52.371200 108.399000
15.480100 -50.736900 114.022000
16.750800 -48.781200 112.614000
17.515300 -47.245800 112.064000
18.269600 -45.906300 111.531000
18.561400 -44.865700 111.438000
17.601800 -44.745300 113.261000
19.488600 -52.378900 102.787000
18.610100 -52.378600 104.625000
17.893300 -52.270000 106.202000
17.324400 -52.072700 107.714000
16.326800 -52.020500 109.768000
15.636100 -51.776100 111.448000
15.916100 -50.650300 111.689000
16.185100 -49.578000 111.916000
16.069600 -48.762000 112.501000
16.619400 -47.508100 112.319000
17.517800 -45.942700 111.523000
17.705500 -45.029700 111.857000
17.348300 -44.404200 112.617000
16.587100 -44.163500 114.365000
19.195200 -52.710400 102.022000
17.291100 -53.592300 105.080000
17.211000 -52.904600 105.770000
17.192000 -52.099800 106.388000
16.057000 -52.339200 108.740000
15.744900 -51.819000 109.730000
15.810900 -51.081900 110.327000
15.447700 -50.439600 111.377000
15.657600 -49.408500 111.731000
15.337700 -48.830900 112.578000
15.889800 -47.583900 112.359000
16.018900 -46.621600 112.795000
16.730800 -45.200600 112.299000
16.627100 -44.216800 112.730000
16.018900 -43.773500 114.321000
15.604300 -54.985100 106.178000
16.009500 -54.052700 105.903000
16.508700 -53.071800 105.710000
16.287800 -52.377700 106.516000
16.051000 -51.806900 107.576000
15.746100 -51.367700 108.675000
15.057300 -51.134000 110.289000
15.101900 -50.206700 110.611000
14.937100 -49.600900 111.723000
14.514500 -49.131000 113.057000
14.458800 -48.422000 113.729000
14.927400 -47.161200 113.587000
16.217700 -44.959700 112.051000
16.102500 -44.094400 112.498000
16.183800 -43.130300 112.687000
14.866800 -43.288700 115.489000
15.352800 -54.003800 106.024000
15.666600 -53.052500 105.966000
15.868200 -51.999600 106.078000
15.927800 -51.361800 106.627000
14.991300 -51.392300 108.679000
14.260300 -51.100800 110.302000
13.620100 -50.987200 111.936000
16.051300 -43.493800 111.602000
16.052100 -42.529800 111.631000
15.003700 -42.608900 113.990000
15.108700 -52.761800 105.713000
15.040900 -52.245900 106.349000
14.997200 -51.463200 106.970000
14.152400 -51.263000 108.787000
13.380100 -51.220300 110.464000
15.529000 -42.985600 111.142000
15.366000 -42.512500 111.693000
15.762200 -41.509400 111.355000
14.065300 -52.773500 106.071000
14.590400 -51.827000 105.954000
14.023300 -51.415500 107.343000
13.214400 -51.335900 109.076000
12.438900 -51.433600 110.646000
14.327400 -43.220500 111.763000
14.831800 -42.312300 111.500000
15.220900 -41.208700 111.136000
14.466900 -41.237700 112.655000
12.973200 -53.001500 106.566000
14.185100 -51.561300 105.388000
13.818200 -51.146800 106.393000
12.931700 -51.066400 108.248000
12.365700 -50.840100 109.543000
13.046000 -43.628500 112.680000
14.117400 -42.276000 111.436000
14.380000 -41.435400 111.508000
14.318700 -40.604000 111.808000
12.450200 -52.728400 106.216000
13.319400 -51.511600 105.614000
12.834500 -51.070000 106.875000
12.149600 -50.836200 108.405000
11.565200 -50.620800 109.590000
12.924000 -42.475300 112.171000
13.721300 -41.298100 111.463000
13.646500 -40.289600 111.717000
12.300600 -40.473000 114.472000
11.469200 -52.898000 106.513000
12.400300 -51.630300 105.764000
12.643900 -50.677700 105.977000
12.036900 -50.323400 107.423000
11.280500 -50.231900 109.050000
10.232500 -50.551700 110.970000
12.026200 -42.425600 112.270000
13.126200 -41.003200 111.146000
13.074000 -40.118800 111.513000
12.653500 -39.674800 112.746000
12.435000 -39.086900 113.807000
12.263500 -38.179700 114.270000
10.372000 -53.158600 106.993000
11.374100 -51.836300 106.156000
12.159800 -50.569600 105.618000
11.547200 -50.125000 106.919000
10.994400 -49.845500 108.371000
9.774520 -50.347000 110.693000
11.379500 -42.438000 112.125000
11.875800 -41.489600 111.753000
12.826800 -39.990100 110.747000
12.342800 -39.457700 112.000000
11.910200 -38.860900 113.299000
11.642500 -38.002100 114.045000
9.435450 -53.345600 107.231000
10.110300 -52.236700 106.830000
11.186100 -50.591800 105.975000
11.271200 -49.595100 106.265000
10.432400 -49.613600 108.023000
9.772260 -49.638100 109.568000
10.336700 -43.425700 111.552000
11.084500 -42.205800 111.327000
11.721000 -40.959300 110.900000
12.005500 -39.817700 110.899000
11.789600 -39.166200 111.925000
11.018700 -38.815800 113.407000
8.244240 -53.772900 107.993000
9.152200 -52.448000 107.091000
10.243000 -50.751100 106.057000
10.733000 -49.645000 106.044000
10.326800 -49.154700 107.035000
9.283270 -49.135300 108.938000
9.126960 -45.313300 111.386000
9.371980 -44.468900 111.529000
10.709600 -42.666200 110.203000
11.022200 -41.695800 110.521000
11.335000 -40.638400 110.377000
11.451000 -39.737700 110.522000
11.090000 -39.153900 111.755000
9.999680 -38.938900 113.680000
8.487330 -52.864700 106.773000
8.893180 -51.838200 106.555000
9.799150 -50.433900 105.745000
9.991600 -49.582500 106.024000
9.447030 -49.045300 107.258000
8.711640 -48.690400 108.682000
7.512570 -48.985700 110.838000
8.186670 -46.299900 111.153000
8.977330 -45.078300 110.614000
9.615920 -43.837400 110.214000
10.465300 -42.326700 109.352000
10.528000 -41.580000 110.120000
10.683100 -40.613900 110.240000
10.040200 -40.219800 111.781000
9.543640 -39.451700 113.069000
9.431910 -38.678200 113.416000
8.831250 -38.572700 114.637000
7.983250 -51.874400 106.795000
9.371980 -50.177400 105.451000
9.328980 -49.230200 105.856000
8.568940 -48.910500 107.500000
8.318720 -48.327200 108.351000
7.066180 -48.752900 110.656000
7.335350 -47.711500 110.647000
8.305480 -45.899600 109.940000
8.927480 -44.623900 109.658000
9.267850 -43.527800 109.630000
10.067700 -42.150700 108.838000
10.275800 -41.279900 109.297000
9.584810 -41.010200 110.904000
8.705250 -38.558700 113.522000
8.935800 -37.817200 113.425000
7.199810 -51.655800 106.649000
8.688360 -49.945400 105.278000
9.054930 -48.873400 105.188000
8.574410 -48.420200 106.287000
7.754300 -48.268900 108.127000
7.062090 -48.117400 109.772000
7.320600 -46.953700 109.781000
7.917330 -45.534200 109.437000
8.761440 -44.145200 108.934000
9.219170 -43.032600 108.645000
9.542050 -42.052300 108.815000
8.484210 -42.113400 111.130000
7.401910 -38.713000 114.382000
7.956130 -37.759200 113.849000
7.431920 -37.406000 114.836000
6.192170 -51.764500 106.963000
7.745360 -50.046600 105.404000
8.123850 -49.011700 105.497000
7.974600 -48.187800 106.058000
7.577230 -47.783200 107.248000
6.890350 -47.581700 108.965000
7.263570 -46.271000 108.757000
7.262980 -45.521300 109.281000
8.171000 -44.121400 108.577000
8.538660 -43.043900 108.431000
8.220830 -36.940600 112.444000
8.037770 -36.439600 112.976000
7.572400 -36.107900 113.902000
5.244210 -51.893600 107.330000
6.708530 -50.215700 105.782000
7.546440 -48.993000 105.208000
7.476590 -48.192500 105.729000
7.120730 -47.529000 106.692000
6.642920 -47.070900 108.133000
6.766290 -46.145600 108.402000
7.071590 -45.177400 108.507000
7.864620 -43.713200 107.829000
7.183840 -43.517600 109.010000
6.703050 -37.256500 113.641000
7.418240 -36.295300 112.922000
7.445870 -35.521400 113.030000
6.207320 -49.854700 105.457000
6.651950 -48.900600 105.450000
6.798300 -47.944300 105.775000
6.596260 -47.230000 106.326000
6.744180 -46.525400 106.826000
6.538480 -45.836300 107.676000
7.366370 -44.297600 106.986000
6.677460 -44.006400 108.475000
5.212690 -44.453300 110.955000
6.927700 -35.841200 112.585000
6.496550 -35.351600 113.355000
5.963020 -35.160300 114.435000
5.121430 -49.879300 105.767000
5.747010 -48.915600 105.521000
6.162050 -47.825500 105.596000
6.549270 -46.740000 105.477000
6.037870 -46.416300 106.726000
6.598110 -45.092100 106.464000
6.867520 -44.132600 106.505000
5.185850 -44.605900 110.000000
5.737460 -35.914300 113.248000
6.351440 -34.920500 112.612000
6.496780 -34.166600 112.647000
4.258310 -49.853700 105.851000
4.912690 -48.911000 105.570000
5.713230 -47.728100 105.129000
5.700600 -46.891000 105.658000
5.833560 -45.860800 105.932000
6.228350 -44.756300 105.858000
5.603240 -44.565200 106.953000
5.349020 -35.003800 113.119000
6.192380 -33.762600 112.089000
5.879280 -33.189400 112.696000
3.242380 -49.993200 106.142000
4.268270 -48.767200 105.403000
5.093740 -47.557600 105.018000
5.198760 -46.558500 105.262000
5.718630 -45.314700 105.037000
5.714240 -44.584100 105.478000
4.662500 -44.769100 107.205000
5.725800 -33.513500 111.836000
5.647000 -32.758100 112.035000
5.056240 -32.501300 113.136000
2.391990 -50.078500 106.136000
3.443160 -48.745700 105.419000
4.623000 -47.255300 104.612000
4.626750 -46.317100 104.983000
5.399780 -44.942300 104.465000
4.295230 -45.048600 106.298000
5.179180 -33.074400 111.510000
5.335940 -32.387200 111.522000
4.702750 -32.094500 112.600000
0.922051 -53.897500 104.313000
1.173010 -52.023200 105.248000
1.126150 -51.394200 105.931000
1.930300 -50.122400 105.630000
2.490290 -48.896900 105.534000
4.274550 -46.814500 103.956000
4.792800 -45.507900 103.812000
4.684520 -44.857600 104.466000
3.156530 -45.108600 106.594000
-0.110459 -46.195700 111.177000
3.840130 -33.378900 112.500000
4.495720 -32.439900 111.861000
4.173070 -31.896300 112.516000
1.754430 -53.641100 102.087000
1.898520 -52.805100 102.497000
1.961870 -51.873900 103.027000
1.791270 -51.277000 103.773000
1.461160 -50.806600 104.869000
1.870960 -49.632600 105.110000
2.462510 -48.250700 104.746000
3.383700 -46.974300 104.017000
4.428400 -45.402600 103.133000
4.031720 -44.794500 104.203000
2.272030 -45.030100 106.771000
0.425432 -45.585500 109.728000
-1.451180 -46.228500 112.563000
3.719130 -32.518600 112.184000
1.401060 -51.894200 103.211000
1.392780 -51.194600 103.757000
3.776400 -45.881700 102.540000
3.956450 -44.931300 102.846000
2.728430 -44.907400 104.894000
1.798930 -44.722500 106.482000
0.420716 -45.072900 108.807000
-0.733775 -45.375300 110.817000
2.820690 -46.570800 102.517000
3.345110 -45.606200 102.149000
3.441850 -44.913300 102.498000
2.712810 -44.526700 103.772000
1.252020 -44.665400 106.191000
0.611499 -44.385100 107.545000
-0.769442 -44.819800 109.843000
3.726960 -45.538800 100.709000
2.661360 -44.823900 102.697000
2.087360 -44.376800 103.637000
1.016030 -44.304600 105.367000
0.306535 -44.047000 106.871000
-0.408566 -44.009100 108.329000
0.952469 -45.288300 104.148000
0.799677 -44.551100 104.537000
0.284511 -44.177300 105.445000
0.210963 -43.516000 105.899000
0.089331 -43.126600 106.638000
0.150792 -43.615900 104.743000
0.010985 -43.001100 105.159000
-0.342849 -42.808000 106.109000
-0.071347 -43.128500 104.008000
-0.344221 -42.768700 104.656000
-0.621645 -42.360000 105.343000
-3.886390 -45.453900 106.698000
-1.087860 -43.203000 104.310000
-1.052670 -42.624800 104.691000
-1.875770 -42.467200 105.831000
-3.347970 -42.728400 107.767000
-3.992140 -45.158600 106.190000
-2.694590 -43.773200 105.090000
-1.773330 -42.575700 104.621000
-2.506830 -42.345400 105.662000
-2.964340 -43.473800 104.632000
-2.802300 -42.626300 104.737000
-3.238030 -42.260800 105.595000
-3.432890 -43.001000 104.301000
-3.089150 -42.094500 104.070000
-3.395350 -41.784400 104.775000
-3.844990 -42.010100 104.104000
-3.492030 -41.326100 104.043000
-4.220000 -41.129300 105.053000
-4.567580 -41.765700 103.967000
-4.326260 -41.256100 104.151000
-5.014470 -41.001500 105.029000
-6.379450 -42.317400 105.262000
-5.604110 -41.424300 104.729000
-5.427360 -40.640200 104.564000
-5.973900 -41.013500 104.245000
-6.046520 -40.294700 104.294000
-6.272790 -40.400400 103.579000
-6.393280 -39.955600 103.920000
-8.126780 -40.354500 106.095000
-7.997960 -40.795200 104.632000
-7.496320 -40.000800 104.376000
-8.407410 -39.844300 105.584000
-8.786630 -40.136200 104.868000
-8.460930 -39.340900 104.830000
-9.604560 -39.397300 106.431000
-10.224400 -40.454900 105.674000
-9.076480 -39.134800 104.591000
-9.104660 -38.544100 104.944000
-10.624900 -40.294100 105.475000
-8.946930 -38.401900 103.580000
-9.565320 -38.150100 104.497000
-10.077800 -37.891500 105.415000
-9.671780 -38.266600 103.591000
-9.835770 -37.724800 103.869000
-10.421700 -37.402500 104.815000
-10.340400 -38.073600 103.402000
-10.937000 -37.709100 104.185000
-10.672000 -36.862500 104.222000
-11.351300 -36.720000 105.313000
-11.603100 -38.177700 103.783000
-11.477500 -37.602500 103.908000
-11.623000 -37.012400 104.376000
-11.305500 -36.078300 104.325000
-12.874500 -38.326600 104.264000
-11.739400 -37.270800 103.409000
-11.612800 -36.355300 103.460000
-11.346400 -35.478700 103.491000
-12.720200 -35.690000 105.324000
-12.099000 -36.814200 102.885000
-11.775200 -36.029700 102.780000
-12.081700 -35.510100 103.406000
-12.841500 -35.248300 104.540000
-13.198800 -36.762400 103.166000
-12.657400 -36.002500 102.944000
-13.179100 -35.442200 103.668000
-13.812900 -35.167600 104.654000
-13.434600 -35.717800 102.850000
-13.668600 -35.194300 103.311000
-14.288400 -34.840000 104.195000
-14.491000 -35.626100 103.026000
-14.549100 -35.093400 103.396000
-14.716400 -34.419600 103.781000
-16.376500 -34.719500 105.836000
-15.182000 -34.862800 103.096000
-15.317000 -34.289500 103.565000
-16.682300 -34.288300 105.289000
-15.986700 -34.657200 102.980000
-15.812200 -34.146700 103.207000
-16.211300 -33.581000 103.857000
-17.459200 -33.599200 105.508000
-17.452800 -34.822000 103.698000
-16.612400 -33.972700 103.192000
-16.729600 -33.226600 103.416000
-16.780200 -32.796600 103.906000
-16.876400 -33.471400 102.568000
-17.119800 -32.949200 103.004000
-17.020200 -32.293800 103.128000
-18.971700 -33.878600 103.804000
-17.768700 -32.767200 102.876000
-17.884000 -32.153900 103.189000
-17.838900 -31.510000 103.290000
-17.838500 -32.366500 102.170000
-17.887700 -31.690700 102.414000
-17.969400 -31.068500 102.689000
-18.471600 -32.180400 102.128000
-18.693400 -31.660400 102.580000
-18.491100 -31.016400 102.612000
-18.930800 -30.647000 103.314000
115.279000 -41.506700 79.266200
114.512000 -41.473400 78.197200
114.583000 -41.025600 78.678900
114.169000 -41.633900 78.558500
114.168000 -41.317800 79.095700
113.667000 -41.793100 78.671300
113.692000 -41.308200 79.097800
113.207000 -41.389300 79.193200
112.750000 -43.136400 77.783000
112.561000 -41.038600 79.075900
112.279000 -41.423900 79.778300
112.761000 -42.281100 81.655900
111.709000 -43.279200 78.125800
111.765000 -41.368000 79.554900
112.106000 -41.618500 80.888100
111.422000 -43.618300 78.569300
111.336000 -42.755100 78.621500
111.328000 -42.084600 79.106900
111.316000 -41.628800 79.864000
111.382000 -41.107300 80.334200
110.811000 -42.518300 78.589200
110.816000 -42.056600 79.270800
110.929000 -41.845000 80.389400
111.224000 -42.184900 82.013700
110.659000 -44.162200 79.845900
110.540000 -43.184500 79.585400
110.485000 -42.556400 79.990500
110.408000 -41.856700 80.424900
110.496000 -41.213700 80.855500
110.477000 -40.847500 81.620400
110.097000 -43.342800 79.939700
109.973000 -42.351500 79.846500
109.931000 -41.825000 80.353700
110.032000 -41.322700 81.122900
109.989000 -40.521800 81.463400
110.079000 -40.435900 82.510000
109.897000 -44.686100 81.621100
109.571000 -42.640300 80.254800
109.571000 -41.905900 80.659900
109.550000 -41.402400 81.272900
109.651000 -40.922000 82.112200
109.773000 -40.712800 83.239500
109.868000 -40.420700 83.792400
109.558000 -45.122000 82.190600
109.136000 -43.039400 80.694900
109.124000 -42.100600 80.909700
109.166000 -41.524000 81.696900
109.078000 -40.573100 81.755900
109.252000 -40.574500 83.067300
109.408000 -40.302800 84.015200
108.784000 -43.331100 81.092200
108.699000 -42.633700 81.416000
108.680000 -41.531000 81.432200
108.731000 -41.118300 82.416700
108.929000 -41.146800 84.007200
108.935000 -40.257500 84.177500
109.293000 -40.859400 86.447400
109.624000 -41.362800 88.903600
109.880000 -41.445100 90.400700
110.278000 -42.133800 92.388800
108.244000 -43.128200 81.128900
108.119000 -42.454300 81.383200
108.242000 -41.730600 81.718600
108.207000 -41.231700 82.419900
108.431000 -41.269500 83.985700
108.604000 -40.780600 84.900000
108.735000 -40.345500 85.662600
108.891000 -40.390900 87.249900
109.450000 -41.370800 90.114200
109.699000 -41.436700 91.351700
107.682000 -43.037500 81.201900
107.668000 -42.426800 81.383700
107.773000 -41.955700 82.018900
107.808000 -41.440700 82.833400
108.203000 -42.183200 85.263700
108.214000 -41.149600 85.452600
108.325000 -40.510100 86.023300
108.410000 -40.427300 87.308500
108.788000 -40.888100 89.238000
109.194000 -41.354400 91.056100
107.207000 -43.382700 81.633200
107.263000 -42.541300 81.672800
107.276000 -41.723300 81.980200
107.419000 -41.882100 83.376700
107.984000 -41.765500 86.451200
107.963000 -40.877300 86.688200
108.104000 -40.624000 87.783800
108.445000 -41.076500 89.507800
106.823000 -43.990200 82.345400
106.797000 -42.917000 82.053200
106.848000 -42.151000 82.464300
106.784000 -41.649600 82.958800
107.585000 -40.828500 86.570400
107.757000 -40.710900 87.726000
106.505000 -44.743900 83.238300
106.426000 -43.506900 82.736400
106.353000 -42.268100 82.400300
106.373000 -41.839700 83.127600
106.751000 -42.849300 85.445300
106.282000 -45.881200 84.621500
106.067000 -43.974700 83.255400
105.954000 -42.832800 83.214000
105.884000 -41.840700 83.334300
105.808000 -45.959200 84.831800
105.662000 -44.248400 83.698900
105.391000 -42.757600 83.109800
105.410000 -42.115100 83.668900
105.736000 -42.671200 85.438500
105.412000 -46.272600 85.315900
105.123000 -44.104500 83.706400
104.939000 -42.562200 83.126400
104.903000 -42.139300 83.816200
105.159000 -42.221300 84.883900
104.631000 -44.158200 83.910600
104.530000 -42.818900 83.413500
104.287000 -41.686900 83.233200
104.563000 -41.848100 84.477000
104.151000 -44.145900 84.168600
103.955000 -42.459400 83.054400
103.704000 -41.132500 82.565900
103.845000 -41.120400 83.565300
103.331000 -41.853500 82.574900
103.308000 -41.200800 82.834700
103.249000 -40.815600 83.354900
102.943000 -52.004700 81.461400
102.914000 -42.285200 83.274800
102.790000 -41.219600 83.000500
102.821000 -40.966700 83.733300
102.411000 -50.316800 80.992300
102.528000 -50.446400 82.637500
102.589000 -50.379200 83.816200
102.403000 -42.049600 83.178600
102.272000 -41.153100 83.076000
102.281000 -40.474700 83.189200
102.587000 -41.002900 84.807600
101.767000 -50.297000 79.625800
101.945000 -50.097400 80.695900
102.056000 -49.729400 81.609200
102.021000 -49.273600 82.464900
102.120000 -49.335700 83.837400
101.955000 -41.762500 83.955700
101.706000 -39.808200 82.377900
101.627000 -39.222800 82.559800
101.406000 -49.926600 80.386700
101.555000 -49.756400 81.624500
101.586000 -49.652200 82.905500
101.626000 -49.055700 83.663900
101.420000 -46.963300 82.394200
101.495000 -41.435500 83.739600
101.341000 -40.014100 82.766500
101.075000 -38.219000 81.315600
101.056000 -52.272700 79.549300
101.043000 -51.591900 79.925200
101.014000 -50.647900 80.104000
101.046000 -50.306500 81.068500
101.102000 -50.002400 82.141700
101.192000 -50.069700 83.717600
101.251000 -49.655500 84.640900
101.246000 -48.585100 84.511200
101.123000 -46.663100 83.092500
101.028000 -40.109700 82.997400
100.776000 -51.491500 81.211500
100.867000 -51.485900 82.625000
100.915000 -51.249400 83.794800
100.819000 -50.281600 84.088300
100.842000 -49.816700 84.804100
100.905000 -49.360900 85.500400
100.835000 -48.790200 86.160800
100.731000 -48.191700 86.931200
100.700000 -51.259600 86.502600
100.505000 -49.491500 85.947300
100.381000 -48.667000 86.566300
100.394000 -48.374900 87.485100
100.317000 -47.239800 87.012200
100.149000 -49.892500 88.106500
99.944900 -48.242500 87.414900
99.928700 -47.524100 87.718500
99.586900 -49.016500 88.530400
99.500900 -47.902100 88.395100
99.218000 -45.612700 87.031700
98.998500 -44.116800 86.650300
99.331400 -50.173500 90.123000
99.102600 -48.035100 88.710800
98.929900 -46.260700 87.792300
98.761800 -45.035900 87.730100
98.565300 -43.295000 86.809100
98.444100 -46.028900 87.833900
98.266200 -44.945700 87.787400
98.284000 -44.216700 88.074200
98.207000 -43.329600 88.074900
97.822500 -45.782900 87.956800
97.791200 -44.718200 87.841200
97.812800 -43.962300 88.093300
97.793100 -43.899900 89.031700
97.225500 -45.611800 87.777800
97.387800 -45.431900 88.572500
97.353800 -44.660500 88.929800
97.376900 -44.378700 89.694300
96.708300 -45.772200 87.994500
96.844700 -45.160300 88.270000
96.786500 -44.693500 88.935000
96.887300 -44.586800 89.986300
96.252100 -46.058300 88.368200
96.265300 -45.268600 88.499800
96.336600 -44.940400 89.500700
96.412000 -44.692000 90.240600
95.711700 -45.653100 87.966700
95.726900 -45.022600 88.196000
95.781500 -44.920800 89.332900
95.924900 -44.611600 90.107900
95.157100 -46.002700 88.384900
95.230600 -45.044300 88.335300
95.249400 -44.851600 89.372700
95.373900 -44.533700 89.960300
94.681400 -46.011100 88.336500
94.683900 -45.431000 88.649200
94.780400 -44.711200 89.025700
94.817200 -44.825400 90.317700
94.230900 -46.226400 88.651900
94.187500 -45.937800 89.346200
94.262000 -45.104700 89.579000
94.237600 -44.891600 90.545800
93.673700 -46.383400 88.967900
93.692900 -45.602600 89.214200
93.741900 -45.216500 90.042100
93.748700 -44.891700 90.647300
93.139700 -46.428700 88.993400
93.141600 -45.764200 89.219800
93.249300 -45.190000 89.775700
93.247600 -45.007100 90.685700
92.610600 -46.260300 88.828700
92.632000 -45.590500 89.032100
92.703300 -45.271900 89.866600
92.689300 -45.554100 91.495800
92.129500 -46.604500 89.278800
92.122500 -45.731200 89.284300
92.181400 -45.664400 90.626900
92.206800 -45.341900 91.281800
91.618100 -46.233100 88.832800
91.556600 -45.702500 89.168100
91.625400 -45.193300 89.722400
91.758300 -45.924500 91.877500
91.063500 -46.280800 88.964600
91.112200 -45.629000 89.216800
91.109800 -45.355700 89.904400
90.528000 -46.289100 88.965300
90.574900 -45.818800 89.414000
90.514300 -45.540000 90.244000
90.397900 -47.345900 94.105300
89.990300 -46.505900 89.356000
90.021600 -46.171700 90.150200
90.018000 -45.976100 91.225100
90.044400 -46.879800 93.472500
89.393200 -46.730100 89.587600
89.475100 -46.085200 89.940100
89.545800 -45.613400 90.675700
89.650300 -46.706200 93.213900
88.904800 -47.021100 89.942100
88.914700 -46.222100 90.024600
89.003500 -45.574000 90.508300
89.101900 -46.132400 92.377900
88.390300 -46.610200 89.526000
88.395300 -46.175700 90.109500
88.493700 -45.719000 90.669200
88.505300 -45.806700 91.961900
87.827700 -47.210300 90.293300
87.951800 -46.028900 89.831300
87.945600 -45.691700 90.743700
87.971700 -45.729600 91.973200
87.295800 -46.926500 89.929900
87.436900 -46.431200 90.405100
87.337600 -45.614200 90.647400
87.465800 -45.393100 91.537200
86.827400 -47.002700 90.009800
86.873900 -46.247400 90.133200
86.825100 -44.964100 89.757300
86.893000 -44.102000 89.803400
86.362800 -46.494600 89.408900
86.333700 -45.636000 89.477800
86.374400 -44.259900 89.047600
86.414100 -42.920200 88.382000
85.756400 -45.940200 88.758100
85.842400 -44.920000 88.712500
85.936000 -44.006700 88.802900
86.082600 -41.812100 87.013900
85.143600 -48.332600 90.635100
85.210800 -46.424100 89.206600
85.312900 -45.736400 89.420700
85.335100 -44.915500 89.508500
84.755700 -47.107400 90.077500
84.767200 -46.393500 90.201600
84.817500 -44.529800 88.822000
84.295400 -46.865400 89.943000
84.243100 -46.706400 90.668400
84.050700 -43.204500 94.690200
84.204300 -40.942700 92.475600
83.880100 -46.705100 89.787100
83.959800 -45.033200 88.539800
83.638400 -42.853200 94.282800
83.717100 -42.281400 94.490300
82.991100 -44.344800 95.976200
83.209000 -42.447500 94.810600
83.307900 -40.258800 93.080900
82.206500 -47.394300 97.207500
82.317800 -46.493800 97.306900
82.479900 -44.658000 96.198500
82.586000 -43.654700 96.354200
82.738000 -41.057500 94.420000
82.761800 -39.900300 94.240400
81.822000 -46.736300 96.333700
81.985700 -45.054000 95.529800
82.116300 -43.489800 94.963500
82.222800 -41.748100 94.160700
82.190900 -41.182300 94.926300
82.324100 -39.792600 94.310400
82.341100 -39.081100 94.545700
81.480700 -46.298900 94.582900
81.196900 -47.259300 96.815400
81.383300 -45.664800 96.142700
81.513800 -44.504900 96.186200
81.660900 -43.035800 95.673200
81.713700 -41.589100 95.253600
81.856600 -40.242000 94.864500
81.932000 -39.428700 95.008200
82.123300 -37.289700 93.023300
80.547000 -48.834200 97.546900
80.482300 -48.573800 98.346900
80.645900 -47.372800 98.302700
80.818900 -45.819000 97.775100
81.190800 -43.304100 96.092000
81.362100 -41.371700 94.987100
81.434300 -40.665000 95.394500
80.106600 -47.230300 93.507100
80.061800 -48.338800 96.451900
79.863200 -49.509900 99.385600
79.929800 -48.857800 100.081000
79.974500 -48.293200 100.888000
80.081000 -47.084800 100.440000
79.766500 -46.853900 91.869100
79.687100 -47.454800 93.757900
79.490300 -48.840600 97.049900
79.358500 -49.507600 99.563700
79.363500 -49.382400 101.047000
79.423300 -48.999000 101.893000
79.215800 -47.470100 92.464800
79.164200 -47.510500 93.743700
78.949100 -49.156900 97.564700
78.813700 -50.436700 100.986000
78.757000 -51.017200 103.346000
78.746100 -47.439600 91.229200
78.614800 -47.983900 92.950900
78.591800 -47.678900 93.796000
78.488800 -50.159100 99.273600
78.114300 -48.365200 92.379400
78.016600 -48.101200 93.066700
78.022200 -47.841400 93.775300
77.489100 -48.558200 92.639400
77.555200 -47.804600 92.634600
77.447400 -48.098300 93.987100
76.863900 -48.772900 92.839200
76.988400 -48.344100 93.301200
76.804300 -48.363000 94.303700
76.324700 -49.021800 93.117700
76.371900 -48.490500 93.464300
76.174400 -48.557500 94.607000
75.096300 -52.931700 94.767500
74.992800 -53.011300 95.830300
75.843400 -48.949600 93.117600
75.727400 -48.758800 93.952600
75.584800 -48.600700 94.892600
74.556300 -53.715700 95.905800
74.629600 -52.492700 95.468000
75.226400 -48.903100 93.146900
75.101100 -48.950300 94.474100
75.019100 -48.622600 95.221100
74.219800 -52.025000 95.244300
74.536600 -49.760900 93.715900
74.669200 -48.503500 93.703900
74.530000 -48.581900 95.232000
74.286800 -49.381100 97.419500
73.690700 -51.692300 95.114200
74.017900 -49.667500 93.665900
74.134500 -48.832600 93.876900
74.102900 -48.135700 94.477000
73.740000 -49.049100 97.162700
73.766600 -45.984700 98.908200
73.471800 -49.421400 93.646100
73.583200 -48.892200 94.174100
73.475600 -48.308200 95.021000
73.207000 -48.747400 97.091400
73.189600 -48.151900 97.738900
73.346400 -46.328300 97.127500
72.809400 -49.451300 93.857300
72.962600 -48.731300 94.248600
72.842800 -48.608000 95.780200
72.826900 -48.278100 96.814200
72.217400 -49.739300 94.263900
72.304700 -48.862700 94.260500
72.403400 -48.115600 94.860300
72.420800 -47.801000 96.146600
70.815800 -54.847800 93.827000
71.711700 -49.527100 94.118900
71.836000 -48.619600 94.004000
71.824400 -48.247800 94.818500
71.888500 -47.449000 95.549000
71.819700 -46.651900 96.316700
70.596200 -53.760100 93.554800
71.008700 -49.928800 94.553200
71.235400 -48.966800 94.609200
71.286800 -48.273800 95.229300
71.178400 -47.821300 96.173500
70.966800 -48.013000 97.813300
71.263600 -46.856800 98.018200
71.432300 -45.666500 98.080000
70.242600 -53.169600 93.088000
69.964600 -52.174400 95.325800
70.380900 -50.091200 94.371900
70.586000 -49.455600 94.995800
70.678700 -48.499800 95.372600
70.310200 -49.112200 97.762400
69.985800 -49.947500 100.065000
69.826800 -51.906700 93.383700
69.670000 -51.483200 94.578000
69.789900 -50.470500 94.949600
70.097400 -49.270700 94.852000
69.990400 -48.783000 95.851500
69.653500 -49.470000 98.124100
69.141900 -51.712300 94.769600
69.296500 -50.349900 94.555900
69.410600 -49.703200 95.467000
69.270700 -49.147500 96.365700
68.992300 -49.912600 98.617000
68.731900 -50.351700 94.531500
68.816500 -49.571100 95.211200
68.616800 -49.246400 96.369800
68.555600 -49.496600 97.949300
68.140700 -49.800700 95.652800
68.133300 -48.976400 96.019700
67.960800 -49.355000 97.712600
67.534000 -49.774400 95.784700
67.642800 -48.966700 96.237700
67.317000 -49.420700 97.959900
67.009400 -49.164600 96.495400
66.291500 -49.180000 97.621700
54.844400 -53.681500 100.229000
56.337200 -49.397000 97.261100
54.797200 -51.601500 99.991500
54.054900 -51.875700 100.367000
54.711300 -50.165400 99.233600
53.274900 -52.238800 100.763000
53.057000 -52.196200 101.903000
50.704500 -54.596000 106.544000
50.077400 -54.954500 107.085000
50.447000 -53.861600 106.561000
49.491700 -55.061100 107.129000
49.774400 -54.295400 107.080000
49.042100 -54.879300 106.516000
48.991000 -54.703800 107.468000
48.680500 -54.489600 105.651000
47.805200 -54.733000 105.898000
47.183100 -54.727100 105.928000
46.385400 -55.366400 106.850000
44.696700 -59.656600 104.001000
44.798000 -58.857100 104.423000
44.522800 -59.658600 102.499000
44.474400 -55.340300 105.409000
43.813000 -55.897800 107.394000
43.612800 -55.782700 106.121000
42.931700 -56.311000 108.084000
43.257700 -56.251600 104.032000
43.474900 -55.609300 104.491000
42.836000 -55.988600 106.418000
42.276100 -56.407000 108.204000
42.575600 -56.430200 104.246000
42.532400 -56.056700 104.997000
42.015600 -56.276700 106.644000
38.228800 -68.748400 105.298000
37.915600 -68.968000 106.644000
41.622200 -57.040000 105.069000
41.529700 -56.527800 105.656000
41.216600 -56.382200 106.676000
37.427700 -69.309400 105.784000
37.795200 -68.235100 105.789000
37.484700 -68.332600 107.022000
38.850800 -60.993900 107.939000
40.586500 -57.527500 105.600000
40.685700 -56.840400 106.103000
40.254900 -56.880800 107.269000
37.044500 -69.432400 104.818000
36.836100 -69.315700 105.775000
37.195700 -68.272100 105.773000
37.093100 -67.617000 106.543000
37.706500 -62.662800 108.989000
38.744100 -60.317000 107.407000
39.709700 -58.081800 106.029000
39.872300 -57.162800 106.335000
39.188300 -57.507000 108.085000
36.085600 -69.594100 106.265000
36.539400 -68.080600 105.875000
36.344900 -67.400500 106.786000
35.965800 -67.283000 108.320000
35.704400 -66.843900 109.590000
35.745000 -65.931100 110.132000
36.026300 -64.520700 110.120000
38.055100 -60.450900 107.554000
39.020200 -58.294800 106.275000
38.895500 -57.591900 106.949000
38.052000 -58.208900 109.079000
35.397700 -68.909400 107.044000
35.729200 -67.554200 106.873000
35.680400 -66.619200 107.526000
35.589100 -66.054100 108.764000
35.626300 -65.133300 109.448000
35.860000 -63.865700 109.416000
36.709000 -61.579300 108.432000
38.071700 -58.709800 106.794000
37.670000 -58.431900 108.130000
37.109800 -58.603600 109.680000
34.812200 -67.632600 107.452000
34.711400 -66.910300 108.175000
35.144300 -65.727100 108.204000
35.217500 -64.765400 108.907000
35.578400 -63.120600 108.770000
36.147100 -61.267600 108.189000
36.892100 -59.292700 107.624000
37.100300 -58.230600 108.028000
36.189400 -58.986500 110.221000
33.397200 -68.633700 109.008000
33.988400 -66.976100 108.324000
34.461700 -65.458000 108.214000
35.025900 -63.555900 107.869000
35.342700 -62.173800 107.933000
35.894400 -60.409000 107.486000
36.087000 -59.298500 107.789000
36.306100 -58.473600 108.268000
35.567900 -58.834900 109.982000
32.985200 -67.496300 109.165000
33.584100 -65.678300 108.462000
33.882800 -64.363000 108.634000
34.712200 -62.315200 107.760000
34.997300 -60.978100 107.779000
35.241400 -59.744700 108.027000
35.448900 -58.644900 108.414000
34.467200 -59.374600 110.805000
32.570500 -66.192300 109.356000
33.069100 -64.481100 108.851000
34.025300 -62.112700 107.744000
34.544900 -60.345600 107.485000
34.823200 -59.206300 107.773000
34.325700 -59.089700 109.233000
33.808200 -59.369600 110.916000
31.874800 -65.248500 110.054000
32.514600 -63.331400 109.281000
33.595700 -60.800400 107.913000
34.003700 -59.437800 108.026000
33.602200 -58.998900 109.111000
33.214800 -59.231500 110.791000
31.555600 -63.532700 109.801000
32.642800 -61.130400 108.347000
33.119100 -59.698100 108.314000
32.982100 -58.779500 108.892000
32.631000 -58.797500 110.341000
30.946500 -63.002800 109.524000
31.507800 -61.667400 109.141000
32.512800 -59.359200 108.049000
32.669700 -58.269600 108.312000
31.943600 -58.704500 110.358000
31.139000 -59.129200 112.447000
29.907000 -63.554900 110.351000
30.759700 -61.677800 109.197000
31.795200 -59.331700 107.877000
31.825700 -58.463100 108.744000
31.056300 -58.685600 110.925000
30.340300 -58.933200 112.822000
30.221000 -61.456800 109.041000
30.762800 -59.851600 108.427000
30.982100 -58.556300 108.690000
30.725300 -58.141700 110.133000
30.053300 -58.340500 112.235000
29.202800 -58.825600 114.499000
29.010200 -57.953200 115.297000
28.979500 -56.834600 116.003000
28.845400 -56.210800 117.017000
29.781500 -60.664000 108.534000
30.672900 -58.606100 107.385000
30.766100 -57.653700 107.766000
30.207000 -57.810700 109.621000
29.690700 -57.791200 111.525000
29.115700 -57.914200 113.557000
29.002900 -56.880000 114.218000
29.010300 -55.962500 114.882000
28.751700 -55.582800 116.166000
28.679600 -54.853900 116.877000
28.148000 -54.462800 118.318000
29.004400 -60.592500 108.665000
29.905800 -58.719300 107.510000
30.211300 -57.698400 107.615000
29.835500 -57.391600 108.913000
29.224500 -57.347300 110.814000
28.738600 -57.268000 112.825000
28.695100 -56.459300 113.518000
28.501200 -55.946200 114.475000
28.409000 -55.210100 115.438000
28.059800 -54.711500 116.904000
27.743500 -54.178800 118.150000
27.524800 -53.424400 119.008000
29.347300 -58.401900 107.210000
29.413900 -57.699100 107.820000
28.985000 -57.363100 109.355000
28.774700 -56.939500 110.396000
28.401800 -56.789800 111.785000
28.046400 -56.418400 113.361000
27.701900 -55.801200 114.669000
27.444200 -55.382200 116.144000
27.516900 -54.403500 116.472000
27.224200 -53.995400 117.887000
28.448100 -58.561400 107.570000
28.711500 -57.655200 107.634000
