# .PCD v0.7 - Point Cloud Data file format
VERSION 0.7
FIELDS x y z
SIZE 4 4 4
TYPE F F F
COUNT 1 1 1
WIDTH 1456
HEIGHT 1
VIEWPOINT 0 0 0 1 0 0 0
POINTS 1456
DATA ascii
183.288000 -78.326100 53.176300
179.299000 -82.245500 51.066800
178.564000 -82.056500 50.331600
178.437000 -81.660300 50.157400
178.706000 -81.119100 50.213500
179.527000 -80.442500 50.716800
179.914000 -79.872900 50.894100
180.904000 -79.150700 51.611300
180.923000 -78.708400 51.499800
180.935000 -78.323700 51.434200
178.759000 -82.265100 51.165100
178.042000 -82.036200 50.408300
178.358000 -81.474600 50.569600
178.164000 -81.080000 50.203800
178.870000 -80.480200 50.669800
179.414000 -79.900800 50.935500
180.028000 -79.243900 51.357100
180.777000 -78.597700 51.820900
180.573000 -78.301700 51.483500
179.131000 -82.449100 52.185300
177.725000 -82.398700 50.788000
177.950000 -81.911000 50.871700
178.079000 -81.448800 50.880900
178.212000 -80.973400 50.712400
179.195000 -80.256400 51.352800
179.211000 -79.777400 51.162700
179.767000 -79.161800 51.513000
180.359000 -78.611700 51.879400
180.313000 -78.269600 51.641400
178.451000 -82.536100 52.159400
177.613000 -82.308200 51.242600
177.586000 -81.850400 51.081500
178.228000 -81.312700 51.527700
177.620000 -83.002100 52.143800
177.218000 -82.694800 51.584700
177.293000 -82.213700 51.481200
177.347000 -81.772600 51.397500
178.652000 -81.152100 52.516300
178.491000 -83.091900 53.578000
176.652000 -83.105400 51.768200
176.702000 -82.622300 51.612100
177.213000 -82.066900 51.897800
177.290000 -81.709600 51.911200
176.698000 -83.365700 52.402800
175.966000 -83.178000 51.705200
176.206000 -82.707400 51.744300
176.688000 -82.133400 51.998500
177.884000 -81.516800 53.067900
176.173000 -83.401900 52.584000
175.772000 -83.025600 51.997200
175.935000 -82.555600 51.944100
176.517000 -82.073200 52.440100
177.730000 -83.860800 54.997600
176.956000 -83.637500 54.092400
175.385000 -83.551700 52.433200
175.776000 -83.005400 52.613800
175.555000 -82.564500 52.177800
176.795000 -81.935800 53.284400
175.856000 -84.102600 53.572400
175.810000 -83.754100 53.447600
175.380000 -83.381600 52.911600
175.103000 -82.931200 52.509300
175.311000 -82.499700 52.489200
175.187000 -84.089900 53.471900
174.887000 -83.766800 53.045600
174.529000 -83.357300 52.645200
174.622000 -82.913200 52.593700
174.930000 -82.497400 52.764500
175.525000 -83.921000 54.396400
174.026000 -83.833300 52.801800
174.141000 -83.354600 52.797700
174.323000 -82.870600 52.856600
175.234000 -82.305200 53.647500
174.106000 -84.095300 53.515600
174.028000 -83.746300 53.440000
173.581000 -83.375000 52.782200
174.337000 -82.739000 53.474900
174.355000 -82.374400 53.359900
173.609000 -84.086000 53.654200
173.461000 -83.690900 53.418700
173.476000 -83.202100 53.197800
174.213000 -82.613500 53.818800
174.577000 -82.169600 54.035900
173.936000 -84.287100 54.643500
172.828000 -84.157200 53.436900
172.832000 -83.756600 53.385000
173.231000 -83.229500 53.578600
175.855000 -82.080800 55.820000
173.258000 -84.331600 54.495500
172.588000 -84.094400 53.757900
172.762000 -83.620800 53.826000
173.596000 -83.080900 54.646200
172.000000 -84.484300 53.861100
172.389000 -83.987200 54.064700
172.690000 -83.521100 54.324000
174.148000 -82.867700 55.780500
171.953000 -84.805800 54.512200
171.586000 -84.545500 54.069700
172.035000 -83.999400 54.311200
172.633000 -83.460100 54.845200
174.527000 -85.332600 58.323900
173.451000 -85.164400 57.107200
171.060000 -84.942000 54.156500
171.235000 -84.465000 54.227200
171.912000 -83.889400 54.728700
172.846000 -83.362400 55.665600
172.521000 -85.535300 56.559600
171.526000 -85.269000 55.420500
170.825000 -84.868700 54.453000
170.785000 -84.466200 54.277800
171.495000 -83.958900 54.898800
170.845000 -85.668700 55.308000
170.928000 -85.250500 55.367500
170.786000 -84.840800 55.000100
170.687000 -84.426200 54.666400
171.855000 -83.843700 55.882700
171.977000 -85.384700 57.161300
170.293000 -85.318700 55.251100
170.672000 -84.800500 55.499200
170.546000 -84.407500 55.110300
169.873000 -85.631200 55.436800
169.876000 -85.283300 55.328100
169.994000 -84.856800 55.357000
170.356000 -84.356300 55.623200
169.302000 -85.668600 55.509300
169.742000 -85.166200 55.739800
169.842000 -84.665000 55.751300
171.075000 -84.051300 57.042800
169.697000 -85.905400 56.624300
168.903000 -85.723300 55.586100
169.029000 -85.308900 55.598000
169.653000 -84.679700 56.161300
170.419000 -84.100500 56.923600
169.249000 -85.914100 56.642900
168.917000 -85.628900 56.124700
168.473000 -85.230200 55.520500
170.028000 -84.435900 57.198400
170.743000 -83.912900 57.923200
168.507000 -85.970000 56.372900
168.373000 -85.569400 56.050700
168.551000 -85.060300 56.209600
170.300000 -84.226800 58.179000
170.775000 -85.959600 59.915200
169.036000 -85.873000 57.723000
168.167000 -85.555700 56.466400
168.650000 -84.912800 56.946100
170.243000 -84.101500 58.789100
171.616000 -83.449000 60.210900
169.236000 -86.117400 58.555600
168.134000 -85.884500 57.215000
168.045000 -85.398700 56.891200
168.545000 -84.790200 57.433200
169.881000 -84.047000 58.937500
169.833000 -83.690300 58.750600
168.389000 -86.146600 58.123400
167.789000 -85.850600 57.500100
167.983000 -85.292800 57.468400
168.587000 -84.604000 58.049100
169.657000 -83.933600 59.176500
169.589000 -83.595500 59.102400
167.264000 -86.258200 57.447300
166.884000 -85.952800 57.025700
167.204000 -85.410700 57.263000
168.108000 -84.716600 58.082400
168.860000 -84.053100 58.857700
169.583000 -83.515500 59.672800
166.529000 -86.298300 57.275500
166.558000 -85.875400 57.139000
167.032000 -85.335900 57.672100
167.598000 -84.724100 58.116000
168.826000 -84.001300 59.414900
166.702000 -86.593300 58.242400
165.989000 -86.374900 57.223800
166.465000 -85.838300 57.648900
166.742000 -85.243900 57.870400
167.946000 -84.547700 59.106000
166.357000 -86.630600 58.397900
165.949000 -86.320100 57.759800
165.930000 -85.794300 57.666000
167.850000 -84.948900 59.777700
167.799000 -87.409500 61.293600
167.462000 -87.106700 60.810500
164.990000 -86.861400 57.329200
165.553000 -86.281900 57.940800
165.574000 -85.826900 57.908700
167.256000 -85.097600 59.763700
166.218000 -87.536000 59.733700
165.883000 -87.171000 59.221700
165.041000 -86.783700 58.032700
164.966000 -86.271400 57.841800
165.518000 -85.739600 58.409900
165.050000 -87.582800 58.835600
164.828000 -87.204500 58.443300
164.604000 -86.735000 58.153200
164.706000 -86.181500 58.127500
165.944000 -85.563100 59.594600
165.782000 -87.387400 60.448400
164.258000 -87.239500 58.385700
164.484000 -86.722700 58.663700
164.466000 -86.240000 58.485500
165.271000 -85.649400 59.422300
164.350000 -87.507700 59.271300
164.107000 -87.100400 58.830200
164.235000 -86.595400 58.853400
164.821000 -86.027600 59.551200
165.305000 -85.524300 60.120800
163.851000 -87.552500 59.405100
163.951000 -87.131900 59.262000
163.888000 -86.627000 59.043200
165.518000 -85.801700 61.032600
165.853000 -85.318400 61.301700
163.847000 -87.888100 60.118000
163.339000 -87.615300 59.301000
163.571000 -87.140300 59.429900
163.844000 -86.584200 59.693800
163.823000 -87.861000 60.686400
163.081000 -87.595300 59.542300
163.220000 -87.086300 59.640800
164.314000 -86.492700 61.031700
162.915000 -87.942900 60.144300
162.858000 -87.500500 59.847900
162.860000 -87.098700 59.835200
163.693000 -88.170100 61.943700
162.711000 -87.957100 60.602900
162.823000 -87.473900 60.474400
163.118000 -87.019100 60.948800
162.373000 -88.343500 60.739800
162.042000 -88.025800 60.331600
162.424000 -87.485800 60.681300
163.030000 -86.943800 61.513000
161.647000 -88.385700 60.397600
161.814000 -87.925000 60.651900
162.565000 -87.316400 61.493700
163.745000 -86.744100 63.092100
163.626000 -88.750600 64.409900
161.465000 -88.405100 60.929000
161.430000 -87.963900 60.838600
161.693000 -87.467100 60.998600
162.592000 -89.172600 63.492900
162.091000 -88.811600 62.643200
161.072000 -88.414300 61.088700
161.306000 -87.865600 61.223200
161.677000 -87.426600 61.759000
161.076000 -89.251300 61.899900
161.152000 -88.839000 61.885300
160.773000 -88.426400 61.359700
160.745000 -87.926700 61.131300
161.798000 -87.349000 62.569600
160.865000 -89.247500 62.383900
160.615000 -88.849300 61.830000
160.467000 -88.328000 61.531100
160.675000 -87.853500 61.662000
161.167000 -89.165100 63.457100
159.953000 -88.967000 61.615300
160.086000 -88.443500 61.720300
160.240000 -87.918800 61.836800
160.012000 -89.235000 62.360600
159.695000 -88.852600 61.906600
159.596000 -88.350900 61.745700
160.466000 -87.787100 62.890600
159.569000 -89.197700 62.409100
159.175000 -88.821300 61.871000
159.195000 -88.338000 61.869900
160.032000 -87.774000 62.972800
158.745000 -89.268400 62.008800
158.927000 -88.751000 62.237100
159.275000 -88.195500 62.567100
159.707000 -87.727400 63.256200
159.731000 -89.495900 64.271000
158.508000 -89.261900 62.412000
158.442000 -88.790500 62.172700
159.071000 -88.186700 62.987400
159.800000 -87.624300 64.136000
158.700000 -89.599100 63.392200
158.266000 -89.273700 62.774600
158.302000 -88.752400 62.624400
159.360000 -88.025600 64.122100
160.649000 -87.385600 65.998200
158.134000 -89.625900 63.327800
158.004000 -89.181000 63.019900
158.364000 -88.594500 63.342700
159.999000 -87.827700 65.615000
158.509000 -89.604400 64.739700
158.170000 -89.222000 64.058000
157.817000 -88.815200 63.389800
159.187000 -89.861500 66.526600
157.977000 -89.632500 64.558000
158.084000 -89.157100 64.626700
158.555000 -88.675400 65.271900
158.778000 -94.428900 67.342700
158.717000 -93.787800 67.283800
160.448000 -93.055700 69.694500
158.220000 -89.930700 65.639200
157.567000 -89.624100 64.605700
157.950000 -89.142900 65.090100
157.659000 -89.974100 65.507200
156.916000 -89.699400 64.363500
154.510000 -93.363400 61.936100
155.281000 -92.791100 63.120900
156.729000 -90.113800 64.941100
156.223000 -89.744600 64.190500
153.723000 -93.902300 61.310000
153.420000 -93.338900 60.840300
153.932000 -92.767000 61.525800
155.720000 -92.008200 64.416700
156.594000 -91.297500 65.806700
156.917000 -90.639600 66.164300
155.657000 -90.211900 63.997500
155.903000 -89.693100 64.298500
156.061000 -89.279500 64.566600
152.744000 -93.845900 60.382900
152.385000 -93.309900 59.784100
153.189000 -92.758100 60.985700
154.710000 -92.042200 63.394000
155.804000 -91.297900 65.062700
155.737000 -90.702900 64.827600
155.643000 -90.220600 64.697200
155.424000 -89.705800 64.206400
156.232000 -89.105200 65.573700
151.760000 -93.279100 59.363600
152.580000 -92.750400 60.675300
153.346000 -92.125900 61.863700
154.345000 -91.430200 63.403000
155.254000 -90.744600 64.719800
154.983000 -90.180900 64.284300
155.209000 -89.575300 64.654800
156.330000 -88.967800 66.430500
152.318000 -93.105900 60.973900
151.525000 -92.778100 59.601100
152.366000 -92.172700 60.959500
153.709000 -91.439000 63.116200
154.229000 -90.750300 63.809000
154.575000 -90.094200 64.308700
154.541000 -89.611200 64.301400
155.848000 -88.963000 66.380900
150.616000 -92.759300 58.670100
151.899000 -92.155700 60.925100
152.617000 -91.509500 62.033500
152.993000 -90.869700 62.550500
154.019000 -90.099800 64.142100
154.485000 -89.451100 64.900000
155.521000 -88.867800 66.577000
151.431000 -92.506200 60.767200
150.835000 -92.120800 59.838800
151.608000 -91.558300 61.065700
152.049000 -90.931600 61.700900
153.413000 -90.155500 63.935200
153.691000 -89.514700 64.305400
154.849000 -88.840400 66.207700
150.832000 -92.047100 60.397700
150.646000 -91.596600 60.155900
151.576000 -90.925600 61.639800
152.249000 -90.249500 62.698900
152.870000 -89.582000 63.658700
153.718000 -88.908800 65.036900
154.772000 -88.295600 66.800000
150.239000 -91.941300 60.105500
150.338000 -91.479900 60.361900
150.667000 -90.964600 60.812400
151.447000 -90.286600 62.057800
152.171000 -89.610100 63.187700
152.852000 -88.984100 64.221200
153.156000 -88.380400 64.804600
151.837000 -91.617500 63.822400
151.522000 -91.273800 63.113300
150.251000 -90.946000 60.802700
150.765000 -90.310000 61.611200
151.500000 -89.614100 62.774400
152.417000 -88.908500 64.197200
152.081000 -88.331500 63.738500
153.661000 -87.480600 66.433200
153.996000 -86.906400 66.999300
152.127000 -91.142700 64.778100
150.930000 -90.803200 62.623100
150.401000 -90.296400 61.704700
150.810000 -89.644300 62.346000
151.463000 -88.916200 63.334700
151.933000 -88.218500 64.198500
152.210000 -87.628000 64.548000
152.695000 -87.053800 65.307600
149.756000 -90.277100 61.188100
150.107000 -89.674200 61.889200
150.812000 -88.979800 62.987100
150.933000 -88.418700 63.045200
151.377000 -87.714400 63.851000
151.979000 -87.050800 64.747500
153.117000 -86.387100 66.667700
150.121000 -89.940500 62.624600
149.865000 -89.530500 62.217900
150.090000 -89.018200 62.488600
150.547000 -88.330200 63.136200
150.867000 -87.645800 63.716300
151.367000 -87.031100 64.453500
152.227000 -86.426700 65.800200
149.429000 -89.470600 62.099800
149.493000 -89.072600 62.106800
149.858000 -88.425900 62.741200
150.291000 -87.771600 63.345100
150.328000 -87.147200 63.403600
151.245000 -86.448900 64.894400
150.324000 -89.123100 64.542300
149.531000 -88.857800 62.934600
149.410000 -88.363700 62.656600
149.447000 -87.780000 62.632000
149.673000 -87.088200 62.985900
150.748000 -86.371400 64.781500
151.719000 -85.735100 66.440100
152.635000 -88.577300 70.196000
150.080000 -88.613300 64.803800
148.938000 -88.311700 62.512700
148.467000 -87.818400 61.626500
148.933000 -87.187600 62.339300
149.681000 -86.473500 63.583000
150.725000 -85.818100 65.337500
152.127000 -88.636400 69.847100
151.082000 -88.408700 67.653200
149.731000 -88.119800 64.857900
148.189000 -87.850300 61.821400
148.301000 -87.266900 61.936300
148.670000 -86.610500 62.498400
149.419000 -85.913900 63.791300
150.806000 -82.826500 66.089600
150.480000 -82.550500 65.326700
152.063000 -88.576700 70.421100
151.634000 -88.266700 69.487600
150.881000 -87.955600 67.947200
147.892000 -87.845200 61.963300
147.757000 -87.369400 61.690100
148.145000 -86.683800 62.322000
148.345000 -86.001200 62.617500
149.090000 -85.273400 63.936000
149.979000 -83.535900 65.401300
149.054000 -83.348400 63.486400
149.675000 -82.714300 64.418900
151.646000 -88.523200 70.431100
151.156000 -88.202200 69.320300
149.719000 -87.948500 66.561500
147.732000 -87.715300 62.535900
147.554000 -87.159800 62.123800
147.822000 -86.474000 62.470700
147.815000 -85.915500 62.382100
148.334000 -85.282000 63.193900
149.226000 -84.492100 64.767500
148.859000 -83.890300 63.929600
148.578000 -83.411100 63.322500
148.943000 -82.826300 63.753600
149.629000 -82.202000 64.880900
151.879000 -88.421800 71.759600
151.063000 -88.179100 69.927000
147.489000 -88.047100 62.931600
147.415000 -87.600000 62.646700
147.000000 -87.183800 61.906400
147.202000 -86.626500 62.025800
147.413000 -85.990300 62.370800
147.600000 -85.404500 62.502800
147.692000 -84.747300 62.572900
147.934000 -83.996800 62.873200
148.117000 -83.443200 63.114300
148.171000 -82.996200 63.056100
149.228000 -82.213300 64.857900
152.479000 -88.276800 73.612700
152.111000 -87.964500 72.727900
147.489000 -87.886400 63.619200
146.891000 -87.637200 62.347700
147.299000 -86.977700 63.265400
147.007000 -86.496200 62.438700
147.265000 -85.887500 62.807100
147.180000 -85.375500 62.499600
146.999000 -84.794400 62.153200
147.345000 -84.183300 62.499100
147.767000 -83.491800 63.139500
148.503000 -82.768900 64.374500
147.103000 -87.436400 63.422800
147.828000 -86.664500 65.008200
146.974000 -86.367400 63.211200
146.719000 -85.903900 62.432700
146.666000 -85.270000 62.370500
146.518000 -84.789300 61.917100
146.806000 -84.215000 62.234000
148.162000 -83.243900 64.671200
146.859000 -86.211400 63.814300
146.423000 -85.796000 62.755400
145.927000 -85.336400 61.716900
146.292000 -84.711700 62.192200
146.727000 -84.077300 62.846400
147.115000 -85.937100 65.181500
146.094000 -85.785400 63.032600
145.668000 -85.368300 61.965900
145.500000 -84.904600 61.439800
145.862000 -84.258700 62.139200
146.142000 -86.022200 64.060000
145.789000 -85.682700 63.248000
145.590000 -85.308300 62.576100
145.396000 -84.741700 62.101900
145.572000 -84.104200 62.387200
146.606000 -83.397300 64.331800
146.171000 -85.880100 64.919700
146.152000 -85.460000 64.821300
145.125000 -85.271500 62.397100
144.874000 -84.740100 61.958100
144.873000 -84.226900 61.716300
145.839000 -83.495100 63.503700
145.978000 -85.762100 65.317700
146.003000 -85.294000 65.366200
144.792000 -85.213300 62.567800
144.478000 -84.713700 61.982000
144.586000 -84.216700 61.930600
144.920000 -83.642700 62.512400
145.803000 -85.171000 65.759600
144.639000 -85.055400 63.127100
143.976000 -84.728800 61.645700
144.137000 -84.132400 61.859200
145.161000 -83.241500 63.959300
145.529000 -85.035000 66.063500
144.488000 -84.948100 63.704200
143.845000 -84.600300 62.139900
143.968000 -83.943000 62.373500
144.218000 -83.399200 62.717900
145.029000 -82.704400 64.314100
144.618000 -84.711500 64.807700
143.443000 -84.635200 62.191100
143.280000 -84.102300 61.706600
143.623000 -83.456300 62.261700
144.248000 -82.851400 63.379200
144.607000 -84.564600 65.473500
143.305000 -84.537300 62.646100
142.905000 -84.113400 61.803600
142.985000 -83.537200 61.766900
143.513000 -82.932300 62.651400
142.685000 -84.425500 62.215700
142.300000 -84.140000 61.284200
142.529000 -83.544800 61.711600
142.701000 -82.967900 61.870100
142.319000 -84.365700 62.268100
142.154000 -84.024800 61.773400
141.797000 -83.578300 61.008700
142.076000 -82.971900 61.358100
142.867000 -82.192300 63.028900
142.003000 -84.297000 62.448800
141.531000 -84.019500 61.273400
141.282000 -83.584200 60.678100
141.408000 -83.045800 60.703600
141.781000 -82.467400 61.304800
142.553000 -81.739300 62.983900
141.694000 -84.221700 62.721500
141.421000 -83.999800 61.841600
141.206000 -83.581400 61.285700
141.038000 -83.045900 60.799900
141.203000 -82.506600 60.879200
141.928000 -83.964700 64.068300
141.287000 -83.831200 62.416000
140.725000 -83.479700 61.029100
140.764000 -82.471800 60.878200
141.187000 -81.900800 61.622900
141.711000 -83.484500 64.230200
140.892000 -83.329900 62.288300
140.428000 -82.921500 61.095800
140.286000 -82.443600 60.659700
140.613000 -81.958000 61.152300
141.148000 -83.394100 63.809600
140.044000 -82.439000 60.928600
140.054000 -81.966100 60.816700
140.071000 -83.149700 62.141300
139.513000 -81.325700 61.183700
139.608000 -82.931000 62.926700
139.066000 -81.344100 60.918800
138.905000 -80.747400 62.540900
139.681000 -79.894000 64.424700
138.217000 -80.940900 61.702100
138.929000 -80.167600 63.248100
137.836000 -80.872900 61.687600
138.509000 -80.192600 63.067500
137.634000 -80.426800 61.824900
139.538000 -83.689800 69.666600
139.472000 -83.155400 69.409200
139.068000 -82.865300 68.254600
139.080000 -83.204900 68.923500
139.010000 -82.720900 68.682600
137.664000 -81.716900 64.956700
137.376000 -79.587700 63.058000
137.130000 -81.432100 64.240600
136.708000 -79.734300 62.198100
137.516000 -89.139500 67.770400
137.231000 -81.575600 65.550100
137.122000 -81.258100 65.134800
134.724000 -80.588800 60.146800
134.983000 -80.046600 60.629800
134.588000 -80.409100 60.599500
134.790000 -79.875400 61.216900
136.748000 -77.640900 66.625500
135.705000 -72.242000 61.118200
135.497000 -71.929100 60.303300
134.983000 -71.884600 58.594500
134.182000 -80.449500 60.533000
134.673000 -79.612200 61.932200
134.938000 -73.102100 59.989800
134.555000 -72.953100 58.706700
134.522000 -72.442300 58.247000
134.466000 -72.031800 57.754300
134.271000 -79.992300 61.846400
134.956000 -78.937300 63.633100
135.985000 -77.707100 66.379100
135.078000 -75.784700 63.171000
134.998000 -75.466400 62.714600
135.020000 -74.981100 62.622300
134.475000 -74.281400 60.471300
134.115000 -74.075000 59.041200
134.079000 -73.575000 58.578800
133.987000 -73.196500 58.034500
134.227000 -72.471400 58.483600
134.093000 -72.068500 57.636400
133.847000 -79.512200 61.462000
134.692000 -78.377000 63.677500
135.192000 -77.550100 64.915100
134.515000 -77.463500 63.101200
134.601000 -76.950600 63.328000
133.795000 -76.650100 60.414900
134.435000 -75.719700 61.814600
133.778000 -75.713400 59.854700
133.764000 -75.208800 59.468900
133.630000 -74.754100 58.810400
133.642000 -74.165200 58.607000
133.785000 -73.559200 58.719200
133.656000 -73.182500 58.078900
133.381000 -72.962700 57.045200
133.774000 -72.124600 57.901300
133.292000 -79.654900 60.932900
134.141000 -78.532400 63.123100
134.474000 -77.776400 63.770200
134.070000 -77.477200 62.587200
133.147000 -77.505200 59.748600
133.163000 -76.943800 59.603200
133.310000 -76.387700 59.475500
133.173000 -75.937800 59.056300
133.259000 -75.317000 58.978900
133.188000 -74.781600 58.473800
133.110000 -74.374000 58.021700
133.210000 -73.791000 58.066700
133.298000 -73.206900 58.015900
133.381000 -72.652600 57.933900
133.411000 -72.057400 57.746200
132.768000 -79.758700 60.437200
133.388000 -78.809800 61.985000
134.134000 -77.829300 63.664300
132.810000 -78.027600 59.877800
132.727000 -77.555700 59.465400
132.712000 -77.019700 59.307000
132.833000 -76.435800 59.198200
132.869000 -75.810300 59.077900
132.718000 -75.488400 58.406100
132.914000 -74.858900 58.772400
132.878000 -74.330100 58.362400
133.099000 -73.573900 58.891100
133.081000 -73.134200 58.293700
133.342000 -72.325200 58.543800
133.538000 -71.616100 58.821500
131.985000 -80.521800 59.393600
132.249000 -79.866400 59.906400
132.690000 -79.092400 60.917100
132.489000 -78.641700 60.178500
132.330000 -78.114000 59.568200
132.290000 -77.567800 59.147900
132.136000 -77.237900 58.487200
132.427000 -76.558900 59.130100
132.546000 -75.922200 59.207600
132.667000 -75.257700 59.286000
132.606000 -74.743100 58.879300
132.804000 -74.003500 59.193500
132.974000 -73.356200 59.449900
132.119000 -80.801600 60.926200
131.728000 -80.590200 59.472300
131.879000 -79.897000 59.907100
132.155000 -79.179900 60.310300
131.840000 -78.809900 59.271400
131.780000 -78.324800 59.020700
131.920000 -77.703000 59.159500
131.938000 -77.111300 58.888100
132.139000 -76.422100 59.167000
132.330000 -75.717900 59.612900
132.482000 -75.041700 59.827400
132.746000 -74.282400 60.232500
131.653000 -80.767000 60.575700
131.673000 -80.343900 60.343200
131.599000 -79.809900 60.170200
131.546000 -79.278800 59.664600
131.641000 -78.645900 59.642800
131.596000 -78.124300 59.468300
131.469000 -77.667200 58.752900
131.532000 -77.144800 58.706500
131.789000 -76.440600 59.226700
132.310000 -75.411200 60.656100
132.900000 -74.417100 62.126100
131.139000 -80.721900 60.236800
131.328000 -80.225000 60.445500
131.098000 -79.815000 59.575100
131.106000 -79.265800 59.465200
131.327000 -78.646400 59.738700
131.126000 -78.277600 59.121700
131.349000 -77.590900 59.548500
131.420000 -76.981900 59.436100
131.691000 -76.185500 60.072700
132.500000 -75.008600 62.287200
131.007000 -80.544500 61.000300
130.847000 -80.314300 60.121500
130.938000 -79.808800 60.110700
130.847000 -79.325000 59.714300
130.837000 -78.731600 59.437300
130.995000 -78.055300 59.627600
131.103000 -77.437700 59.827600
131.493000 -76.563000 60.846000
132.070000 -75.608600 62.340000
130.808000 -80.427100 61.477200
130.487000 -80.362400 60.014900
130.557000 -79.776100 60.086000
130.484000 -79.245500 59.565000
130.478000 -78.735500 59.495700
130.746000 -77.996600 59.999100
131.086000 -77.141800 60.928600
131.905000 -75.971800 63.263800
130.628000 -80.255800 62.079800
130.282000 -80.219000 60.430500
130.242000 -79.721400 60.306600
130.241000 -79.152400 60.018000
130.573000 -78.322400 60.787900
130.782000 -77.637000 61.311100
131.250000 -76.780800 62.545500
130.412000 -80.164400 62.602400
130.008000 -80.090900 60.780500
129.886000 -79.664900 60.126600
129.904000 -79.131300 60.165900
130.263000 -78.333500 60.963900
131.128000 -77.111700 63.596100
130.260000 -80.037500 63.221000
129.741000 -80.059400 61.192700
129.574000 -79.614900 60.359300
129.816000 -78.838900 60.920000
129.997000 -78.276800 61.150900
129.818000 -80.075400 62.874200
129.276000 -80.046100 60.762700
129.147000 -79.605100 60.212100
129.294000 -79.045100 60.383800
129.681000 -78.332400 61.358700
129.495000 -80.042300 62.949800
129.160000 -79.943900 61.582500
128.880000 -79.673500 60.443900
128.895000 -79.099400 60.341400
129.253000 -78.440500 61.192300
129.233000 -79.952900 63.127300
128.740000 -79.939400 61.189000
128.538000 -79.530100 60.479800
128.448000 -79.142200 59.877900
128.759000 -78.506000 60.812000
128.239000 -80.006500 60.638100
128.131000 -79.577400 60.382700
128.220000 -79.035400 60.248700
128.476000 -78.405100 61.059600
128.415000 -79.888000 62.856000
127.927000 -79.947900 60.821500
127.695000 -79.690400 59.999400
127.928000 -79.009500 60.575100
128.033000 -78.480000 60.723400
127.493000 -79.981500 60.585400
127.427000 -79.529500 60.110200
127.670000 -78.814400 60.820500
127.732000 -78.399000 60.853400
127.245000 -80.274600 61.208900
127.237000 -79.877700 61.160000
127.196000 -79.539500 60.495000
127.163000 -79.009000 60.261000
127.474000 -78.348100 61.087300
126.999000 -80.189000 61.637600
126.981000 -79.786900 61.469400
126.825000 -79.478700 60.422800
126.776000 -78.996100 60.118500
126.931000 -78.548200 60.350500
126.642000 -80.181700 61.693100
126.751000 -79.777800 61.746900
126.677000 -79.315500 61.355100
126.379000 -79.146200 59.730100
126.602000 -78.486300 60.545100
126.421000 -80.021900 62.316400
126.385000 -79.724800 61.655000
126.295000 -79.310100 61.107900
126.183000 -78.941600 60.429700
126.175000 -78.539800 60.233200
126.165000 -79.942100 62.728200
126.189000 -79.578000 62.410700
125.980000 -79.275500 61.123300
125.810000 -78.949400 60.257700
125.840000 -78.507900 60.304900
126.032000 -79.710100 63.666700
126.023000 -79.449100 63.140000
125.718000 -79.279200 61.577300
125.565000 -78.862000 60.666000
125.505000 -78.332200 60.607700
125.929000 -79.448500 64.827600
125.763000 -79.262000 63.532400
125.314000 -79.210000 61.165200
125.276000 -78.634500 61.045500
125.334000 -78.099500 61.148900
125.811000 -77.155200 63.219100
125.771000 -79.276700 65.615000
125.478000 -79.148700 64.101700
125.033000 -79.106300 61.516600
124.883000 -78.719000 60.693100
125.039000 -78.055800 61.237500
125.571000 -77.034100 63.517300
125.370000 -79.287400 65.380600
125.118000 -79.118600 64.093000
124.768000 -79.028200 62.088600
124.723000 -78.506300 61.432400
124.684000 -78.047900 61.095100
125.243000 -76.990200 63.541900
125.077000 -79.159100 65.846600
125.025000 -78.926300 65.101100
124.501000 -79.002200 62.477300
124.393000 -78.495200 61.759900
124.438000 -77.959800 61.452100
124.838000 -77.068100 63.227100
124.944000 -78.927100 67.058300
124.725000 -78.802600 65.386000
124.067000 -78.925800 61.991600
123.910000 -78.573000 61.083800
124.111000 -78.004400 61.497000
124.484000 -77.167900 62.986800
125.054000 -78.449000 69.208400
124.813000 -78.386900 67.810700
123.817000 -78.879200 62.295700
123.598000 -78.603800 61.240700
123.679000 -78.170600 60.971400
124.664000 -78.501400 68.784300
124.454000 -78.375000 67.661600
123.340000 -78.909400 61.868100
123.199000 -78.674800 60.855300
123.295000 -78.202800 61.106700
123.718000 -78.637900 65.506900
123.050000 -78.847300 62.295300
122.919000 -78.648400 60.977600
122.905000 -78.202800 61.097000
123.081000 -78.818500 64.312800
122.715000 -78.869900 62.203700
122.695000 -78.480600 61.735900
122.538000 -78.180800 61.034900
122.788000 -78.712400 64.665300
122.408000 -78.812800 62.298000
122.300000 -78.495900 61.361400
122.183000 -78.188500 60.950900
122.320000 -78.847500 64.014800
122.139000 -78.709200 62.760400
121.962000 -78.518500 61.430500
121.856000 -78.157300 61.018200
122.073000 -78.691200 64.627300
121.760000 -78.718700 62.546000
121.597000 -78.483000 61.261500
121.613000 -77.985000 61.546000
121.576000 -78.874200 63.768600
121.420000 -78.700100 62.627300
121.323000 -78.356900 61.826300
121.159000 -78.160900 60.745400
121.354000 -78.685700 64.456500
121.062000 -78.705800 62.483600
121.015000 -78.296500 62.008400
121.005000 -77.822500 61.908200
121.017000 -78.688800 64.320700
120.768000 -78.652800 62.702200
120.714000 -78.266800 62.165400
120.651000 -77.715700 61.959400
120.817000 -77.159300 62.508100
120.402000 -78.667300 62.472900
120.320000 -78.216700 61.992100
120.236000 -77.784700 61.454000
120.588000 -76.963500 63.050500
120.375000 -78.465700 65.046200
119.958000 -78.671000 62.177200
119.943000 -78.181100 61.662600
120.010000 -77.638900 61.855800
120.153000 -77.059400 62.535600
119.881000 -78.665500 64.213800
119.663000 -78.569900 62.643300
119.584000 -78.294000 61.504500
119.730000 -77.574700 62.039500
119.915000 -76.807200 63.264500
119.684000 -78.489100 65.162500
119.408000 -78.506900 63.186100
119.292000 -78.244900 61.849600
119.375000 -77.660100 61.917700
119.511000 -76.789600 63.043500
119.400000 -78.371500 65.548300
118.990000 -78.562900 62.761300
119.083000 -78.093200 62.633200
119.023000 -77.572600 62.043800
119.276000 -76.395200 63.925700
119.448000 -75.633200 64.958900
118.986000 -78.371700 65.367700
118.691000 -78.465300 62.940900
118.720000 -78.107100 62.272700
118.643000 -77.618800 61.923900
118.696000 -76.924600 62.114200
118.842000 -76.148500 62.732300
119.130000 -75.187900 64.598800
118.806000 -78.141200 66.396300
118.440000 -78.355200 63.511600
118.392000 -78.054000 62.365100
118.293000 -77.557200 61.758000
118.369000 -76.924400 61.988100
118.380000 -76.390100 61.889600
118.606000 -75.483300 63.220800
118.417000 -78.296100 65.561000
118.082000 -78.279300 63.373700
118.039000 -77.981700 62.410200
117.958000 -77.630700 61.496400
117.985000 -77.088000 61.416700
117.964000 -76.505100 61.348000
118.172000 -75.613000 62.535500
118.402000 -74.607400 64.303100
117.515000 -78.660000 61.285200
117.653000 -78.030100 62.077000
117.663000 -77.622900 61.462600
117.579000 -77.079200 61.023700
117.754000 -76.170600 61.997200
117.872000 -75.472200 62.524000
118.161000 -74.439900 64.633900
117.183000 -78.374400 60.375300
117.262000 -77.702700 60.924100
117.260000 -77.105000 60.928200
117.373000 -76.493900 61.259000
117.523000 -75.772200 61.935300
117.794000 -74.753000 63.626400
116.829000 -78.207700 59.098200
116.938000 -77.456800 59.969600
116.993000 -76.899200 59.985600
115.952000 -78.970900 65.070800
115.778000 -79.002100 63.073200
115.947000 -78.433300 67.491400
115.731000 -78.542600 65.140400
115.516000 -78.635500 62.578800
115.558000 -78.708000 66.287700
115.413000 -78.560800 65.066800
115.299000 -78.365100 63.524600
115.206000 -78.160200 61.956700
115.168000 -77.623600 61.789800
115.025000 -77.669600 59.936800
115.199000 -78.701100 66.106400
115.050000 -78.589100 64.601400
114.986000 -78.223400 63.788100
114.958000 -77.878500 62.687300
115.010000 -77.326800 62.777300
114.788000 -78.701200 65.789500
114.694000 -78.531000 64.369900
114.655000 -78.187900 63.288000
114.649000 -77.836200 62.701300
114.669000 -77.412300 62.558900
114.778000 -75.828200 66.283000
114.498000 -78.516200 66.589200
114.377000 -78.507000 64.696900
114.354000 -78.144700 63.761600
114.418000 -77.623600 63.465400
114.385000 -76.987200 63.720400
114.521000 -75.862000 66.169500
114.117000 -78.358000 65.361700
114.020000 -78.055200 64.306000
114.084000 -77.567200 63.571100
114.098000 -76.855800 64.060800
114.255000 -75.859200 66.188900
113.624000 -78.696400 65.737400
113.729000 -78.320800 65.321600
113.618000 -78.057100 64.163800
113.725000 -77.466000 63.876500
113.822000 -76.775800 64.430000
113.321000 -78.779300 65.441200
113.383000 -78.315600 65.497800
113.278000 -78.145200 63.966700
113.304000 -77.599400 63.753700
113.437000 -76.992200 64.030200
113.019000 -78.769700 65.421400
113.001000 -78.562200 64.243300
112.996000 -77.973000 64.440900
112.981000 -77.464600 64.244700
112.991000 -77.197000 63.445300
112.664000 -78.806000 65.170700
112.679000 -78.444400 64.748900
112.629000 -78.087100 63.766600
112.618000 -77.643500 63.245800
112.564000 -77.326600 62.518900
112.317000 -78.851400 64.713400
112.304000 -78.403300 64.435800
112.309000 -78.048100 63.498300
112.234000 -77.683800 62.617700
112.161000 -77.533700 60.803000
111.926000 -78.328600 64.858100
111.955000 -78.056000 63.520500
111.890000 -77.725800 62.423600
111.899000 -77.388200 61.542800
111.861000 -77.447200 59.146100
111.914000 -77.181600 58.087300
111.618000 -78.184400 67.502200
111.565000 -78.317100 64.954300
111.617000 -77.951200 64.200100
111.650000 -77.606600 63.283000
111.623000 -77.212700 62.645400
111.632000 -77.069600 61.077600
111.705000 -76.809200 60.025200
111.288000 -78.165700 67.786400
111.290000 -78.252500 65.519100
111.272000 -77.803100 65.000500
111.337000 -77.468800 63.708500
111.324000 -76.894500 63.790100
110.966000 -78.142200 67.876900
110.951000 -78.197500 65.693900
110.911000 -77.809900 64.849500
110.954000 -77.294400 64.375100
111.005000 -76.518700 65.399000
110.611000 -78.165400 67.553900
110.584000 -78.242400 64.965600
110.613000 -77.744800 64.609100
110.601000 -77.152000 64.942200
110.637000 -76.564800 65.290700
110.210000 -78.140600 67.594100
110.267000 -78.158500 65.621500
110.264000 -77.660300 65.066700
110.295000 -77.010000 65.137100
110.264000 -76.192100 66.063000
110.330000 -74.283200 69.938400
110.329000 -73.824800 69.705900
110.311000 -73.644100 67.904900
110.351000 -73.066600 67.458700
110.346000 -72.739400 66.228100
110.390000 -72.021400 66.307600
109.849000 -78.005600 68.257900
109.909000 -78.091500 65.740600
109.913000 -77.718100 64.845400
109.926000 -76.921300 65.499400
109.950000 -75.938700 66.598000
110.057000 -74.729700 68.684100
110.014000 -74.597300 66.825400
109.999000 -74.227100 65.837500
110.061000 -73.584000 65.718900
110.044000 -72.886700 65.760300
110.115000 -72.320200 65.265100
109.523000 -77.967600 68.464300
109.539000 -78.071300 66.076800
109.580000 -77.633800 65.277000
109.552000 -77.004100 65.249700
109.612000 -76.070800 66.438100
109.684000 -75.326200 66.532900
109.649000 -74.790000 65.874100
109.710000 -74.068100 65.890800
109.758000 -73.455500 65.805100
109.711000 -72.944200 65.711100
109.762000 -72.332100 65.565400
108.986000 -80.549600 69.805000
108.947000 -79.468300 71.831900
109.173000 -77.964400 68.250900
109.194000 -78.058200 65.528900
109.217000 -77.504200 65.197400
109.232000 -76.660800 65.986300
109.285000 -76.007500 65.924800
109.335000 -75.428600 65.751000
109.294000 -74.884000 65.828100
109.333000 -74.300500 65.682400
109.396000 -73.524600 65.849300
109.397000 -72.867800 65.604100
109.455000 -72.221600 65.311100
108.688000 -79.856100 69.850400
108.796000 -77.967000 68.418700
108.814000 -77.950600 66.324400
108.899000 -77.593800 65.402800
108.893000 -76.971800 65.422700
108.896000 -76.123700 66.003600
109.002000 -75.411900 66.030000
108.991000 -74.721200 66.212500
109.035000 -73.921800 66.636200
109.090000 -73.086900 67.143100
109.139000 -72.180400 67.933100
108.384000 -79.131700 70.110000
108.402000 -78.362400 70.803200
108.416000 -78.123100 68.320300
108.454000 -77.927500 66.293900
108.566000 -77.454900 65.830900
108.536000 -76.824400 65.763500
108.524000 -76.055000 66.401300
108.654000 -75.436500 66.144400
108.742000 -74.391200 67.017000
108.788000 -73.199300 68.970100
107.935000 -81.231500 71.545900
108.034000 -79.356900 68.918500
108.103000 -78.556200 69.552900
108.056000 -78.269800 68.073200
108.104000 -77.864300 66.995100
108.191000 -77.467500 65.690100
108.182000 -76.678100 66.180200
108.195000 -76.115600 66.209000
107.617000 -80.827900 70.686800
107.684000 -79.494800 68.566300
107.732000 -78.872200 68.184000
107.708000 -78.411200 66.977600
107.794000 -77.880100 66.111600
107.860000 -77.284600 65.940300
107.833000 -76.686700 66.119800
107.793000 -76.162800 66.399700
107.259000 -80.346100 69.704700
107.323000 -79.950400 68.808400
107.368000 -79.370600 68.371700
107.358000 -78.895900 67.633800
107.346000 -78.419900 67.066100
107.396000 -77.907400 66.494400
107.516000 -77.313400 66.025800
107.469000 -76.680900 66.259500
107.431000 -75.818500 67.803300
106.860000 -79.877200 71.317500
106.924000 -79.744800 69.641100
107.002000 -79.422500 68.067200
107.005000 -78.809000 67.667300
107.062000 -78.423700 66.675700
107.037000 -77.951600 66.371500
107.114000 -77.303100 66.242800
107.083000 -76.655000 66.410300
106.546000 -79.242500 71.616400
106.627000 -79.274200 69.146000
106.638000 -78.845800 68.160000
106.700000 -78.412900 66.886700
106.690000 -77.721200 66.799400
106.756000 -77.074000 66.745500
106.720000 -76.649000 66.537700
106.722000 -76.028400 67.273200
106.252000 -79.040000 69.266400
106.312000 -78.876900 67.156400
106.344000 -78.328400 66.672600
106.377000 -77.900800 66.097500
106.400000 -77.201300 66.575400
106.371000 -76.598900 66.860900
105.875000 -78.738000 70.362300
105.936000 -78.624700 68.487500
105.999000 -78.291800 67.297800
106.046000 -77.828900 66.505500
106.032000 -77.207000 66.433800
105.941000 -76.446100 67.429800
105.619000 -78.252000 70.602200
105.665000 -78.238000 66.862300
105.707000 -77.700500 66.559400
105.661000 -77.161500 66.456300
105.526000 -76.224300 68.001500
105.222000 -78.011100 67.420800
105.352000 -77.690500 66.629900
105.252000 -76.898100 67.311100
105.222000 -76.094000 68.221000
105.152000 -75.363000 69.414400
104.886000 -77.989800 67.468000
104.940000 -77.635200 66.975700
104.896000 -77.032200 67.078200
104.885000 -76.062500 68.482500
104.814000 -75.249500 69.833700
104.590000 -77.991900 67.326900
104.562000 -77.549600 67.168500
104.544000 -76.859000 67.530900
104.438000 -75.755300 69.728700
104.245000 -77.985400 67.177900
104.199000 -77.491800 67.228500
104.156000 -76.729900 67.948800
104.021000 -75.640900 70.331700
103.357000 -77.704800 71.157300
103.864000 -77.947300 67.355700
103.783000 -77.344100 67.799500
103.829000 -76.685500 68.120900
103.718000 -75.513300 70.821900
103.095000 -77.771200 71.049700
103.380000 -77.836200 68.324800
103.435000 -77.429700 67.808000
103.446000 -76.961800 67.716400
102.790000 -77.742100 71.280300
102.953000 -77.738400 69.296500
103.091000 -77.498900 67.765500
103.008000 -76.910000 68.066700
102.497000 -77.803200 70.808400
102.655000 -77.814900 68.534400
102.692000 -77.389600 67.903300
102.598000 -76.781400 68.437800
102.156000 -77.925800 69.994400
102.356000 -77.835400 68.115800
102.298000 -77.254500 68.366000
102.194000 -76.652800 68.897500
101.664000 -77.907700 70.352000
101.968000 -77.774800 68.502100
101.908000 -77.149000 68.705400
101.753000 -76.382900 69.858400
101.048000 -77.918300 72.887100
101.298000 -77.957700 70.390700
101.517000 -77.604800 69.127600
101.528000 -76.964500 69.211500
101.315000 -76.124200 70.898300
100.663000 -77.879800 73.491100
100.950000 -78.056800 70.551700
101.043000 -77.602500 69.693100
101.194000 -77.051000 69.142200
100.920000 -76.009100 71.585100
100.410000 -78.196000 72.289600
100.603000 -78.077100 70.316700
100.676000 -77.632200 69.501000
100.767000 -77.055500 69.408800
100.193000 -75.599700 72.997000
99.771800 -78.155000 74.802700
100.077000 -78.307900 71.802200
100.237000 -78.031500 70.131900
100.373000 -77.493700 69.553200
100.171000 -76.566200 71.082000
99.914900 -75.567400 73.171700
99.541100 -78.419200 73.545700
99.713100 -78.334100 71.488700
99.974800 -78.207900 69.440900
99.958200 -77.459100 69.954200
99.745500 -76.485100 71.626700
99.082700 -78.365200 73.696800
99.379300 -78.403100 71.049900
99.594200 -78.062300 69.993100
99.516500 -77.333200 70.331600
99.318100 -76.498000 71.634300
98.599200 -78.320800 74.178700
98.924200 -78.305300 71.825500
99.165300 -77.972600 70.211200
99.087100 -77.196400 70.667800
98.944200 -76.451000 71.830700
98.192600 -78.229800 74.696300
98.463000 -78.238000 72.542200
98.752600 -78.133600 70.282000
98.738800 -77.390200 70.475200
98.582700 -76.527800 71.698100
97.835900 -78.174800 74.783300
98.196700 -78.297100 71.682500
98.373900 -77.950000 70.291400
98.341900 -77.260000 70.542000
98.142200 -76.434200 71.849300
97.426800 -78.168300 74.521200
97.913800 -78.279200 70.942000
98.024500 -77.840800 70.147300
97.922600 -77.091800 70.863500
97.730500 -76.290100 72.299900
96.927700 -78.108100 74.924000
97.378300 -78.187500 72.042100
97.673700 -77.991100 70.217700
97.572500 -77.264100 70.768300
97.361600 -76.358000 72.206900
96.551700 -78.001700 75.479200
96.882300 -78.049200 72.985200
97.192100 -77.852200 70.894800
97.075300 -77.011700 71.551500
96.788400 -76.101900 73.267400
96.242500 -77.928500 75.873600
96.620600 -78.108500 71.779100
96.788000 -77.616300 71.186000
96.657400 -76.916200 71.840600
96.279900 -75.865900 74.298500
95.799300 -78.027000 74.459300
96.186500 -78.056800 72.048300
96.419900 -77.661300 71.151300
96.270400 -76.964600 71.878400
95.395200 -77.964400 74.854600
95.796100 -78.036200 72.441000
95.919700 -77.623300 71.583000
95.836700 -76.966000 72.098400
95.441900 -78.023200 72.078100
95.645000 -77.750500 70.879900
95.526600 -77.098000 71.633600
94.574000 -77.994300 74.645500
94.968500 -77.978400 72.351700
95.154200 -77.561700 71.639900
95.082500 -76.985500 72.012400
94.166100 -77.970900 74.948900
94.466200 -77.882300 73.194600
94.765500 -77.662000 71.547900
94.742000 -77.072700 71.694300
94.570300 -69.428800 71.787900
94.865800 -69.272200 70.333500
93.751100 -77.919900 75.132600
94.225800 -77.923900 72.463400
94.478900 -77.632200 71.146700
94.262600 -76.992100 71.951500
94.082800 -69.936100 72.460900
94.473500 -69.944600 70.510800
94.540500 -69.466400 70.043000
93.221000 -77.777200 75.851700
93.722400 -77.861100 73.061600
94.082200 -77.649000 71.125200
93.775400 -76.823600 72.446900
93.552100 -70.412700 73.242500
94.052200 -70.554900 70.706400
94.178700 -69.989300 70.371700
94.286900 -69.682000 69.472600
92.777500 -77.739900 76.020500
93.531900 -77.921500 71.962200
93.617800 -77.459000 71.468500
93.448600 -76.819000 72.295400
93.360500 -71.463700 72.116000
93.563200 -71.098000 71.298900
93.760300 -70.825500 70.115400
93.798600 -70.014700 70.338400
93.979800 -69.595700 69.415500
92.435000 -77.761300 75.662400
92.859300 -77.727900 73.336100
93.301400 -77.588000 71.315300
93.073800 -76.846500 72.346800
92.624200 -71.637800 73.965900
93.175400 -71.816000 71.257600
93.339200 -71.289900 70.612200
93.497600 -70.959400 69.730300
93.500100 -70.349300 69.770800
93.458900 -69.415700 70.244800
93.245800 -68.334100 71.498300
92.034900 -77.747700 75.607200
92.497200 -77.737400 73.088400
92.834400 -77.486100 71.764000
92.568600 -76.742800 72.701600
92.376600 -72.453500 73.380600
92.648600 -72.268300 72.103500
92.767000 -71.898100 71.445400
92.958800 -71.468600 70.620600
93.099700 -70.914800 70.040800
92.986100 -69.931700 70.818600
92.770700 -68.702300 72.316500
91.697400 -77.805400 75.404400
92.300700 -77.358100 72.196200
92.118600 -76.628400 73.068200
92.279400 -72.774700 72.254000
92.418600 -72.488200 71.347300
92.607700 -72.036400 70.606000
92.647600 -71.486600 70.360000
92.529600 -70.597200 71.147400
91.476700 -77.925900 74.612100
91.502000 -73.155400 73.487700
91.881400 -72.965600 72.004000
92.045200 -72.548600 71.344800
92.172600 -72.031900 70.904400
92.101000 -71.255300 71.377200
91.097600 -77.920600 74.275200
91.094400 -74.095700 73.411900
91.371900 -73.583900 72.453600
91.545000 -73.087800 71.902500
91.536300 -72.400200 72.090500
91.392000 -71.509500 72.920600
90.508600 -75.240400 75.022800
90.704000 -74.733900 73.814500
91.045000 -73.713600 72.283800
91.083700 -73.001400 72.369600
90.933100 -72.154000 73.112200
90.490400 -72.674900 73.531200
90.200200 -71.668700 74.985300
89.548100 -74.059200 73.816000
88.949800 -73.000500 76.095900
88.712200 -73.603800 75.786100
88.586100 -74.549600 74.663500
88.148900 -74.505500 75.098800
85.788700 -74.988400 75.456900
85.581200 -75.066600 74.927000
85.091400 -74.134800 76.701200
84.889900 -74.280100 76.135300
83.908800 -75.230900 74.596100
83.265500 -75.001300 75.386800
82.872800 -75.022500 75.346900
82.361000 -74.899800 75.922100
73.071800 -67.062400 78.616900
72.668400 -67.033200 78.819600
72.563800 -66.360000 79.025000
72.166500 -65.333300 79.752100
71.537600 -64.203500 81.083600
72.440700 -67.297000 78.313700
72.337000 -66.555100 78.751200
72.247700 -65.843200 78.754300
71.876000 -64.814700 79.417100
71.685500 -64.093300 79.666900
72.012900 -67.341600 78.352200
72.025400 -66.673200 78.349200
71.473900 -65.432700 79.396800
71.269300 -64.503900 79.814000
70.963900 -63.741000 80.421700
71.508300 -67.627300 78.842300
71.371200 -67.022100 79.050600
71.225600 -66.273100 79.153600
70.969700 -65.395500 79.380900
70.864100 -64.594800 79.711500
70.655300 -63.839400 80.014500
70.777700 -66.728400 79.643800
70.232300 -65.674100 80.593900
70.021800 -64.817900 80.731500
70.238100 -64.347600 80.051600
69.933900 -63.497500 80.403500
69.164600 -63.713600 81.744200
69.305900 -63.164600 81.016600
68.547500 -61.917000 82.374000
68.765100 -61.403500 81.294200
68.525700 -60.573900 81.554500
68.155500 -61.695000 82.285800
68.389700 -61.308300 81.348900
68.345300 -60.707000 81.130300
67.836100 -59.698700 82.165000
67.974500 -61.170900 81.254100
67.754000 -60.452600 81.477800
67.795600 -59.938200 81.115400
67.039100 -60.669700 82.094600
67.311400 -60.347800 81.377100
67.357600 -59.779800 81.008000
66.711800 -60.192600 81.500800
66.757100 -59.572400 81.275800
66.381600 -59.670500 81.043200
60.814000 -71.871300 81.243700
60.465300 -71.809100 81.183300
60.197900 -71.775300 80.941900
54.506300 -72.566700 81.499600
52.067900 -72.386000 82.248800
52.157700 -72.707900 81.484100
51.265200 -71.607900 82.926700
51.293800 -70.933100 82.742800
52.127200 -70.596200 81.163600
51.954100 -72.162200 81.133200
51.858300 -71.367700 81.124300
51.599900 -72.157500 80.835800
51.721900 -71.443900 80.321000
51.232500 -72.248900 80.396200
51.346900 -71.542500 80.122900
51.506000 -70.950100 79.794500
50.798100 -72.367500 80.272900
50.951200 -71.553700 80.127100
50.070900 -70.400800 81.508000
50.373200 -73.839400 80.228000
49.418400 -72.786000 81.685300
50.021400 -74.685900 79.989300
49.154700 -73.677900 81.193400
49.362300 -75.263800 80.176400
48.350100 -74.241500 81.613700
47.240000 -73.293200 83.117200
48.736300 -75.706900 80.451600
48.192700 -75.005800 81.085400
46.964700 -73.941000 82.808800
45.399500 -72.845500 85.030900
47.680500 -75.519500 81.171300
47.182700 -74.830800 81.728200
45.677000 -73.683600 83.901900
44.533500 -72.741600 85.567700
47.051400 -75.480100 81.228500
45.875200 -74.582200 82.828200
44.767900 -73.614900 84.482100
45.968200 -75.310700 81.962700
45.669600 -74.793500 82.228300
45.278500 -75.312400 82.067300
44.772400 -74.804600 82.539500
44.618300 -75.306200 82.116100
44.039900 -74.775200 82.687300
43.636500 -75.159500 82.653200
42.892400 -74.581800 83.489200
42.914300 -75.094100 82.917700
41.980300 -74.396700 84.134600
42.282600 -75.027100 83.212100
190.743000 -79.424300 48.652300
189.520000 -78.617400 50.000100
189.126000 -79.551800 50.600300
188.194000 -78.715500 51.142500
187.746000 -79.643300 51.877100
188.409000 -80.490000 50.466900
