# .PCD v0.7 - Point Cloud Data file format
VERSION 0.7
FIELDS x y z
SIZE 4 4 4
TYPE F F F
COUNT 1 1 1
WIDTH 1444
HEIGHT 1
VIEWPOINT 0 0 0 1 0 0 0
POINTS 1444
DATA ascii
73.647900 99.705600 198.239000
76.177700 99.545600 193.167000
76.490100 98.887700 192.321000
72.077900 90.837300 199.675000
71.690200 89.491000 200.887000
72.086400 88.654000 200.053000
72.011600 87.672300 200.284000
72.183200 86.464600 200.262000
73.150700 103.963000 198.353000
72.305000 102.555000 200.389000
72.385800 101.494000 199.973000
72.455800 100.626000 199.262000
72.485100 99.487400 198.984000
73.335800 98.785700 196.936000
72.917200 97.390600 197.111000
73.787500 96.431400 194.922000
73.663900 95.315200 195.136000
72.978300 94.012100 196.494000
71.857500 92.252300 198.883000
71.582200 91.008200 199.660000
71.833100 89.997000 199.260000
71.812700 88.945800 199.375000
73.253600 104.408000 196.564000
72.308500 103.111000 198.546000
71.927100 101.747000 199.246000
71.849900 100.517000 198.880000
71.765500 99.311100 198.845000
72.464000 98.541600 197.343000
72.285700 97.443500 197.211000
72.110100 96.196200 197.409000
72.618600 95.128600 196.366000
71.711000 93.627200 198.147000
71.476600 92.455600 198.521000
71.229800 91.188800 199.318000
72.243700 90.326800 197.184000
72.357100 104.220000 197.065000
71.483200 102.928000 198.533000
71.108200 101.498000 199.224000
70.954400 100.441000 199.408000
71.197800 99.594200 198.584000
71.378100 98.364000 197.950000
71.458000 97.186600 197.670000
71.516400 96.297100 197.219000
71.869000 95.186300 196.611000
71.198600 93.510600 198.149000
71.478500 92.551100 197.490000
71.373400 104.052000 197.494000
70.944000 103.143000 197.930000
70.612000 101.860000 198.510000
70.605300 100.601000 198.689000
70.710500 99.538500 197.835000
71.110600 98.579600 196.651000
71.044200 97.396800 197.053000
71.190400 96.507900 196.575000
70.345400 103.951000 197.881000
70.183400 102.962000 197.998000
69.984400 101.816000 198.139000
70.141600 100.699000 197.807000
70.162000 99.656600 197.464000
70.479500 98.826400 196.512000
70.796900 97.878500 195.735000
69.686000 104.060000 197.698000
69.533900 103.206000 197.770000
69.565100 102.147000 197.665000
69.273000 100.858000 197.876000
69.712700 99.707000 196.847000
70.323500 98.902600 195.215000
70.798700 98.369600 193.586000
68.834300 104.038000 198.044000
68.546900 103.176000 198.277000
68.639900 102.097000 197.984000
68.282100 100.739000 198.202000
68.782200 99.748000 197.045000
69.690500 98.985500 194.844000
70.449000 98.558300 192.716000
67.720400 103.988000 198.731000
67.700800 102.972000 198.611000
67.433100 101.664000 198.850000
67.568800 100.658000 198.335000
67.716100 99.697600 197.693000
68.789700 99.052800 195.070000
69.691000 98.540100 192.961000
68.618400 107.157000 194.693000
67.677200 105.665000 196.924000
66.988400 103.993000 198.739000
66.587400 102.631000 199.606000
66.348700 101.574000 199.545000
66.914900 100.593000 198.263000
67.060400 99.626000 197.615000
67.701100 98.958400 195.731000
68.859900 98.577700 193.104000
67.903200 107.061000 195.121000
67.106800 105.864000 196.718000
66.723300 104.617000 197.572000
65.881500 102.861000 199.529000
65.590600 101.639000 199.548000
65.929000 100.586000 198.761000
66.325200 99.523700 197.650000
67.109100 98.864800 195.229000
67.779500 98.373100 193.761000
67.031700 106.863000 195.634000
66.183900 105.523000 197.358000
65.628600 104.132000 198.663000
65.009000 102.770000 199.724000
64.391300 101.347000 200.710000
65.077000 100.609000 199.175000
65.183400 99.497100 198.501000
66.187600 98.790800 195.769000
66.966800 98.159200 193.592000
67.310400 94.708900 191.240000
65.838700 105.732000 196.553000
64.923800 104.195000 198.523000
64.019000 102.550000 200.334000
63.725600 101.344000 200.535000
64.134500 100.315000 199.627000
64.196100 99.209400 199.011000
65.270500 98.703400 196.171000
65.640600 97.743800 195.025000
66.124200 96.794400 193.461000
66.547900 95.647000 192.095000
65.875300 94.238000 193.597000
64.712400 105.490000 197.258000
63.435600 103.509000 200.294000
63.255700 102.392000 200.533000
62.840700 101.311000 200.951000
63.013300 100.194000 200.521000
63.603100 99.328600 198.839000
63.935300 98.389300 197.762000
64.452400 97.528900 196.209000
64.900300 96.554400 194.869000
65.308400 95.477500 193.810000
65.138500 94.331900 193.704000
63.986400 105.388000 197.299000
62.941000 103.916000 199.805000
62.644400 102.665000 200.298000
62.118900 101.392000 201.056000
62.197300 100.280000 200.659000
62.373800 99.165600 200.161000
63.260600 98.473800 197.661000
63.609300 97.557200 196.677000
63.903500 96.593200 195.439000
64.400500 95.503700 194.290000
64.634500 94.580100 193.345000
64.634700 93.146300 193.605000
63.194500 105.162000 197.907000
62.143800 103.638000 200.178000
61.749500 102.484000 200.646000
61.446600 101.215000 200.984000
61.454100 100.149000 200.942000
61.615900 99.291400 200.337000
62.249900 98.500700 198.402000
62.954800 97.618700 196.367000
63.220200 96.670900 195.194000
63.709600 95.773700 194.108000
60.871700 103.101000 201.556000
60.509800 102.103000 201.995000
60.356200 101.042000 201.858000
60.933900 100.163000 200.653000
60.950700 99.115700 200.235000
61.981000 98.493500 197.176000
62.723800 97.743000 194.931000
63.039800 96.828000 194.129000
64.119000 96.347900 191.361000
60.005800 102.957000 201.962000
59.664900 102.030000 202.298000
59.386200 100.911000 202.488000
59.952600 99.997100 201.240000
60.255600 99.080800 200.396000
62.270600 98.641800 194.750000
63.141700 98.250300 192.239000
59.015600 102.811000 202.586000
58.687000 101.825000 202.920000
58.788400 100.916000 202.519000
58.913300 100.030000 201.940000
59.461200 99.333700 200.694000
62.581300 99.051500 192.511000
58.153200 102.892000 202.625000
57.961600 101.863000 202.981000
58.211500 100.926000 202.443000
57.974900 99.890200 202.436000
58.594500 99.357100 201.023000
58.373700 104.262000 200.338000
57.719100 103.173000 202.063000
57.426600 102.136000 202.704000
57.374100 100.916000 202.679000
57.177700 99.781000 202.628000
57.844800 99.319700 201.085000
56.826900 102.894000 202.728000
56.616400 101.783000 203.035000
56.459300 100.575000 203.127000
56.329500 99.581500 203.166000
56.896400 99.135300 201.816000
56.109300 102.875000 202.722000
55.925000 101.988000 202.926000
55.937100 100.911000 202.904000
55.681300 99.752600 203.163000
56.174700 99.129900 201.928000
55.019500 102.526000 204.017000
54.829800 101.745000 204.085000
54.975100 100.804000 203.592000
54.719300 99.628700 203.734000
55.222400 99.030600 202.598000
54.284300 102.425000 204.245000
54.180100 101.636000 204.124000
53.919400 100.471000 204.525000
53.976200 99.561500 203.926000
54.435600 98.983900 202.608000
53.540600 102.344000 204.458000
53.234800 101.401000 204.865000
53.225000 100.358000 204.389000
53.572300 99.513300 203.314000
53.664500 98.816700 202.986000
52.653900 102.180000 205.047000
52.546600 101.378000 204.654000
52.538800 100.337000 204.354000
52.729300 99.472300 203.866000
53.026000 98.814800 203.083000
51.992900 102.214000 204.896000
51.569900 101.277000 205.441000
51.772300 100.349000 204.808000
51.918500 99.420000 204.310000
52.195500 98.771000 203.627000
51.152100 102.119000 205.370000
50.809700 101.242000 205.724000
50.976000 100.320000 205.220000
51.126000 99.366300 204.697000
51.433600 98.713300 203.886000
50.349400 102.017000 205.788000
50.018400 101.128000 206.140000
50.162100 100.251000 205.884000
50.230900 99.274300 205.306000
50.686100 98.690600 204.077000
49.572200 101.983000 206.027000
49.316600 101.141000 206.204000
49.512200 100.138000 205.724000
49.534700 99.142700 205.280000
49.857000 98.565000 204.528000
48.684400 102.005000 206.436000
48.589800 101.090000 206.678000
48.649700 100.184000 206.354000
48.785600 99.199400 205.595000
49.126800 98.549200 204.658000
48.802000 103.497000 204.148000
48.166600 102.324000 205.979000
48.087700 101.196000 206.175000
48.060000 99.941000 206.078000
48.196800 99.125800 205.442000
48.147600 98.368700 205.528000
47.973600 103.343000 204.932000
47.236800 101.998000 206.981000
47.157900 100.982000 207.125000
47.209200 100.011000 206.642000
47.428200 99.003500 205.968000
47.393800 98.218100 205.929000
47.064000 103.226000 205.567000
46.663300 102.088000 206.804000
46.628000 101.076000 206.713000
46.556900 99.982400 206.700000
46.536600 99.017600 206.532000
46.826500 98.298900 205.745000
46.437600 103.550000 205.205000
46.092200 102.243000 206.478000
45.786600 100.909000 207.421000
45.831600 99.881300 207.008000
45.847000 98.909000 206.725000
45.967100 98.235000 206.206000
46.250200 104.682000 203.940000
45.816200 103.552000 205.321000
45.376600 102.295000 206.529000
45.279200 101.034000 206.877000
45.363200 100.028000 206.390000
45.247700 98.969300 206.563000
45.446700 98.309900 205.669000
45.719800 104.670000 203.794000
45.000700 103.290000 205.976000
44.687000 102.013000 206.816000
44.633700 101.000000 206.892000
44.601800 99.961800 206.897000
44.573000 98.982300 206.440000
44.615800 98.166400 206.275000
44.542000 103.442000 205.557000
44.303700 102.437000 205.967000
43.978200 101.035000 206.890000
43.852800 99.723200 207.078000
44.123900 98.970900 205.803000
44.265100 98.349800 205.157000
43.794500 103.268000 205.613000
43.468800 102.084000 206.770000
43.404400 101.276000 206.428000
43.257200 100.086000 206.875000
43.409400 99.100300 206.093000
43.528500 98.305500 205.481000
43.170400 103.352000 205.396000
42.901900 102.266000 206.398000
42.709400 101.109000 206.673000
42.679700 99.921800 206.364000
42.831900 98.954000 205.817000
42.952000 98.302300 205.279000
42.479200 103.391000 205.515000
42.095100 102.114000 206.845000
42.004500 100.966000 206.642000
42.171800 100.040000 205.718000
42.107400 98.977700 206.137000
42.186000 98.192000 205.969000
41.334800 103.763000 207.427000
41.741100 103.274000 205.997000
41.462500 102.116000 206.580000
41.488700 101.135000 206.285000
41.353800 100.032000 206.586000
41.653600 99.235100 205.551000
41.450900 98.282100 206.115000
40.315300 103.446000 209.180000
40.792900 103.122000 207.092000
40.730400 102.087000 207.140000
40.782200 101.102000 206.657000
40.704100 99.951800 206.845000
40.683700 98.965100 206.878000
40.374100 97.969800 207.551000
40.609400 106.546000 205.212000
40.275400 105.428000 206.392000
39.916100 103.881000 208.201000
39.937100 102.965000 208.063000
40.155000 102.185000 207.060000
40.153000 101.223000 206.500000
40.122700 100.025000 206.727000
39.851100 98.771800 207.512000
39.506900 97.746700 208.729000
38.712400 105.570000 209.905000
40.023900 105.695000 205.803000
39.537600 104.414000 207.295000
39.363000 103.034000 207.822000
39.572600 102.090000 206.869000
39.287300 100.855000 207.666000
39.235000 99.743400 207.639000
38.923500 98.596200 208.799000
37.946400 105.372000 211.630000
38.239700 104.566000 210.138000
38.661400 103.885000 208.313000
38.746900 103.028000 207.798000
38.726900 101.984000 207.811000
38.520000 100.713000 208.215000
38.298700 99.501400 209.020000
37.714300 98.192500 211.553000
37.112100 105.067000 212.865000
37.302900 104.249000 211.797000
37.767800 103.680000 209.588000
37.955900 102.755000 208.923000
37.789700 101.623000 209.095000
37.570400 100.333000 209.885000
37.506900 99.333900 210.323000
37.151800 106.649000 210.534000
36.609100 105.163000 212.431000
36.604400 104.175000 212.203000
36.857600 103.434000 210.911000
37.051600 102.470000 210.250000
36.963500 101.331000 210.396000
36.971400 100.170000 210.681000
36.175600 105.195000 211.739000
36.056700 104.213000 211.990000
36.219200 103.439000 211.266000
36.336700 102.626000 210.559000
36.277000 105.850000 208.839000
35.930300 104.592000 210.265000
35.770600 103.505000 210.868000
35.652000 102.650000 211.132000
35.628900 103.897000 209.394000
33.876600 98.611400 207.431000
34.286700 98.465500 205.013000
33.537900 99.377100 207.157000
33.851700 99.106700 205.258000
33.970800 98.603200 204.025000
33.260700 99.892900 205.560000
33.385300 99.230500 204.603000
32.796700 100.081000 204.967000
32.886600 99.331900 203.664000
33.489700 98.378700 199.866000
31.207500 102.471000 203.557000
31.936000 97.685100 197.396000
30.566300 102.584000 203.054000
31.255100 97.497900 198.059000
30.519100 97.390800 198.559000
29.805100 97.424900 198.389000
26.763000 96.614300 194.332000
26.183900 96.462300 195.245000
26.411300 96.010400 193.203000
25.498700 96.427900 195.675000
25.675800 95.710300 194.853000
24.993100 95.841400 194.249000
24.280200 95.889200 193.663000
23.566100 96.493100 195.043000
23.759400 96.168400 191.982000
23.105400 96.769300 193.158000
23.328500 96.488300 189.889000
22.823200 96.991500 190.557000
23.057100 96.789500 187.596000
22.476200 97.140500 189.461000
19.531600 96.873700 195.768000
-6.271470 102.490000 195.098000
-6.876960 103.215000 195.802000
-6.787390 102.047000 196.581000
-6.823630 98.753200 195.655000
-6.901390 98.332400 193.173000
-7.526740 103.164000 196.047000
-7.366030 101.615000 197.713000
-7.251240 100.420000 198.101000
-7.315270 99.459700 197.263000
-7.561070 98.758900 195.124000
-7.498260 98.106400 194.266000
-8.433520 104.558000 194.086000
-8.150020 102.983000 196.601000
-8.021420 101.596000 197.795000
-7.853610 100.407000 198.051000
-7.945540 99.524600 197.188000
-8.055890 98.726300 196.212000
-8.284940 98.189400 194.022000
-8.818930 103.390000 195.855000
-8.739370 101.945000 197.186000
-8.498510 100.600000 198.072000
-8.545040 99.552100 197.297000
-8.783210 98.739000 195.553000
-9.022910 98.116100 194.237000
-9.350930 102.847000 196.980000
-9.347060 101.722000 197.731000
-9.267460 100.624000 197.519000
-9.206210 99.394600 197.135000
-9.500290 98.756100 195.239000
-9.728430 98.120700 194.129000
-10.018900 102.572000 197.406000
-9.932110 101.475000 197.907000
-9.951890 100.610000 197.233000
-9.940550 99.586500 196.746000
-10.206900 98.782200 194.928000
-10.464000 98.211700 193.490000
-10.749900 102.716000 196.979000
-10.624300 101.649000 197.933000
-10.534100 100.503000 197.668000
-10.763800 99.574100 195.745000
-10.869500 98.735900 194.639000
-11.102600 98.160700 193.614000
-11.374900 102.643000 197.235000
-11.292400 101.745000 197.677000
-11.245700 100.787000 197.627000
-11.290600 99.653600 197.001000
-11.585900 98.835000 194.628000
-11.773900 98.282900 192.988000
-12.206100 102.915000 195.972000
-11.946300 101.650000 197.589000
-11.911500 100.602000 197.132000
-12.068400 99.528100 196.497000
-12.259200 98.732600 195.012000
-12.304800 98.177000 193.583000
-13.773100 105.110000 192.458000
-12.811200 102.873000 196.567000
-12.709400 101.669000 197.396000
-12.555100 100.499000 197.389000
-12.524100 99.400300 197.517000
-12.767300 98.767200 195.794000
-12.991700 98.159300 194.107000
-14.160700 105.003000 192.753000
-13.728900 103.583000 195.179000
-13.412200 102.104000 196.904000
-13.371700 100.815000 197.006000
-13.118600 99.467800 197.374000
-13.462400 98.750500 195.524000
-13.831100 98.156700 193.708000
-14.603600 104.910000 192.859000
-14.225300 103.363000 195.716000
-14.050900 101.933000 197.121000
-14.030800 100.729000 197.312000
-13.963700 99.646600 196.600000
-14.205300 98.711500 195.234000
-14.651400 98.128100 193.184000
-14.603300 104.393000 200.989000
-14.869600 104.341000 194.815000
-14.701100 102.955000 197.101000
-14.672600 101.675000 197.570000
-14.699300 100.579000 196.753000
-14.720400 99.583000 195.863000
-14.989300 98.767600 194.543000
-15.221700 97.939900 193.416000
-15.550900 97.473700 191.290000
-14.634900 104.677000 204.044000
-14.691800 103.890000 203.104000
-15.045300 103.477000 199.991000
-15.163100 102.536000 198.545000
-15.199600 101.612000 198.178000
-15.323000 100.805000 197.084000
-15.402000 99.606200 196.238000
-15.698400 98.688500 194.175000
-15.920000 97.899600 192.735000
-16.130900 97.366800 191.280000
-15.327600 105.908000 203.081000
-15.011900 104.729000 204.941000
-15.171700 104.107000 203.428000
-15.556800 103.476000 200.751000
-15.560000 102.499000 199.854000
-15.745700 101.504000 198.700000
-16.003300 100.668000 196.721000
-16.070900 99.537300 196.830000
-16.172000 98.794000 195.160000
-16.341200 97.875300 194.115000
-16.788900 97.394400 191.421000
-15.509800 105.433000 205.568000
-15.578900 104.814000 204.712000
-15.839000 104.183000 202.629000
-16.362900 103.544000 199.570000
-16.340300 102.527000 199.134000
-16.409100 101.512000 198.610000
-16.627400 100.625000 197.289000
-16.614900 99.468100 197.193000
-16.806000 98.691400 195.484000
-17.103200 97.801800 193.763000
-17.588000 97.362600 191.192000
-16.318100 106.516000 205.059000
-16.110500 105.622000 205.302000
-16.370500 105.292000 203.318000
-18.084400 105.204000 195.255000
-18.258400 104.739000 193.820000
-17.465000 103.054000 196.861000
-17.129500 101.691000 197.867000
-17.311000 100.657000 197.432000
-17.319700 99.502500 196.913000
-17.537300 98.463200 195.312000
-17.901200 97.803600 193.039000
-18.177600 97.337000 191.291000
-16.408900 105.898000 207.768000
-16.648500 105.720000 205.936000
-19.060000 105.099000 192.457000
-18.405900 103.387000 195.577000
-17.964700 101.765000 197.219000
-17.948300 100.465000 197.284000
-17.964900 99.507300 196.988000
-18.072800 98.659200 196.193000
-18.398200 97.907800 194.092000
-18.732600 97.421000 191.621000
-16.975200 106.126000 207.311000
-17.361400 106.061000 205.192000
-19.577500 104.915000 192.917000
-19.256600 103.610000 194.746000
-18.893800 102.133000 196.086000
-18.505900 100.668000 197.458000
-18.607000 99.617500 196.841000
-18.876300 98.685600 195.473000
-19.131100 97.990500 193.917000
-17.778900 106.650000 205.478000
-20.211700 104.772000 192.798000
-19.806700 103.404000 195.150000
-19.707800 102.259000 195.667000
-19.274200 100.761000 196.868000
-19.485400 99.668900 195.985000
-19.759600 98.780600 194.492000
-20.119000 98.226300 192.781000
-20.409800 103.183000 195.247000
-20.231900 102.047000 196.148000
-20.246200 100.941000 195.904000
-20.308600 99.647100 195.344000
-20.582800 98.862700 193.763000
-20.856500 98.350400 192.252000
-22.328300 105.317000 191.457000
-21.244600 103.232000 195.077000
-20.870800 102.038000 196.019000
-21.103800 101.186000 195.271000
-20.882200 99.887100 195.977000
-21.152000 99.028800 194.355000
-21.550100 98.460000 192.223000
-22.723000 105.247000 191.861000
-22.193800 103.804000 194.065000
-21.766300 102.170000 195.492000
-21.399200 100.670000 196.678000
-21.584800 99.756000 195.678000
-21.912200 98.971800 194.030000
-22.323600 98.412600 192.241000
-23.185900 105.065000 192.510000
-22.824400 103.580000 194.280000
-22.417400 101.995000 195.888000
-22.186700 100.756000 196.102000
-22.240100 99.625600 195.559000
-22.629600 98.876800 194.065000
-22.985700 98.408900 192.004000
-24.273300 106.250000 190.867000
-23.840100 104.920000 192.781000
-23.525700 103.532000 194.288000
-23.087900 102.127000 195.728000
-22.955200 101.058000 195.649000
-22.978900 99.839500 195.431000
-23.318000 98.858600 194.365000
-23.445600 98.295400 192.758000
-24.652600 105.115000 192.255000
-24.302800 103.827000 193.624000
-23.798100 102.201000 195.546000
-23.577300 100.946000 195.805000
-23.734000 99.658800 195.619000
-24.020000 98.810100 194.200000
-23.919100 98.067200 193.897000
-25.682400 105.421000 190.832000
-25.297100 104.107000 192.464000
-24.589200 102.468000 194.897000
-24.403200 100.954000 195.687000
-24.557100 99.787000 195.072000
-24.364700 98.691000 195.342000
-24.865400 98.094400 193.211000
-26.279600 105.133000 191.438000
-26.056700 103.965000 192.314000
-25.197000 102.182000 195.285000
-25.023100 100.934000 195.887000
-24.964000 99.814300 196.104000
-25.262700 98.768500 194.622000
-25.671400 97.952100 192.774000
-25.869200 97.425300 191.474000
-27.168400 105.237000 190.985000
-26.776600 104.076000 192.094000
-26.079500 102.376000 194.583000
-25.652800 100.940000 195.741000
-25.872900 99.805300 195.188000
-25.973400 98.782400 194.478000
-26.207600 97.914500 193.448000
-26.665300 97.455400 190.822000
-27.973300 105.359000 190.655000
-27.588700 104.234000 191.686000
-26.931800 102.561000 193.967000
-26.467800 101.050000 195.224000
-26.544200 99.923600 195.337000
-26.598400 98.822000 194.711000
-27.002300 97.957600 193.120000
-27.430800 97.316800 191.107000
-28.656300 105.309000 190.759000
-28.377400 104.425000 191.143000
-27.831600 102.761000 193.333000
-27.129900 101.046000 195.374000
-27.277900 99.880700 194.974000
-27.515300 98.763600 193.997000
-27.675600 97.810100 192.792000
-28.377900 97.316500 190.113000
-28.933300 96.843000 187.771000
-29.661100 105.626000 189.611000
-29.022100 104.246000 191.390000
-28.344200 102.398000 194.129000
-28.009300 101.147000 194.697000
-28.037000 99.822700 194.936000
-27.935500 98.627100 195.009000
-28.421700 97.854200 192.744000
-29.255800 97.339400 189.058000
-29.803300 96.941800 186.650000
-30.536300 105.862000 189.015000
-30.162400 104.977000 189.649000
-28.905500 102.354000 194.236000
-28.763800 101.152000 194.703000
-28.683400 99.907700 195.264000
-28.722900 98.801100 194.541000
-29.128900 97.867300 193.094000
-29.773200 97.428100 189.609000
-30.146400 96.844900 187.741000
-31.305700 105.892000 188.876000
-31.000200 105.178000 189.204000
-29.488700 101.870000 194.899000
-29.231500 100.767000 195.579000
-29.471000 99.807200 194.759000
-29.440600 98.668800 194.395000
-29.817700 97.895900 193.097000
-30.277600 97.358300 190.585000
-32.076000 105.960000 188.756000
-31.820800 105.247000 188.960000
-30.387700 101.920000 194.594000
-30.033900 100.846000 195.221000
-30.347700 100.053000 193.957000
-30.244000 98.800500 194.217000
-30.601300 97.861900 192.493000
-30.899600 97.269700 190.985000
-35.541500 92.247400 173.611000
-32.759500 105.972000 188.608000
-32.680000 105.232000 188.762000
-31.221700 102.154000 194.150000
-30.767100 101.065000 195.124000
-30.929900 100.131000 194.269000
-31.005000 98.925200 194.287000
-30.988500 97.759800 193.995000
-31.348500 97.208100 191.854000
-35.620500 92.823700 175.683000
-35.803400 92.181600 174.430000
-33.331700 105.809000 188.987000
-33.104800 104.533000 190.238000
-32.034800 102.501000 193.614000
-31.655500 101.227000 194.415000
-31.531800 99.900400 194.858000
-31.655500 98.714900 194.495000
-31.597800 97.556600 194.467000
-31.871800 97.068900 192.714000
-36.043500 93.750900 177.101000
-36.043800 92.811700 176.482000
-36.341200 92.179200 174.677000
-33.974100 105.557000 189.734000
-33.937200 104.597000 189.913000
-32.595200 102.336000 193.811000
-32.160900 100.905000 195.020000
-32.229600 99.832400 194.870000
-32.343900 98.833300 194.555000
-32.191200 97.668200 194.749000
-32.319600 96.694600 194.160000
-36.397000 95.867900 179.198000
-36.165000 94.754100 179.672000
-36.266700 93.742100 178.718000
-36.415700 92.849200 177.560000
-36.879000 92.224300 175.698000
-35.886800 107.545000 186.548000
-35.008000 105.935000 189.161000
-34.532700 104.580000 190.121000
-33.598900 102.709000 193.014000
-32.920400 100.961000 194.895000
-32.888000 99.747700 194.874000
-32.821700 98.510900 195.197000
-32.747000 97.386600 194.934000
-32.726900 96.316300 195.390000
-33.371800 96.009800 192.730000
-36.349100 95.518100 181.602000
-36.509500 94.715600 180.780000
-36.615900 93.823400 179.752000
-36.998900 92.881700 177.871000
-37.594600 92.166500 175.530000
-36.229800 107.337000 187.438000
-35.693600 105.949000 189.163000
-35.359500 104.723000 189.768000
-34.396800 102.840000 192.731000
-33.887500 101.377000 194.073000
-33.623000 99.799700 195.010000
-33.192800 98.227700 196.390000
-33.189100 97.259900 195.716000
-33.266600 96.275600 195.772000
-33.822300 95.782000 193.663000
-36.931600 95.572900 181.909000
-36.942700 94.704200 181.900000
-36.957600 93.776400 180.926000
-38.257900 93.000400 175.137000
-37.040300 107.499000 187.011000
-36.479200 106.135000 188.919000
-36.038800 104.694000 189.946000
-35.199800 103.005000 192.272000
-34.651400 101.241000 194.154000
-34.242100 99.611400 195.570000
-34.042600 98.452800 195.732000
-33.786400 97.241400 195.984000
-34.219200 96.408300 194.690000
-34.857800 95.884100 192.732000
-37.254100 95.337600 183.410000
-37.247400 94.461200 183.766000
-37.585000 93.928700 181.695000
-37.485300 107.183000 188.069000
-36.913400 105.905000 189.787000
-36.894100 104.785000 189.734000
-35.861700 102.772000 192.566000
-35.315200 101.094000 194.513000
-35.109000 99.894400 194.903000
-34.956300 98.653600 195.042000
-34.799500 97.458800 194.893000
-35.143300 96.514000 194.008000
-35.913500 95.994100 191.564000
-37.676800 95.267500 184.981000
-37.781100 94.441400 184.253000
-37.839200 93.766300 183.541000
-38.224200 107.068000 188.407000
-37.755500 105.891000 189.321000
-37.549300 104.521000 190.052000
-36.746400 102.891000 192.211000
-36.083000 101.391000 193.962000
-36.003200 100.193000 194.227000
-35.782300 98.890000 194.685000
-35.696900 97.610100 194.519000
-36.344600 96.754700 192.371000
-37.312100 96.093800 188.960000
-38.059300 95.374400 186.339000
-38.146400 94.482600 185.420000
-39.132200 107.195000 188.037000
-38.667900 106.079000 188.915000
-38.373200 104.755000 189.577000
-37.639200 102.985000 191.752000
-36.793300 101.201000 194.024000
-36.456800 99.685500 194.935000
-36.380800 98.576700 194.736000
-36.656100 97.634700 193.815000
-37.352300 96.842200 191.421000
-38.277000 96.168500 188.147000
-38.624200 95.286100 186.670000
-39.182500 94.766800 184.525000
-40.048400 107.317000 187.534000
-39.418600 106.076000 188.925000
-39.076800 104.894000 189.512000
-38.545200 103.173000 191.333000
-37.582700 101.296000 193.998000
-37.326800 99.941600 194.447000
-37.092200 98.652900 194.661000
-37.450300 97.668000 193.649000
-38.320700 96.868300 190.800000
-38.974400 96.079700 188.109000
-39.157300 95.299100 187.067000
-40.954400 107.479000 187.062000
-40.169000 106.048000 189.012000
-39.816300 104.670000 189.598000
-39.047500 102.788000 192.146000
-38.446400 101.381000 193.561000
-37.959600 100.064000 194.587000
-37.887700 98.806800 194.597000
-38.261400 97.674500 193.530000
-38.972000 96.886500 191.296000
-39.158900 96.071700 189.888000
-39.570000 95.420000 188.122000
-41.818800 107.628000 186.502000
-41.107400 106.223000 188.600000
-40.603600 104.768000 189.651000
-39.782900 102.952000 191.954000
-39.204400 101.359000 193.481000
-38.620100 99.933100 194.632000
-38.883600 98.785400 193.919000
-39.071800 97.589000 193.354000
-39.644400 96.912000 191.125000
-39.480900 95.833500 191.312000
-38.972900 94.227800 193.524000
-42.356400 107.469000 187.072000
-41.730300 106.162000 188.838000
-41.621700 104.992000 189.037000
-40.581000 103.168000 191.617000
-40.086700 101.506000 193.182000
-39.542500 99.879400 194.273000
-39.614500 98.562500 194.003000
-39.865700 97.597500 193.061000
-39.952800 96.702400 192.092000
-39.901500 95.367200 192.517000
-38.911900 93.680100 195.303000
-43.023600 107.395000 187.335000
-42.487900 106.168000 188.688000
-42.436800 104.883000 189.031000
-41.245000 102.935000 191.940000
-40.653300 101.265000 193.796000
-40.524800 100.109000 193.783000
-40.272600 98.762200 194.201000
-40.368600 97.653400 193.610000
-40.530200 96.619000 192.630000
-40.569800 95.352000 192.980000
-39.513600 93.600400 195.495000
-43.682800 107.256000 187.556000
-43.242200 106.047000 188.624000
-43.365600 104.965000 188.524000
-42.379800 103.342000 190.756000
-41.725000 101.770000 192.520000
-41.300500 100.297000 193.688000
-41.227300 99.002200 193.720000
-40.971700 97.794700 193.880000
-41.278500 96.722000 192.800000
-41.393500 95.503500 192.792000
-40.467400 93.854800 194.962000
-44.531000 107.260000 187.196000
-43.973800 106.069000 188.550000
-44.413100 105.170000 187.683000
-43.009300 103.067000 191.049000
-42.088900 101.312000 193.391000
-42.068200 100.035000 193.615000
-42.157600 99.011300 192.988000
-41.802100 97.773500 193.587000
-42.007800 96.597700 192.981000
-42.483200 95.830600 191.607000
-42.147600 94.812500 192.084000
-45.083800 106.287000 187.462000
-45.793700 105.857000 185.928000
-43.746400 102.879000 191.226000
-42.856800 101.336000 193.236000
-42.917600 100.131000 193.460000
-42.679400 98.833900 193.487000
-42.692700 97.649500 193.053000
-42.955900 96.685300 192.317000
-43.589100 96.089900 190.315000
-46.213100 106.401000 186.627000
-47.124300 106.201000 184.370000
-44.617300 102.660000 191.080000
-43.611700 101.216000 193.416000
-43.427200 100.059000 193.879000
-43.470700 99.039600 193.527000
-43.504300 97.735400 193.056000
-44.000400 96.850100 191.282000
-44.740700 96.370300 189.427000
-47.336700 106.473000 185.980000
-47.899300 106.149000 184.214000
-45.612700 102.748000 190.253000
-44.692900 101.381000 192.590000
-44.135500 99.996500 193.744000
-44.270100 98.788200 193.239000
-44.107000 97.647400 193.516000
-44.902100 97.051800 190.966000
-45.689200 96.452800 188.943000
-48.124600 106.446000 186.445000
-48.466800 105.871000 184.884000
-47.804600 104.552000 186.810000
-45.393600 101.311000 192.732000
-45.198400 100.266000 192.992000
-44.864700 98.980300 193.509000
-45.162900 97.864200 192.648000
-46.002800 97.070000 190.092000
-46.490700 96.464400 188.622000
-49.047800 107.492000 186.080000
-48.618100 106.491000 186.907000
-49.130000 105.936000 185.169000
-48.498900 104.695000 186.386000
-46.167000 101.227000 192.658000
-46.163600 100.405000 192.464000
-45.605300 98.978700 193.623000
-45.951200 97.952800 192.772000
-46.357300 97.059500 191.312000
-47.126200 96.457300 188.917000
-50.065700 107.836000 184.810000
-49.197200 106.513000 186.893000
-50.028100 106.202000 184.390000
-49.125600 104.783000 186.372000
-46.724100 100.964000 193.190000
-46.536900 99.943300 193.370000
-46.473200 98.826100 193.237000
-46.805900 97.841900 192.454000
-47.409500 97.019800 190.435000
-47.776200 96.372000 189.243000
-50.166500 106.816000 185.698000
-47.526400 101.049000 193.248000
-47.349900 100.170000 193.154000
-47.328800 99.063700 193.020000
-47.476600 97.972900 192.774000
-47.705600 97.004000 191.787000
-48.512800 96.428600 189.406000
-51.213500 106.061000 187.201000
-50.047000 103.292000 189.483000
-48.617700 101.458000 192.435000
-48.197000 100.277000 192.936000
-48.037300 98.947400 193.288000
-48.352200 97.924400 192.254000
-48.613100 96.955300 191.351000
-49.436700 96.412300 189.241000
-51.391400 105.841000 188.224000
-51.738300 105.166000 186.904000
-50.681500 103.385000 189.575000
-49.369600 101.507000 192.204000
-48.756800 100.007000 193.337000
-48.992000 98.901900 192.809000
-48.837600 97.655900 192.717000
-49.643500 96.989600 190.741000
-50.151200 96.382900 189.240000
-51.771800 105.669000 188.821000
-51.893000 104.873000 188.345000
-51.312700 103.343000 189.760000
-50.268300 101.661000 191.946000
-49.780800 100.236000 192.658000
-49.770600 98.970700 192.998000
-49.763600 97.862900 192.297000
-50.155200 96.954100 191.470000
-50.914300 96.398800 189.224000
-52.262600 105.456000 189.272000
-52.757200 104.939000 188.016000
-52.450700 103.849000 188.667000
-51.057300 101.796000 191.740000
-50.649700 100.260000 192.656000
-50.265600 98.893900 193.452000
-50.626100 97.919000 192.302000
-50.905100 96.838900 191.373000
-51.824300 96.433300 188.817000
-53.140600 104.615000 188.888000
-53.254300 103.974000 188.550000
-51.520800 101.250000 192.445000
-51.510600 100.176000 192.736000
-51.072500 98.969300 193.089000
-51.288200 97.920700 192.687000
-51.499100 96.944600 191.833000
-52.561300 96.469200 188.965000
-52.791800 103.786000 191.661000
-53.769500 103.742000 188.970000
-52.306800 101.299000 192.655000
-52.642900 100.376000 191.999000
-52.060600 98.956600 192.694000
-52.375900 97.854500 191.665000
-52.535100 96.931000 190.972000
-53.242100 96.403800 189.452000
-53.973500 103.025000 190.284000
-53.171900 101.404000 192.490000
-53.264200 100.333000 192.363000
-53.123100 99.183000 192.149000
-52.836100 97.961300 192.327000
-53.186400 96.962500 191.332000
-54.228600 96.497300 188.959000
-54.102600 102.332000 192.241000
-53.856700 101.237000 192.652000
-53.560900 100.164000 193.169000
-53.842900 99.301700 192.297000
-53.832700 97.995200 191.962000
-54.212000 97.030400 190.670000
-54.943900 96.565100 188.906000
-54.986500 102.358000 192.225000
-54.448700 101.298000 193.073000
-54.293700 100.203000 192.968000
-54.544800 99.023700 192.492000
-54.366300 97.862900 192.541000
-54.628800 97.084200 191.607000
-54.505100 101.677000 194.919000
-55.093000 101.319000 193.241000
-55.003300 100.167000 193.263000
-55.389400 99.007900 192.514000
-55.030400 97.884600 192.638000
-55.546500 97.210900 191.621000
-55.508300 100.891000 193.805000
-56.029900 99.982300 192.760000
-56.121000 98.937800 192.517000
-56.001200 97.980500 192.259000
-56.101900 97.129000 192.326000
-56.080100 99.668400 194.077000
-56.531700 98.954900 193.008000
-56.794900 97.981500 192.312000
-57.347300 97.242500 191.269000
-57.703200 98.910200 191.854000
-57.911900 97.917400 191.607000
-58.205600 97.255600 190.944000
-58.475800 97.831300 191.899000
-58.646000 97.102300 191.634000
-59.299400 97.643800 192.034000
-59.502000 97.099600 191.474000
-59.687100 97.469900 192.662000
-59.694300 96.854100 192.450000
-60.117400 96.816500 192.734000
110.453000 100.980000 190.304000
109.970000 100.030000 191.116000
110.027000 101.177000 189.529000
109.793000 100.432000 189.767000
115.761000 107.219000 179.457000
115.212000 106.219000 179.999000
109.152000 101.249000 189.444000
109.748000 100.877000 188.342000
110.684000 92.911900 184.541000
110.835000 91.092100 184.395000
115.363000 108.536000 179.074000
114.405000 107.062000 180.394000
113.911000 106.064000 180.789000
108.336000 101.255000 189.247000
108.989000 100.943000 187.989000
110.619000 93.415500 183.275000
110.284000 92.467200 183.726000
113.687000 109.318000 180.527000
113.655000 108.266000 180.463000
113.445000 107.126000 180.505000
112.287000 105.684000 181.757000
108.179000 101.634000 188.108000
108.733000 101.339000 186.715000
109.720000 93.663400 183.260000
109.618000 92.850300 183.085000
112.854000 109.336000 180.635000
111.979000 107.982000 181.643000
111.436000 106.616000 182.023000
110.045000 104.863000 183.590000
107.402000 101.757000 187.822000
108.767000 101.839000 185.045000
110.177000 96.639800 181.061000
109.104000 93.972400 182.727000
109.135000 93.092700 182.388000
110.975000 109.065000 181.978000
110.866000 107.999000 181.780000
110.379000 106.545000 182.066000
108.921000 104.598000 183.788000
107.971000 102.770000 185.364000
108.780000 102.169000 183.253000
109.719000 97.046100 180.360000
109.512000 95.787100 180.856000
108.723000 94.113300 182.144000
109.182000 93.370000 181.207000
110.885000 110.535000 180.856000
110.295000 109.375000 181.483000
109.640000 107.909000 182.129000
109.229000 106.448000 182.297000
107.977000 104.608000 183.669000
108.007000 103.169000 183.561000
108.946000 102.421000 181.463000
109.156000 101.526000 180.811000
108.989000 98.464800 180.257000
109.280000 97.343500 179.900000
110.131000 96.901400 178.376000
109.728000 110.464000 181.293000
109.318000 109.420000 181.478000
108.701000 107.941000 182.029000
108.210000 106.434000 182.333000
106.727000 104.497000 184.084000
107.104000 103.305000 183.375000
108.194000 102.504000 181.356000
108.273000 101.397000 181.028000
108.701000 100.314000 179.909000
107.582000 98.615000 181.179000
108.954000 97.929200 179.044000
108.944000 110.692000 180.969000
108.188000 109.414000 181.669000
107.666000 107.919000 182.092000
107.026000 106.334000 182.646000
105.552000 104.433000 184.419000
105.991000 103.283000 183.562000
106.681000 102.264000 182.248000
107.179000 101.186000 181.334000
106.007000 99.516200 182.545000
106.794000 98.716300 181.206000
107.674000 112.434000 181.377000
107.641000 110.946000 181.356000
106.638000 109.176000 182.566000
105.904000 107.507000 183.362000
105.557000 106.098000 183.471000
104.315000 104.358000 184.985000
104.204000 102.977000 184.824000
105.467000 102.174000 182.621000
105.652000 100.915000 182.221000
104.466000 99.368600 183.651000
105.394000 112.924000 183.989000
106.144000 111.956000 182.750000
105.793000 110.500000 182.843000
105.084000 108.862000 183.509000
104.632000 107.349000 183.849000
104.168000 105.858000 184.182000
102.919000 103.931000 185.720000
102.872000 102.625000 185.414000
103.543000 101.721000 184.169000
104.468000 100.873000 182.575000
103.237000 99.508100 183.954000
104.379000 112.752000 184.143000
104.838000 111.699000 183.420000
104.154000 110.127000 183.939000
103.869000 108.730000 183.907000
103.098000 107.044000 184.794000
102.711000 105.583000 184.983000
101.617000 103.875000 186.260000
101.862000 102.726000 185.816000
102.125000 101.648000 184.888000
103.254000 100.840000 182.925000
102.500000 99.665100 183.454000
103.665000 113.036000 183.797000
103.588000 111.541000 183.877000
103.131000 110.057000 183.980000
102.512000 108.448000 184.570000
101.901000 106.884000 185.216000
101.387000 105.415000 185.586000
101.178000 104.163000 185.456000
101.081000 102.792000 185.505000
101.418000 101.752000 184.381000
101.991000 100.740000 183.226000
102.131000 99.809500 182.290000
103.298000 113.280000 182.656000
102.782000 111.607000 183.408000
101.691000 109.613000 184.763000
101.535000 108.293000 184.726000
100.929000 106.874000 185.244000
100.265000 105.238000 185.763000
100.241000 103.801000 185.533000
100.611000 102.721000 184.566000
101.187000 101.764000 183.187000
101.724000 100.783000 181.905000
101.683000 99.829300 181.718000
102.883000 99.650400 179.430000
103.529000 114.250000 180.743000
102.242000 112.047000 182.640000
101.493000 110.262000 183.682000
100.876000 108.617000 184.288000
99.557200 106.652000 185.934000
99.041300 105.270000 186.154000
99.383100 104.086000 185.396000
99.730600 102.933000 184.541000
100.166000 101.942000 183.582000
100.353000 100.910000 182.722000
100.978000 100.010000 181.674000
103.297000 114.672000 179.597000
103.073000 113.595000 179.839000
100.603000 109.983000 183.554000
99.017300 107.911000 185.882000
98.612900 106.664000 185.963000
98.026500 105.309000 186.403000
98.263400 104.191000 185.745000
99.046000 103.238000 184.008000
99.261500 101.971000 183.576000
99.093300 100.903000 183.287000
100.059000 100.324000 181.612000
102.287000 114.704000 179.821000
99.860000 109.836000 183.414000
98.418600 108.044000 185.435000
97.383700 106.439000 186.499000
97.355200 105.242000 185.944000
97.630200 103.959000 185.174000
98.378600 103.221000 183.574000
98.318500 102.032000 183.528000
99.426400 101.489000 181.344000
102.951000 114.802000 176.085000
96.952000 107.534000 186.197000
96.719500 106.540000 185.996000
96.162800 105.270000 186.438000
96.286900 104.003000 185.844000
97.314700 103.088000 183.948000
97.476200 102.017000 183.534000
102.309000 114.898000 176.169000
96.239400 107.591000 185.761000
95.385100 106.311000 186.759000
95.135200 105.082000 186.725000
94.830200 103.719000 186.643000
95.032400 102.561000 186.297000
96.157100 102.075000 184.280000
101.600000 117.111000 176.796000
95.141200 107.487000 186.075000
94.239400 106.147000 187.197000
93.920800 104.866000 187.238000
93.528600 103.459000 187.312000
94.167600 102.602000 186.154000
94.572100 101.835000 185.491000
94.246700 107.569000 185.986000
93.001400 105.989000 187.749000
92.485300 104.544000 188.106000
92.554900 103.357000 187.555000
92.999000 102.488000 186.621000
93.695500 101.885000 185.366000
92.792200 107.391000 186.886000
92.110400 106.090000 187.683000
91.243200 104.534000 188.797000
91.366100 103.381000 188.323000
92.110300 102.583000 186.660000
92.873700 102.041000 185.021000
93.089300 108.927000 185.204000
91.633200 107.383000 187.320000
90.889900 105.882000 188.317000
90.398700 104.348000 188.678000
91.099300 103.350000 187.152000
91.578400 102.537000 186.098000
92.115100 102.076000 184.752000
89.655400 107.766000 189.428000
90.294300 107.074000 188.238000
89.592300 105.560000 189.072000
89.103900 104.150000 189.313000
89.525200 103.099000 188.420000
91.109300 102.852000 185.340000
80.900500 108.749000 207.022000
88.979600 108.633000 189.712000
87.751800 107.146000 191.468000
88.259700 106.365000 190.393000
88.237900 105.124000 189.894000
87.935700 103.848000 189.947000
88.259500 102.913000 189.140000
89.319700 102.438000 186.939000
90.702600 102.301000 184.418000
81.091600 110.065000 205.502000
80.699700 108.997000 205.793000
85.409400 106.160000 194.277000
86.067400 105.686000 192.894000
86.571000 104.821000 191.597000
86.856700 103.799000 190.604000
87.152200 102.781000 189.625000
87.354100 101.776000 188.984000
88.094500 101.352000 187.319000
81.487800 110.684000 203.424000
80.764400 109.381000 204.233000
80.511700 108.396000 203.961000
81.624700 108.432000 201.210000
84.744200 106.044000 194.165000
84.951200 105.451000 193.597000
84.695000 104.265000 193.555000
85.741200 103.748000 191.311000
85.623700 102.488000 190.930000
87.056400 101.209000 187.772000
79.587200 108.021000 204.285000
80.060600 107.645000 203.008000
83.873500 104.990000 194.151000
83.625200 103.934000 193.877000
84.341900 103.235000 192.224000
84.480800 102.117000 191.400000
78.761400 107.806000 204.086000
79.022500 107.261000 203.486000
79.426300 106.833000 202.462000
83.344400 104.246000 193.020000
82.879600 103.013000 193.310000
83.231400 101.938000 192.320000
79.202100 108.585000 201.690000
78.380600 107.241000 203.149000
78.340700 106.447000 202.930000
81.889200 103.844000 193.883000
81.863900 102.842000 193.693000
81.984400 101.830000 193.040000
77.964600 107.334000 202.382000
78.006600 106.617000 202.100000
77.992900 105.793000 201.366000
82.038100 105.368000 192.260000
81.370100 104.227000 193.280000
81.207200 102.981000 193.313000
81.402400 101.842000 192.401000
81.674800 100.916000 191.777000
77.871500 107.650000 200.838000
77.354100 106.463000 201.656000
77.128400 105.436000 201.556000
77.995200 105.356000 199.593000
80.863600 105.133000 193.241000
80.524900 104.162000 193.475000
80.310000 103.090000 193.399000
80.170500 101.788000 193.302000
80.624000 100.804000 192.209000
76.008600 105.936000 202.751000
76.378400 105.396000 201.665000
77.176600 105.154000 199.818000
79.979400 105.061000 193.388000
79.509000 103.977000 193.874000
79.395400 102.875000 193.673000
78.915800 101.503000 194.172000
79.364000 100.604000 192.957000
75.898800 106.213000 201.360000
75.362300 105.129000 202.305000
75.762300 104.570000 200.878000
78.059300 104.353000 195.549000
78.338800 103.580000 194.715000
77.989500 102.340000 194.811000
78.327800 101.313000 193.733000
78.625000 100.421000 192.653000
79.202500 99.794400 191.349000
72.597000 85.645000 202.262000
75.189700 105.265000 201.037000
74.932300 104.271000 200.832000
75.766400 103.785000 198.722000
76.873200 103.209000 196.051000
76.581600 101.941000 196.052000
76.962400 101.067000 195.013000
77.607300 100.319000 193.311000
78.591800 99.785700 190.875000
72.079600 86.722500 202.355000
71.418800 85.239900 203.973000
74.189400 104.149000 201.068000
74.225300 103.349000 200.420000
74.518000 102.410000 199.287000
75.191900 101.622000 197.525000
75.435200 100.625000 196.630000
76.407600 100.133000 194.209000
77.304500 99.587700 192.103000
73.207700 90.160900 198.368000
72.579800 88.618600 199.877000
72.109700 87.406900 200.951000
71.687900 85.895500 202.258000
71.294400 84.603900 203.257000
73.601800 104.075000 200.324000
73.501200 103.089000 200.149000
73.049400 101.770000 200.707000
73.669200 101.166000 199.141000
74.204300 100.360000 197.612000
75.060400 99.766400 195.376000
75.610800 99.135500 193.899000
72.693200 91.288800 198.346000
72.142900 89.881200 199.564000
71.784700 88.554200 200.493000
72.586400 88.268700 198.477000
73.344400 104.373000 199.066000
72.901200 103.259000 199.802000
72.438500 101.905000 200.570000
72.476500 100.893000 200.296000
72.790400 100.041000 198.962000
73.623000 99.340200 196.793000
74.213200 98.612800 195.214000
74.686100 98.070100 193.957000
72.549600 95.253100 197.567000
72.510000 94.106800 197.515000
72.301900 92.713700 198.060000
71.346500 90.947300 200.153000
71.333100 89.970600 199.999000
71.589400 89.054600 199.552000
72.161000 103.226000 199.639000
72.047600 102.184000 199.747000
71.821100 100.863000 200.125000
71.999100 100.034000 198.801000
72.353000 99.061400 197.860000
72.731500 98.087700 196.797000
72.860200 97.027800 196.266000
71.574000 95.171900 198.559000
71.701400 94.056700 198.183000
71.239600 92.246500 199.408000
70.999800 90.945700 199.796000
71.661600 90.348800 198.174000
71.995900 103.629000 197.948000
71.486100 102.302000 199.165000
71.328100 101.044000 199.453000
71.263900 100.067000 198.802000
71.465000 99.069700 198.028000
71.524600 97.908200 197.908000
71.512500 96.663000 197.567000
70.890700 95.040900 198.835000
71.749800 94.803300 196.645000
71.376700 103.768000 197.529000
70.935900 102.492000 198.521000
70.684200 101.095000 199.004000
70.728400 99.959400 198.378000
71.081100 99.202300 197.264000
70.774600 97.929300 197.812000
70.957800 96.939600 197.115000
70.549100 95.419000 198.304000
71.017400 104.118000 196.760000
70.315600 102.783000 198.082000
70.231800 101.506000 198.140000
70.090100 100.208000 198.335000
70.360900 99.244400 197.310000
70.814600 98.538000 195.707000
71.767000 98.621600 192.777000
70.064800 104.065000 197.221000
69.270200 102.641000 198.694000
69.374700 101.582000 198.324000
69.589500 100.394000 197.513000
69.866800 99.276200 196.660000
70.346100 98.883600 194.947000
69.304000 104.861000 197.567000
68.644100 103.621000 198.719000
68.621600 102.430000 198.542000
68.746200 101.352000 198.032000
68.515600 100.233000 197.940000
69.440900 99.666900 195.846000
69.895300 99.302700 194.033000
68.212400 104.643000 198.479000
67.659600 103.585000 199.271000
67.727900 102.588000 198.926000
67.710500 101.266000 198.568000
67.884000 100.279000 197.801000
68.640500 99.772000 195.721000
69.408900 99.512900 193.195000
67.265000 104.591000 198.780000
66.937400 103.390000 199.337000
66.791000 102.181000 199.461000
66.671700 101.159000 198.977000
67.138100 100.188000 197.887000
68.250400 99.876700 194.834000
69.236700 99.746800 192.154000
67.459000 106.677000 196.251000
66.616400 104.988000 198.328000
66.488300 103.803000 198.767000
66.202400 102.496000 199.046000
65.564800 100.951000 199.755000
66.080300 100.151000 198.522000
67.132000 99.893600 195.920000
68.949600 99.865800 191.612000
67.333600 107.049000 195.364000
66.465500 105.489000 197.229000
65.621700 103.764000 199.061000
65.218700 102.331000 199.424000
64.888300 101.005000 199.533000
65.143000 100.015000 198.911000
66.005000 99.733500 196.822000
66.366500 95.032900 193.183000
66.558000 93.988500 192.702000
65.271300 104.827000 198.434000
64.554000 103.386000 199.689000
64.178900 102.081000 200.104000
63.899800 100.813000 200.147000
64.191200 99.821600 199.369000
64.953100 99.369800 197.247000
65.885200 98.714800 193.403000
65.353300 95.936400 194.563000
65.055200 94.673900 195.075000
65.510700 93.687000 193.967000
