# .PCD v0.7 - Point Cloud Data file format
VERSION 0.7
FIELDS x y z
SIZE 4 4 4
TYPE F F F
COUNT 1 1 1
WIDTH 1469
HEIGHT 1
VIEWPOINT 0 0 0 1 0 0 0
POINTS 1469
DATA ascii
20.096500 -67.219200 90.860500
20.423700 -66.333900 91.394200
19.416200 -66.466000 92.751700
19.212600 -67.854900 90.316000
20.328900 -66.132500 89.855100
19.487900 -66.176600 91.351700
18.506000 -66.312100 92.861400
16.778800 -69.679000 91.199900
18.242400 -67.799300 90.361900
19.105700 -66.523300 90.315600
19.306900 -65.376600 90.571800
18.004700 -66.010300 92.596900
16.814900 -66.619200 94.326000
13.489700 -64.655400 101.388000
13.671800 -63.808600 101.867000
13.628400 -63.060100 102.597000
13.096700 -62.678800 103.812000
11.842700 -62.930200 105.686000
15.884600 -69.763900 91.270800
17.046200 -68.159300 90.666000
18.514300 -66.162100 90.006800
18.895300 -65.047400 90.223900
18.394300 -64.787900 91.278200
17.464000 -65.235200 92.896400
14.201500 -64.771000 98.367300
13.625300 -64.822800 99.598900
13.735000 -64.081900 100.206000
13.471000 -63.592000 101.209000
13.102800 -63.158200 102.299000
13.191400 -62.256700 102.882000
12.240300 -62.186000 104.502000
11.664900 -61.617700 105.648000
10.649700 -61.401600 107.333000
16.103700 -68.163500 90.774500
17.433400 -66.348800 90.126400
18.267000 -64.921500 90.105700
17.863700 -64.321100 90.920100
17.391800 -64.185100 92.069700
14.025700 -64.425200 97.587900
13.359200 -64.437300 99.145200
12.753500 -64.165900 100.512000
12.598900 -63.474400 101.420000
12.924400 -62.475000 101.823000
12.010200 -62.428800 103.338000
11.439900 -62.012500 104.541000
11.102900 -61.411100 105.399000
10.269200 -61.201400 106.922000
9.918670 -60.588500 107.913000
14.940500 -68.272400 91.132100
16.286100 -66.498800 90.371600
17.354000 -64.849600 90.114900
17.872600 -63.596200 90.190600
17.306000 -63.330700 91.289000
15.599000 -64.037900 93.741600
14.671400 -63.991000 95.479600
13.995000 -63.907300 96.687100
13.517800 -63.684900 97.896700
12.594600 -63.749300 99.572900
12.030300 -63.418100 100.904000
11.861300 -62.663800 102.016000
11.220200 -62.283100 103.414000
10.802200 -61.780800 104.396000
10.107200 -61.448600 105.693000
9.602750 -61.003300 106.752000
9.455090 -60.401500 107.537000
15.017800 -66.718300 90.797700
16.164700 -65.123300 90.334900
17.040600 -63.675700 90.271800
16.281000 -63.398100 91.402600
15.794700 -63.121300 92.663200
14.410500 -63.542400 94.891500
13.285800 -63.712200 96.747900
12.901200 -63.405900 97.878800
11.733600 -63.744700 99.733700
10.532600 -64.063700 101.811000
9.977570 -62.708100 104.031000
9.728090 -61.943800 104.889000
9.182930 -61.330300 106.002000
8.785670 -60.859800 106.954000
14.503600 -66.222800 90.536400
14.920500 -65.349400 90.680400
16.238900 -63.587400 90.166700
15.609300 -63.256700 91.200300
15.817600 -62.376400 91.687200
15.039600 -62.204700 93.184600
13.649000 -62.726300 95.366900
12.122300 -63.469200 97.718800
13.705000 -65.516600 91.046300
14.510800 -64.211000 90.936900
15.186200 -62.742300 90.971100
15.130900 -62.016100 91.697300
14.657400 -61.623500 92.713600
13.620900 -61.969300 94.409600
12.062000 -62.861600 96.630200
12.566400 -65.762000 91.462000
13.473200 -64.477400 91.091500
13.915700 -63.300300 91.268800
15.174500 -61.426000 90.744900
14.764800 -60.983400 91.697500
13.901800 -61.050800 93.264200
12.799900 -61.543500 95.025600
12.919700 -64.360900 91.065500
14.448500 -61.103100 90.661800
14.470000 -60.380900 91.168300
13.394500 -60.497600 93.792000
12.896500 -62.181600 91.056300
13.659000 -60.916000 90.728900
14.169200 -59.990900 90.659700
13.818400 -59.566800 91.327000
13.440600 -59.705500 90.681300
13.224000 -59.109300 91.148200
13.140600 -58.345400 90.619300
12.928800 -58.062100 91.127100
11.458100 -58.791400 91.509800
12.430400 -57.610400 90.930200
12.459200 -56.890900 90.347600
10.915900 -57.670300 92.097100
11.672200 -56.557000 90.879200
190.181000 -73.664500 46.066900
189.854000 -74.366100 47.118200
190.581000 -75.990300 45.692400
188.697000 -72.865800 47.911600
188.511000 -73.782700 48.566700
188.958000 -75.142700 47.911900
187.493000 -72.404100 48.726400
187.590000 -73.592100 48.638500
187.201000 -74.524100 49.753000
186.775000 -72.717000 48.083000
186.588000 -73.769600 48.744600
186.088000 -74.645400 50.058600
186.802000 -76.298500 48.598300
185.935000 -72.904100 47.807500
185.996000 -73.883700 48.005800
185.351000 -74.576100 49.748200
185.179000 -75.683000 50.294800
184.836000 -73.972300 48.542100
184.461000 -74.852100 49.709500
183.853000 -75.741200 50.883500
184.308000 -74.740500 47.281700
183.470000 -75.034300 49.727300
182.835000 -75.875300 51.200200
183.187000 -77.234500 50.560400
183.008000 -75.524100 48.601300
181.989000 -75.830200 51.252600
181.765000 -76.729900 52.091900
181.181000 -75.899400 51.203000
180.784000 -76.829700 52.015100
181.637000 -78.517300 50.558000
180.147000 -76.113200 51.371900
179.382000 -76.534800 53.064900
179.258000 -77.572900 53.350300
179.005000 -76.067100 51.900900
178.447000 -76.797700 53.062200
178.476000 -78.067400 53.049300
177.880000 -75.954000 52.390300
177.399000 -76.674700 53.434200
177.401000 -77.873900 53.702800
177.749000 -79.406600 52.946200
176.977000 -77.046000 52.422500
176.505000 -77.805200 53.672800
176.000000 -78.646700 55.207200
175.603000 -76.882900 53.476200
175.387000 -77.917400 54.226900
174.849000 -78.775900 55.850300
175.445000 -80.709600 54.335900
174.941000 -81.545200 55.542400
175.169000 -77.627000 52.013300
174.718000 -77.953200 53.733100
174.165000 -78.706600 55.399000
174.026000 -80.165500 55.994500
173.861000 -81.095400 56.703900
173.785000 -78.163900 53.873600
173.207000 -79.001500 55.587300
172.708000 -79.808200 57.116600
173.205000 -81.330800 56.286200
173.335000 -78.676900 52.907100
172.741000 -79.264700 54.680100
172.170000 -79.912900 56.427700
171.695000 -80.746600 57.665700
168.129000 -97.187900 74.582600
171.152000 -79.912300 57.021500
170.656000 -80.962200 57.890200
170.939000 -82.133600 57.445600
167.983000 -98.250900 72.476900
167.198000 -97.814400 75.035700
167.175000 -98.860700 75.327100
170.161000 -80.337500 57.098000
169.582000 -80.825600 58.537400
169.548000 -81.494100 59.173000
166.823000 -97.630300 73.509200
166.662000 -98.549400 73.989600
166.375000 -99.545500 74.687800
169.158000 -81.293800 57.587300
168.273000 -81.270200 60.063100
165.834000 -97.637100 73.615400
165.713000 -98.485200 74.303200
167.749000 -80.792900 59.183800
167.537000 -81.958000 59.287000
167.779000 -83.099700 58.909400
165.227000 -98.111300 72.463400
166.982000 -81.292600 58.645200
166.188000 -81.412300 60.926900
166.142000 -82.301200 61.398300
164.770000 -93.524600 68.099500
165.422000 -95.742700 66.260200
165.473000 -81.531000 60.635300
165.258000 -82.437200 61.459600
165.480000 -84.150600 60.703100
162.892000 -90.283000 71.120600
163.700000 -92.595100 69.364300
163.388000 -96.386400 71.560000
164.766000 -81.875100 59.949900
164.364000 -82.329200 61.533500
164.036000 -83.275500 62.746500
164.312000 -84.687100 62.228400
162.231000 -90.274600 70.863500
162.608000 -91.816200 70.353500
162.983000 -93.712100 69.883900
162.733000 -95.027500 70.906200
162.522000 -96.156600 71.826800
163.606000 -81.529100 61.102500
163.356000 -82.431500 62.042700
163.005000 -83.264700 63.272100
163.410000 -84.681500 62.531500
161.422000 -90.086500 70.844900
161.733000 -91.564100 70.395600
161.943000 -93.275200 70.208800
161.999000 -94.922700 70.489800
161.865000 -96.021700 71.497000
163.002000 -81.658900 60.792000
162.835000 -82.712100 61.273500
162.495000 -83.495500 62.473500
161.967000 -84.098300 64.110800
160.809000 -90.225500 70.384400
160.750000 -91.071100 70.835600
160.925000 -92.705900 70.560200
161.080000 -94.565000 70.426600
161.053000 -96.268600 71.023400
160.894000 -97.512200 71.976900
161.425000 -83.474400 63.194900
161.143000 -84.447300 63.883000
161.398000 -85.786500 63.225000
160.126000 -90.349300 70.025900
160.306000 -91.963700 69.410300
160.264000 -93.305700 69.948500
160.281000 -94.835900 70.358100
160.424000 -96.875700 70.045200
160.213000 -97.903000 71.466300
160.813000 -84.200500 62.310900
160.336000 -84.246200 64.298700
160.045000 -84.926400 65.143100
159.583000 -90.173800 67.213300
159.517000 -90.975500 68.433400
159.534000 -92.083300 69.410600
159.556000 -93.363600 69.938000
160.211000 -96.007700 68.309600
159.210000 -98.909800 72.331700
159.587000 -84.541500 64.062000
159.239000 -85.625100 64.347400
158.475000 -89.176800 68.499300
158.468000 -90.500500 68.785200
158.872000 -92.162400 68.575400
159.189000 -94.007300 66.877400
158.752000 -85.007200 63.682600
158.082000 -85.171400 65.658900
157.902000 -86.151100 66.445600
157.638000 -87.435200 67.973600
157.616000 -89.053700 68.402100
157.483000 -90.153500 69.327400
158.139000 -92.262600 67.832100
157.787000 -84.954200 64.146400
157.271000 -85.321200 65.929400
156.973000 -86.097800 67.450500
156.762000 -87.446500 68.079500
156.826000 -89.122600 68.157900
156.862000 -90.195500 68.816100
157.013000 -92.090600 68.137800
156.553000 -85.309100 65.868500
156.125000 -86.052400 67.272200
155.870000 -87.069300 68.379400
156.035000 -88.935500 67.860000
156.182000 -90.708300 68.016100
156.136000 -92.494800 67.969400
156.357000 -94.310400 67.164100
155.480000 -85.101500 66.513000
155.143000 -85.850400 67.449300
155.138000 -87.230800 67.888500
155.121000 -88.663200 68.278000
155.191000 -90.180200 68.367800
155.300000 -92.245100 68.056700
155.379000 -93.943500 68.059800
155.716000 -96.181000 66.601800
154.367000 -84.759800 67.127900
154.214000 -85.549800 68.197500
153.930000 -86.407800 69.127200
153.983000 -87.969900 69.412400
154.704000 -91.385800 67.103700
154.500000 -92.640500 67.798100
154.573000 -93.750300 68.215700
154.534000 -95.430100 68.183700
154.958000 -97.515000 66.745100
153.620000 -84.024600 65.183800
153.351000 -84.309200 67.141700
153.393000 -85.452600 67.937300
152.952000 -86.124300 69.877100
152.540000 -86.511800 71.673900
152.639000 -87.561200 71.681900
154.056000 -93.428600 66.533800
153.829000 -94.298800 67.697100
153.686000 -95.766600 68.105000
153.740000 -96.971100 68.224100
152.658000 -83.501100 66.385600
152.634000 -84.463700 67.103000
152.276000 -85.017700 69.166000
151.970000 -85.581100 70.992900
152.352000 -87.379300 69.638600
153.348000 -93.457500 66.634000
153.345000 -94.951500 66.490200
152.903000 -95.572500 68.268100
152.956000 -97.012100 68.305900
153.019000 -99.033100 67.362500
151.699000 -83.095400 66.573300
151.768000 -84.170000 67.079400
151.680000 -85.003700 68.248700
151.582000 -85.899400 69.389500
152.565000 -96.732500 66.580300
152.358000 -97.672900 67.508800
152.251000 -99.510800 67.053500
152.405000 -100.848000 66.653800
151.190000 -82.424600 64.345800
150.804000 -82.548000 66.659400
150.978000 -83.997900 66.585200
151.006000 -85.109300 67.287800
151.738000 -98.408100 66.900700
151.593000 -99.683700 67.018300
151.542000 -100.537000 67.406400
150.112000 -79.301500 64.325400
150.052000 -80.176800 65.050900
150.242000 -81.593400 65.591500
150.065000 -82.437400 66.808600
150.419000 -84.537400 65.655800
150.684000 -86.157400 64.810900
151.282000 -100.325000 65.951500
151.235000 -101.331000 66.170800
149.305000 -78.816600 65.310000
149.216000 -79.534200 66.156600
149.217000 -80.867700 66.474400
149.415000 -82.644600 66.472400
150.014000 -85.029000 64.639600
148.447000 -78.663100 65.415000
148.574000 -79.644100 65.828800
148.340000 -80.654400 66.406400
148.341000 -81.826400 66.756600
147.556000 -78.304900 65.980900
147.636000 -79.607700 65.814500
147.639000 -80.857300 66.265800
147.464000 -81.828200 66.519500
147.037000 -78.905200 64.678800
146.761000 -79.733500 65.408100
146.859000 -80.817900 66.075600
146.731000 -82.089100 65.762000
146.031000 -78.683900 65.104600
145.927000 -79.507900 65.709600
146.069000 -80.984400 65.432400
146.080000 -82.515900 64.786700
145.602000 -79.500700 63.079900
145.168000 -79.550800 65.527300
145.299000 -81.109200 65.290000
145.432000 -82.630100 64.283300
144.610000 -78.875800 64.278300
144.270000 -79.404900 65.439800
144.313000 -80.487400 65.884300
143.548000 -78.292700 65.590400
143.362000 -79.273100 65.843800
143.485000 -80.467300 65.664900
142.676000 -78.183000 65.675900
142.311000 -78.820900 66.580700
142.559000 -80.106800 66.258400
141.098000 -69.944200 68.251600
140.806000 -71.124600 69.295400
140.895000 -73.113100 68.769700
141.048000 -74.981700 68.304700
141.637000 -77.546500 66.315000
141.408000 -78.579000 66.852100
141.597000 -80.181900 66.317700
140.239000 -69.243600 69.869700
140.120000 -70.990100 69.704400
140.321000 -72.642500 69.059000
140.346000 -74.265500 68.830000
140.740000 -77.203800 66.391600
140.700000 -78.530200 66.878400
140.555000 -79.512400 67.776400
140.257000 -80.681200 68.895400
140.352000 -83.261900 67.457000
140.436000 -85.296900 66.610600
139.740000 -68.078600 69.666100
139.750000 -69.970400 68.953500
139.597000 -71.395400 69.318600
139.696000 -72.773400 69.061000
139.846000 -75.098600 67.333600
139.897000 -77.323600 65.821000
139.941000 -78.613900 66.801200
139.662000 -79.573100 68.510400
139.604000 -80.777200 68.901000
139.496000 -81.925400 69.383400
139.516000 -84.010700 68.658300
139.534000 -85.900500 68.388800
139.418000 -87.639200 68.674300
139.351000 -89.205500 69.003500
139.570000 -91.619400 67.578400
139.530000 -93.046400 67.629400
139.184000 -73.381900 68.154000
139.210000 -75.809600 65.843400
139.182000 -77.424600 65.173000
139.191000 -78.693300 65.834300
139.060000 -79.771400 67.434100
138.965000 -80.846800 68.749800
138.825000 -82.360900 68.835300
138.794000 -84.032200 68.404200
138.807000 -85.300500 69.003900
138.794000 -86.914200 69.245700
138.771000 -88.575400 69.346900
138.897000 -90.807700 68.363500
138.964000 -92.827400 67.703500
138.816000 -94.132600 68.220800
138.613000 -95.638600 68.777100
138.605000 -97.621000 68.663800
138.652000 -99.747800 68.414500
138.725000 -101.827000 68.130900
138.769000 -75.832100 63.305800
138.630000 -76.619800 64.010800
138.411000 -77.635600 65.116500
138.533000 -79.201800 65.005900
138.653000 -81.139600 62.840600
138.360000 -81.600100 67.421400
138.248000 -83.153200 67.226200
138.185000 -84.197700 68.303100
138.209000 -85.587000 69.266000
138.285000 -87.433200 69.034600
138.214000 -89.021400 69.245900
138.287000 -91.568700 67.886100
138.335000 -93.236100 67.572000
138.142000 -94.398400 68.389000
138.093000 -96.296600 68.314100
138.196000 -98.535400 67.779900
138.120000 -99.824300 68.292400
138.102000 -101.520000 68.195600
138.118000 -76.028200 62.675800
137.773000 -76.468800 64.234200
137.594000 -77.547400 64.881600
137.666000 -79.201400 64.692700
137.546000 -82.014700 66.461300
137.756000 -83.772100 65.541200
137.856000 -92.553100 66.437300
137.626000 -92.938000 68.252600
137.678000 -95.100600 67.521800
137.561000 -96.272100 68.178900
137.553000 -97.821900 68.340000
137.556000 -100.093000 67.916600
137.099000 -75.459100 63.913500
136.890000 -76.499300 64.271600
136.881000 -77.753400 64.863700
136.904000 -79.951000 63.454100
136.991000 -81.408700 63.927300
136.922000 -82.156900 65.517000
136.232000 -75.567800 63.383900
135.986000 -76.011800 65.060200
136.085000 -77.983300 64.115300
136.257000 -80.509700 62.299600
136.247000 -81.565800 63.042700
136.195000 -82.173400 64.481900
135.170000 -73.424300 63.445300
135.381000 -75.124000 63.334700
135.324000 -76.396800 63.877900
135.212000 -77.899200 64.189000
135.372000 -79.807500 63.359500
135.609000 -81.840000 62.091800
135.523000 -82.925500 62.335400
134.417000 -72.937400 63.928200
134.545000 -74.569800 64.201600
134.290000 -75.854500 64.890700
134.433000 -77.289300 64.866500
134.505000 -79.243100 63.926900
134.748000 -81.815300 61.952100
134.626000 -83.322400 61.612800
133.454000 -72.723400 64.683200
133.593000 -74.298700 64.862000
133.496000 -75.828700 65.092400
133.680000 -77.378300 64.835500
133.814000 -79.849300 63.077700
133.954000 -82.615500 60.749400
133.928000 -83.650500 61.021500
132.654000 -72.705900 64.922900
132.711000 -73.937200 65.239700
132.779000 -75.313200 65.464800
132.949000 -77.363400 64.604200
133.231000 -80.632000 61.891900
133.165000 -83.087100 60.129700
133.242000 -84.006300 60.303200
131.942000 -72.504400 65.024800
131.955000 -73.719400 65.398300
131.995000 -75.180700 65.243000
132.540000 -84.447900 57.952200
132.430000 -84.818900 59.214200
131.388000 -72.901000 63.891200
131.191000 -73.938800 65.021900
131.113000 -75.116900 65.010300
131.765000 -86.046500 57.459100
130.457000 -74.081700 64.729600
130.257000 -74.910000 65.292700
129.563000 -74.129100 65.132900
129.314000 -74.869400 65.469700
128.668000 -74.090800 65.427000
128.391000 -74.488300 66.392900
127.701000 -73.605600 66.351000
127.624000 -74.261800 66.690700
126.924000 -73.573400 66.355800
126.853000 -74.265600 66.614300
126.197000 -73.553800 66.178700
125.994000 -74.325100 66.280100
125.371000 -73.635400 66.042700
125.134000 -74.196000 66.628500
124.447000 -73.273800 66.683600
124.350000 -73.786100 67.345500
123.646000 -73.316600 66.570200
123.602000 -73.976100 66.940700
122.836000 -73.125700 66.711300
122.818000 -73.999500 66.585100
122.094000 -73.402500 66.093000
121.991000 -73.809100 67.008900
121.330000 -73.160500 66.201100
121.079000 -73.497100 67.293000
120.386000 -72.358900 65.051700
120.424000 -72.961500 66.127800
120.225000 -73.305000 67.438500
118.964000 -88.241600 74.752900
119.757000 -72.086900 65.666100
119.638000 -72.720600 66.524400
119.442000 -73.288000 67.466400
118.389000 -88.368500 74.621300
118.388000 -88.825800 75.387600
118.941000 -72.065800 65.839900
118.875000 -72.582500 66.927600
118.643000 -73.234500 67.773300
117.668000 -88.341200 74.715500
117.707000 -89.223100 74.939300
118.147000 -72.227900 65.518600
118.064000 -72.544800 67.216800
117.810000 -73.450200 67.976900
116.953000 -88.497900 74.145300
116.877000 -89.255500 74.895500
116.839000 -91.099600 74.634100
117.335000 -72.988000 66.416700
117.134000 -73.571800 67.944000
116.957000 -74.810900 68.145200
116.815000 -75.398600 69.363400
116.099000 -88.513000 71.496100
116.148000 -88.531300 73.762300
116.158000 -89.073100 75.126000
116.104000 -90.605900 74.852000
116.365000 -74.138700 67.049000
116.297000 -74.869200 68.040700
116.266000 -75.439300 69.198900
115.418000 -87.488800 73.181200
115.397000 -88.379300 73.831300
115.478000 -89.420000 74.502500
115.323000 -90.898300 74.644200
115.542000 -74.702300 66.152600
115.491000 -74.764300 68.277200
115.547000 -75.591300 68.719900
114.554000 -87.133500 73.067500
114.704000 -88.289600 73.398200
114.674000 -89.266400 74.415100
114.640000 -91.075600 74.325300
114.645000 -74.675800 68.295100
114.634000 -75.608700 68.551900
113.755000 -82.290800 70.375200
113.818000 -85.762800 72.607100
113.894000 -86.640500 73.515100
113.978000 -88.210500 73.202800
113.984000 -89.884900 73.021200
113.800000 -74.105300 66.612000
113.800000 -74.499400 68.671400
113.837000 -75.698600 68.474800
113.187000 -81.473200 71.843000
113.225000 -82.544400 72.231500
113.243000 -84.297500 72.034500
113.165000 -84.967000 73.174500
113.283000 -86.692000 72.933800
113.409000 -88.517900 72.617900
113.168000 -74.006300 63.669100
113.111000 -74.083400 66.295500
112.960000 -73.899700 69.758200
113.104000 -75.404900 68.989600
112.481000 -80.609800 73.049300
112.594000 -82.213100 72.501500
112.635000 -83.830200 72.317300
112.542000 -84.717700 73.164500
112.680000 -73.391000 62.460900
112.619000 -73.519800 64.622100
112.338000 -73.359400 67.784400
112.153000 -73.859300 69.853500
112.296000 -75.021200 69.729800
111.851000 -79.551300 72.434600
111.748000 -80.312900 72.956200
111.886000 -81.407100 73.518900
111.928000 -83.799000 71.788300
111.891000 -85.593400 70.970700
111.544000 -66.549900 69.325100
111.511000 -68.017500 69.331700
111.511000 -69.499300 69.497200
111.547000 -70.864600 70.069100
111.592000 -72.550800 69.738000
111.366000 -73.466200 70.645600
111.398000 -74.901300 70.392300
111.038000 -78.426400 70.985900
111.116000 -79.029100 72.485600
111.042000 -79.597300 73.855300
111.112000 -81.206500 73.376900
111.024000 -62.606100 68.878100
111.047000 -63.835700 68.808700
111.034000 -65.049800 69.284700
111.050000 -66.688800 69.063800
110.884000 -67.904600 69.349800
110.933000 -69.295000 70.021200
110.910000 -70.427400 70.785200
110.864000 -71.754800 70.985600
110.658000 -72.852400 71.748200
110.578000 -74.536700 71.421500
110.581000 -76.400200 70.500100
110.483000 -77.315600 72.508400
110.404000 -78.530100 73.112100
110.350000 -79.848300 73.295700
110.326000 -80.895900 73.384300
110.417000 -61.133000 68.928900
110.395000 -62.122500 69.363500
110.517000 -63.541000 69.219000
110.390000 -64.809900 69.293300
110.374000 -66.387100 69.114700
110.212000 -67.896900 68.935000
110.189000 -69.262100 69.447300
110.232000 -70.541800 70.527500
110.139000 -71.759400 71.389300
109.909000 -73.001000 71.939500
109.817000 -74.730600 71.434200
109.904000 -76.051800 71.636000
109.752000 -77.038800 72.892300
109.677000 -78.248500 73.525200
109.673000 -79.815800 72.894100
109.843000 -61.022000 69.202100
109.705000 -61.644100 70.365400
109.790000 -63.563500 68.921900
109.773000 -64.994100 69.134600
109.691000 -66.894100 67.864600
109.665000 -68.315300 68.523000
109.619000 -69.613800 68.673700
109.586000 -70.538700 69.819400
109.446000 -71.586500 71.718500
109.169000 -72.762000 72.455300
109.177000 -73.879400 72.799700
109.132000 -75.253700 73.164200
108.993000 -76.714900 73.413300
108.969000 -78.442200 72.577500
109.061000 -60.686700 69.938900
109.022000 -61.395800 71.003200
109.091000 -62.958300 69.815600
109.127000 -64.614300 69.084700
108.564000 -72.576000 72.781800
108.384000 -73.969600 72.815500
108.363000 -75.485000 72.974400
108.245000 -76.513700 73.284400
108.228000 -60.274400 69.660300
108.394000 -61.103600 71.117300
107.740000 -72.922100 72.594300
107.498000 -73.775800 73.139300
107.619000 -75.152000 73.097400
107.476000 -76.278300 72.860500
107.618000 -59.941600 69.560100
107.766000 -61.131500 70.104600
107.859000 -62.199200 70.538700
106.928000 -72.800500 72.928000
106.762000 -73.366600 73.844900
106.805000 -74.545900 73.781600
106.091000 -72.609400 73.312500
106.049000 -73.504500 73.717800
106.021000 -74.587000 73.552900
105.345000 -72.188500 74.022600
105.237000 -73.239400 73.895700
105.269000 -74.394200 73.673900
104.567000 -72.316400 73.717000
104.524000 -73.141800 74.059500
104.406000 -74.057900 74.398900
103.720000 -72.437500 73.388100
103.835000 -73.248500 73.893500
103.604000 -74.002700 74.908800
103.482000 -75.860800 73.063100
102.889000 -72.664000 72.850600
103.052000 -73.163600 74.075400
102.841000 -73.963100 75.121600
102.875000 -75.279500 74.466200
103.121000 -57.990000 69.717300
102.166000 -72.888800 72.332400
102.277000 -72.869400 74.827700
102.146000 -73.704300 75.766700
102.215000 -74.771700 75.606700
102.240000 -58.410100 69.635100
101.570000 -72.944100 74.522400
101.454000 -73.391000 76.076800
101.506000 -74.442000 76.155300
101.616000 -58.567300 69.899700
101.216000 -60.243900 68.275100
100.787000 -72.830500 75.202800
100.616000 -73.365300 76.337000
100.775000 -74.084700 76.736800
100.586000 -60.128200 69.385200
100.378000 -61.384500 69.314600
100.134000 -63.004800 68.258000
99.872200 -73.020000 75.034200
99.940500 -73.081500 77.012100
100.035000 -73.906000 77.156300
99.777100 -60.175400 69.979000
99.736400 -61.351700 69.552700
99.654100 -62.534600 69.541400
99.582700 -63.877800 68.507100
99.060500 -72.814500 75.064000
99.225400 -72.989100 76.884300
99.302800 -73.726000 77.401000
98.989400 -60.699500 68.817600
99.020900 -61.239500 69.990100
98.976800 -62.237100 70.485300
99.007700 -62.809000 71.690200
98.406000 -72.677100 75.259900
98.433800 -73.096200 76.397000
98.494100 -73.482300 77.744600
98.168300 -62.108200 68.010600
98.189800 -62.472700 70.126600
98.136700 -63.346400 70.845400
97.768200 -72.531600 75.729700
97.773800 -72.737200 77.455400
97.773000 -73.223100 78.435700
97.531000 -62.778200 69.496600
97.400400 -63.678200 70.493000
97.401400 -63.987800 73.040100
97.065400 -65.333300 73.476300
97.033400 -72.630900 77.667500
96.994400 -73.245700 78.251700
96.798000 -64.125100 68.662400
96.666000 -64.396400 73.152100
96.486900 -65.438700 73.855300
96.365400 -66.564600 74.195200
96.067400 -68.141000 73.658600
96.049400 -72.919500 75.172000
96.269100 -72.620300 77.744700
96.291600 -73.113200 78.524500
95.917600 -64.701700 73.139200
95.921300 -65.235500 74.321100
95.840300 -66.347900 74.774500
95.831400 -67.201400 75.747700
95.413200 -68.916000 74.930800
95.445100 -72.798800 77.322500
95.618100 -73.079600 78.524900
95.200800 -65.438400 74.130000
95.102700 -66.345200 74.809500
95.003600 -67.712400 75.019800
94.772600 -69.024800 75.482700
94.377300 -71.212200 73.346900
94.081800 -72.991300 72.109600
94.475700 -72.866500 76.513700
94.772200 -73.162900 78.075600
94.269200 -66.654400 74.456100
94.246100 -67.562600 75.155000
94.142500 -68.826700 75.591000
93.873300 -70.792100 74.475600
93.697200 -72.560100 73.694400
93.776000 -72.671400 76.468300
93.821100 -73.330800 77.492700
93.365500 -67.453500 73.026500
93.454400 -67.846600 74.575300
93.476700 -68.655500 75.555000
93.270200 -70.047400 75.770600
93.233400 -71.654400 75.677100
93.101100 -72.403300 77.123500
93.223700 -72.787100 78.658000
92.801600 -68.222900 73.840800
92.742100 -69.034100 75.153100
92.537200 -70.209800 75.615900
92.537100 -71.111900 76.641200
92.329000 -72.178900 77.287000
92.333100 -73.065000 78.011600
91.990600 -70.073000 76.405700
91.741400 -71.185100 76.900900
91.728300 -71.775800 78.595600
91.582500 -72.830700 78.968900
91.100300 -70.454500 76.383400
91.092300 -70.933000 77.915200
91.021600 -71.869600 78.309400
90.938300 -72.734600 79.002300
90.488600 -74.531000 78.022400
90.239700 -71.218600 77.173200
90.409900 -71.744700 78.531800
90.089100 -73.045500 78.768400
89.803300 -74.698200 78.093700
89.827000 -75.389300 78.562100
89.172000 -71.860300 75.997600
89.473300 -72.182500 77.573100
89.272100 -73.152800 78.173500
89.366600 -73.816900 79.504500
89.181500 -75.334200 78.562400
88.186200 -72.611800 74.523800
88.617200 -72.365600 77.392000
88.717300 -73.009600 78.799600
88.618700 -73.881300 79.154500
87.796200 -72.393300 77.262600
88.010400 -72.878700 78.677000
87.819000 -73.767300 78.765200
86.908000 -72.644900 76.799500
87.173000 -72.713400 78.600700
86.301000 -72.226900 77.747300
86.467700 -72.362000 79.095700
85.441100 -72.383200 77.238500
85.887400 -71.961700 79.900200
85.053600 -71.937600 80.131000
84.162100 -71.706600 79.006300
84.254100 -71.809600 80.526200
83.613300 -71.958800 80.555900
83.127900 -73.307400 79.492900
82.654000 -72.237300 80.164700
82.357700 -73.405500 79.741100
81.811900 -72.145700 80.025900
81.768100 -73.051500 80.485600
81.523000 -74.447100 79.711900
81.076200 -71.465000 79.162900
81.126900 -72.053800 80.034400
81.125300 -72.714100 81.288000
80.790000 -74.489500 79.975600
80.349000 -71.424300 79.205200
80.488300 -71.944600 80.373900
80.423700 -72.642800 81.512200
80.306400 -74.045400 81.061200
80.451100 -74.332800 83.147400
80.387700 -74.854400 84.919600
79.284800 -71.666300 78.273000
79.864700 -71.535000 81.132000
79.863300 -72.385700 82.226900
80.046400 -73.198600 83.127400
80.052200 -73.812800 84.735500
80.048800 -74.457200 86.025300
80.039900 -75.060800 86.813600
78.536000 -71.594600 78.148900
78.895700 -71.608600 80.541700
79.080200 -72.408800 81.810100
79.409500 -73.001900 83.658500
79.383700 -73.766100 85.190300
79.639700 -74.206200 86.848600
79.436500 -74.997700 87.209900
77.705300 -71.680900 77.812600
78.236200 -71.400300 81.265200
78.291300 -72.350200 81.720200
78.611000 -72.927600 83.780500
78.681300 -73.642700 85.478300
78.887600 -74.291200 86.666500
78.649500 -75.085400 87.501400
77.163200 -71.262700 78.682700
77.338800 -71.568700 80.302900
77.717400 -71.966800 82.094100
77.748400 -72.936200 82.786100
77.955100 -73.719600 84.910900
78.127400 -74.291900 86.858200
78.058100 -75.034600 88.047400
77.785100 -76.185000 87.890100
76.528500 -71.088800 79.056200
76.652300 -71.206300 80.851100
76.820300 -72.166200 81.228500
77.308700 -74.647700 86.247800
77.433200 -75.056200 87.967100
77.531800 -75.570900 89.200700
77.350600 -76.378900 89.962100
75.798600 -70.898100 79.347800
75.993500 -70.906400 81.306100
75.994000 -71.801200 81.564200
76.508300 -75.651900 87.068400
76.847400 -75.648900 89.482900
76.850500 -76.183300 90.879700
76.525600 -77.438800 90.185600
75.215300 -70.107900 80.640800
75.354300 -70.854700 81.684300
75.198400 -71.916300 81.516400
76.118800 -75.651400 89.675300
76.160900 -76.354500 90.384000
76.169200 -76.793900 91.690200
73.965300 -68.428200 77.826100
74.443000 -68.729900 80.040300
74.407100 -69.985400 80.245000
74.588300 -70.615500 81.797000
74.453000 -71.898700 81.845700
75.273600 -75.786800 89.869900
75.471700 -76.320900 90.635000
75.515300 -76.653000 92.334400
75.244600 -77.933100 91.615100
73.521200 -67.651800 77.235600
74.056500 -67.487800 79.841200
74.046700 -68.288400 80.370300
73.695700 -69.951800 80.320800
73.867300 -70.567100 82.134600
73.702100 -71.898800 82.053600
73.335800 -73.368300 81.653500
73.118700 -74.370200 81.804400
74.326100 -76.347600 88.973000
74.806400 -76.149900 91.290000
73.250600 -68.033800 78.395700
72.698300 -70.075900 78.281700
72.667900 -70.655800 79.199100
72.988500 -70.787000 81.315200
73.127900 -71.510400 82.701000
72.941900 -72.820200 82.719900
72.710500 -74.035800 82.384200
73.829800 -76.776200 90.190500
72.375500 -70.713900 81.516500
72.384800 -71.367700 82.590300
72.360300 -72.333700 83.349300
72.086500 -73.661400 82.980700
71.779000 -70.602100 82.435500
71.756500 -71.251400 83.495700
71.526100 -72.662900 83.080200
71.246700 -73.588200 83.055700
68.555800 -71.826800 74.654100
70.983400 -70.535900 82.858300
71.041900 -71.154500 83.562100
70.822700 -72.425200 83.246900
70.454200 -73.667000 82.683600
67.338800 -71.155300 71.294900
67.931300 -71.142400 73.794700
68.638600 -70.984000 76.880300
70.018900 -70.521700 82.365100
70.363300 -71.042800 83.674000
70.002600 -72.506900 82.860600
66.863000 -70.657000 71.590000
67.268100 -71.160500 73.204500
68.206000 -70.836400 77.254800
68.996700 -70.556600 81.140300
69.641200 -70.722300 83.661400
69.296300 -72.008300 83.202700
65.880000 -68.488000 70.233200
65.921600 -69.526100 70.462600
66.072300 -70.436700 70.936600
66.127300 -71.617300 71.148900
68.007400 -70.335900 79.412600
68.505300 -70.127900 82.331300
68.739100 -70.881400 83.144200
68.364800 -71.950000 83.166100
65.569700 -67.810400 71.264400
65.649900 -68.812500 71.471200
67.503900 -70.055700 80.505700
67.831200 -70.110700 82.392700
67.891200 -70.876700 83.220300
67.401500 -72.233600 83.019400
65.624500 -65.719300 73.475800
65.068500 -67.068900 72.018900
65.084100 -68.084500 72.025700
67.224400 -70.042100 82.892800
67.105600 -71.005400 83.533900
66.684900 -72.368500 83.073200
66.357600 -73.525500 82.454000
64.267300 -66.402400 71.049200
64.373100 -67.015300 71.574200
66.298900 -70.089300 82.577800
66.352600 -70.703600 83.556600
66.306400 -71.841700 83.841100
65.793400 -73.287300 82.953200
64.266400 -64.840500 72.466300
63.633600 -66.404900 70.731400
65.126900 -69.334900 81.566800
65.433600 -70.039900 82.373000
65.780500 -70.247900 84.249100
65.465900 -71.803000 83.837100
65.161500 -73.102900 83.385300
63.359500 -69.228100 78.163400
65.002100 -68.421600 83.082900
64.726800 -69.743800 82.600300
65.031900 -70.458200 84.129700
64.737500 -71.518500 84.342700
64.400600 -73.041800 83.362800
63.087400 -68.769800 79.052400
63.580300 -69.089400 80.851600
63.934300 -69.653600 82.374300
64.227900 -70.274600 83.993200
64.067400 -71.279500 84.672800
63.843900 -72.512000 84.339500
62.479200 -68.533600 79.428700
62.782400 -69.083300 80.624400
63.122500 -69.681100 82.200700
63.511700 -70.138200 84.570300
63.328800 -71.424900 84.665900
63.052200 -72.560800 84.308100
61.114800 -68.221200 77.324600
61.443100 -68.664700 78.757300
61.989400 -69.156000 80.564200
62.556800 -69.477100 83.122000
62.892900 -69.870200 84.866100
62.839800 -70.788000 85.330600
62.734000 -71.820300 85.722700
63.663800 -71.288700 90.467500
63.899400 -71.674800 91.637800
60.477900 -68.108500 77.225200
60.497900 -68.772000 77.950200
61.226400 -68.908800 80.656500
61.464800 -69.726600 81.791900
62.271500 -69.628100 85.058800
62.077200 -70.853500 85.491700
62.554200 -71.191600 87.986400
63.457500 -70.929700 91.369200
63.732700 -71.183400 92.711300
59.718200 -68.314700 76.611400
59.230900 -69.642800 75.916000
59.924600 -69.685400 78.873700
60.863000 -69.583800 82.259300
61.431100 -69.759700 85.239700
61.535300 -70.728200 86.181000
61.816600 -71.035100 88.123800
62.596000 -71.080300 90.623300
63.110600 -71.095300 93.036700
60.202400 -69.597200 82.794800
60.737100 -69.593800 85.601100
60.978100 -70.320300 86.702400
60.843400 -71.168400 87.526900
62.027700 -70.858400 91.192200
62.709600 -70.836000 93.984800
62.854500 -71.228000 95.460200
62.700600 -71.996500 95.981800
59.876000 -69.810800 85.023000
59.832100 -70.633400 85.873800
59.841100 -71.479500 86.545500
60.142500 -71.950300 87.704800
62.304300 -70.735800 94.710200
62.749700 -70.688900 96.917800
62.622100 -71.385200 97.457000
58.936000 -70.026700 85.081600
59.306300 -70.295000 86.561900
59.193500 -71.244800 86.621700
62.281400 -70.552500 97.616300
62.475900 -70.771900 99.042500
62.031400 -71.959400 98.267100
65.058300 -75.214800 114.063000
58.128000 -69.876200 85.335200
58.297000 -70.566100 85.915900
58.118000 -71.451900 86.047600
61.484300 -70.727400 97.639000
61.849300 -70.811400 98.987900
61.950000 -71.169500 99.988900
64.591700 -74.451200 113.557000
65.057200 -74.476400 115.127000
64.364900 -76.066200 113.866000
57.186300 -69.932400 84.945100
57.523100 -70.381400 85.951800
57.258300 -71.395000 86.092100
61.083800 -70.993500 99.009300
61.597300 -70.709800 101.321000
62.560900 -73.600100 108.280000
63.008800 -73.794200 109.903000
63.714300 -73.878000 112.180000
64.306000 -73.971600 114.124000
64.378400 -74.484100 114.853000
56.365600 -70.017900 84.717600
56.705100 -70.354100 86.128900
56.253100 -71.750700 85.830700
55.485600 -73.457500 84.184000
60.248800 -71.365500 98.462200
61.060400 -70.751600 101.422000
61.372100 -70.782200 103.360000
61.563900 -71.254200 104.984000
61.986700 -71.626600 106.912000
62.329700 -72.324600 108.429000
62.740400 -72.724800 109.997000
63.223400 -72.949400 111.782000
63.529800 -73.399800 113.165000
63.753800 -73.840900 114.264000
63.805800 -74.060200 115.129000
55.852100 -69.645700 85.333000
56.087900 -70.098000 86.507000
55.625900 -71.468900 86.178400
55.080300 -73.092500 85.292300
60.779500 -70.314800 102.832000
61.006500 -70.578200 104.383000
61.300300 -71.072700 105.731000
61.337200 -71.679500 106.574000
61.635900 -72.132400 107.967000
62.011500 -72.545300 109.714000
62.584200 -72.791300 111.595000
62.802200 -73.365700 112.657000
62.962400 -73.880300 113.738000
62.433500 -75.126400 113.131000
55.480300 -63.022500 83.627100
54.933200 -64.870000 82.758100
54.853200 -65.970200 83.102100
55.223500 -66.450500 84.764600
55.104900 -67.759500 85.304600
55.050400 -69.285100 85.268700
55.171100 -70.189500 86.075100
54.964300 -71.241300 86.751700
54.497000 -72.860800 85.922300
53.904300 -74.380000 84.809300
60.282100 -70.007800 103.675000
60.335900 -70.550400 104.291000
60.574300 -71.082500 105.478000
61.173300 -71.268700 107.604000
61.119100 -72.085100 108.382000
61.451500 -72.418100 109.902000
61.729000 -72.937300 110.888000
62.209900 -73.417800 112.486000
62.167400 -74.267300 113.021000
54.877000 -64.034300 83.951100
54.626400 -65.530200 83.915800
54.584200 -66.650700 84.726900
54.400000 -67.758600 85.246900
54.559500 -68.913100 85.934700
54.623400 -69.963900 86.902000
54.553200 -70.875300 87.514900
53.976800 -72.424300 86.735300
53.800400 -73.592300 86.412100
59.440800 -70.026200 103.461000
59.782600 -70.396100 104.406000
59.634600 -71.282700 104.652000
59.949900 -72.063200 105.969000
59.976800 -72.864100 106.781000
60.098700 -73.443500 107.700000
60.343300 -73.873600 108.738000
54.165800 -64.246300 83.800500
54.081300 -65.674500 84.452000
54.037300 -66.607500 85.154800
53.894400 -67.448300 85.716200
53.701800 -68.695000 85.882100
53.662800 -69.989100 86.106900
53.721400 -70.871000 87.286600
53.223300 -72.363400 86.950900
53.225100 -73.264600 87.062800
58.357700 -70.562800 102.152000
59.113200 -70.300400 104.230000
53.383800 -66.614600 85.408500
53.238000 -67.561800 85.847600
52.734300 -68.913200 85.651600
53.067100 -69.735900 86.638000
52.931600 -70.684400 87.373300
52.923800 -71.667200 87.958700
52.627900 -72.830300 87.789300
58.785800 -69.963000 104.617000
51.820800 -67.658900 83.247100
52.177700 -68.008600 85.027600
51.975000 -68.966300 85.752300
52.216700 -69.772000 86.772700
52.426800 -70.593800 88.101000
52.138600 -71.848400 87.946800
51.861500 -72.680600 88.120800
51.193100 -69.149500 85.399400
51.498000 -69.611700 86.957700
51.668700 -70.405500 87.892800
51.559400 -71.448100 88.567300
51.624000 -72.072600 89.282300
50.449000 -70.060200 86.280900
50.840300 -70.482500 87.981800
51.074300 -70.998000 89.453300
50.923600 -71.989100 89.331700
50.091800 -70.451100 88.212800
50.471000 -70.787100 89.538900
50.275900 -71.630100 89.780900
48.836500 -71.123400 87.297200
49.867800 -70.664200 89.937300
49.278600 -71.751300 89.620800
48.936600 -70.899100 89.837500
48.437700 -71.844400 90.004400
47.869600 -71.118900 89.764800
47.689900 -71.946000 90.184100
46.896600 -73.489700 88.984000
46.930700 -71.208000 89.473000
47.045500 -71.749400 90.386100
46.464800 -73.267500 89.597100
46.425400 -73.996900 89.949300
46.490300 -70.772300 90.337800
46.371800 -71.581200 90.739300
46.089000 -72.790500 90.574200
45.721100 -74.032200 90.052500
45.702300 -70.582300 90.485500
45.880800 -71.256600 91.043300
45.439600 -72.461600 90.995500
44.945100 -73.933900 90.537500
45.159100 -70.129500 91.153300
45.044700 -71.267600 90.909300
44.769300 -72.242100 91.313300
44.260800 -73.701600 91.042000
43.750100 -75.032000 90.613400
44.511300 -69.343600 90.841500
44.470700 -70.031900 91.226600
44.585400 -70.871400 91.682600
43.690100 -72.656800 90.903100
43.581000 -73.707700 91.248500
43.265900 -74.804400 91.126600
44.017000 -74.667000 93.162200
43.371700 -70.505300 90.326100
43.437400 -71.218000 91.106700
43.180200 -72.291100 91.594000
42.931600 -73.598300 91.494500
42.494900 -74.906300 90.996700
42.507300 -71.422900 90.745600
42.752800 -71.881600 91.966400
42.315700 -73.097200 92.024300
41.940300 -74.443700 91.564300
41.943700 -72.005000 92.170500
41.681500 -72.944400 92.428000
41.314900 -74.000300 92.375300
40.858800 -72.283500 91.812100
40.999400 -72.820400 92.748900
40.274400 -74.323100 92.107800
41.052500 -74.177800 94.025300
40.269400 -72.010400 92.321700
40.101100 -72.709500 92.842600
39.878300 -73.893200 92.687800
39.309400 -75.152500 92.207200
39.290500 -71.880700 92.243700
39.616000 -72.408600 93.308000
38.989300 -73.889800 92.676800
38.550700 -75.096500 92.335600
38.170400 -69.790300 90.803700
38.275500 -70.876300 91.331900
38.645300 -71.516500 92.539700
38.668800 -72.573100 92.888100
38.310300 -73.575700 93.187600
37.870800 -74.897400 92.565000
38.189400 -68.402200 91.476000
37.928000 -69.241100 91.496700
37.927200 -70.235400 91.752200
37.781400 -71.308100 92.117000
37.894800 -72.296100 93.188200
37.580000 -73.526300 93.269400
37.289000 -74.509800 93.177400
37.372600 -68.418600 91.199300
37.341100 -68.981000 91.901600
37.214300 -70.184800 91.818500
37.273900 -71.063100 92.856300
37.182900 -72.018800 93.638300
36.997200 -73.277200 93.635600
36.489500 -74.447500 93.253300
36.867500 -68.104100 91.735900
36.537300 -69.017000 91.681100
36.639900 -69.888700 92.521900
36.465200 -71.138300 93.035000
36.837900 -71.618200 94.303100
36.505300 -72.718200 94.260900
35.848000 -74.142900 93.648800
35.422600 -68.802300 90.153400
35.760400 -69.212900 91.356500
35.289200 -70.424300 91.610200
35.532200 -71.101900 92.751000
36.107400 -71.620000 94.264100
35.674700 -72.777500 94.451700
35.208000 -73.945600 94.031400
34.489200 -71.264200 92.517200
35.125900 -71.670300 94.199800
35.149700 -72.434000 95.078600
34.443400 -73.862700 94.089300
33.752600 -71.199500 92.844800
34.146100 -71.572700 94.086500
34.565800 -72.140100 95.191300
33.742200 -73.545700 94.380200
33.347700 -70.800000 93.705900
33.410300 -71.464600 94.390300
33.532500 -72.298200 94.835000
33.064000 -73.211300 94.878500
32.502500 -70.731900 93.652300
32.839100 -71.108800 94.685600
32.757500 -72.078500 95.105800
32.091000 -73.256900 94.798900
31.816400 -70.603000 93.989300
32.274700 -71.035300 95.145600
31.791000 -72.163800 95.154100
31.464400 -73.140400 95.036100
30.985700 -70.417200 94.218300
31.526200 -70.847700 95.419300
31.121300 -71.901100 95.497700
30.998500 -72.804900 95.541200
30.261000 -70.205800 94.444800
30.775800 -70.562100 95.425500
30.747900 -71.329100 96.020900
30.087500 -72.616500 95.548000
29.383600 -70.192600 94.419200
30.142000 -70.424600 95.743800
29.721900 -71.487600 95.811900
29.128500 -72.549400 95.608400
28.523100 -70.097000 94.436800
29.255600 -70.414600 95.759100
28.598800 -71.668600 95.470600
28.147100 -72.612900 95.459200
27.907700 -69.880800 94.753000
27.992800 -70.590900 95.297500
27.950900 -71.521900 95.783100
27.027500 -72.753100 95.024700
27.302900 -69.653800 95.143800
27.451900 -70.219700 95.824800
27.101900 -71.341500 95.780800
26.183700 -72.700500 95.102700
26.361300 -69.658600 94.969100
26.732500 -70.042200 96.090200
25.948600 -71.566800 95.500600
25.551500 -72.540600 95.392700
26.339900 -68.913000 96.224300
26.054600 -69.631800 96.470600
25.558000 -70.929100 96.161200
24.933600 -72.226000 95.672300
25.286300 -68.828000 96.045700
24.972000 -69.814400 96.177400
24.447200 -71.231000 95.709200
23.327500 -72.701100 94.444200
23.770200 -68.461400 94.506800
24.254000 -68.747800 95.776800
24.770300 -69.106300 97.191700
23.955600 -70.679400 96.269700
23.297600 -67.952500 95.142500
23.802200 -68.346500 96.483700
24.048100 -69.124000 97.266800
23.036100 -70.411900 96.369700
23.122300 -66.426400 95.885500
22.742300 -67.617100 95.634200
23.212600 -68.081200 96.808100
23.054900 -69.047200 97.081300
22.375900 -70.149100 96.799800
22.643700 -65.814600 96.347700
22.229600 -66.951100 96.146400
22.313900 -68.058900 96.716900
21.658000 -69.434700 96.409300
21.346300 -70.302100 96.415800
20.720900 -65.794400 94.155400
21.751500 -65.754500 96.149100
22.202700 -66.208300 97.390200
21.906100 -67.356500 97.386700
21.230700 -68.799200 96.947900
20.742300 -69.991200 96.612900
21.092100 -64.829900 95.990600
21.429900 -65.425600 96.959300
21.722200 -66.143100 97.854300
20.935500 -67.494900 97.316400
20.447300 -68.607800 97.103500
19.111400 -64.980300 93.625400
20.244300 -64.810100 95.863000
20.457000 -65.358300 96.585200
21.107400 -65.851900 98.159000
20.133300 -67.359700 97.418000
19.492200 -68.470000 96.918600
20.777800 -64.793800 98.224400
20.120100 -66.053900 97.907300
19.212700 -67.378000 97.034000
19.847200 -65.765900 98.317500
188.283000 -73.225700 49.123500
188.163000 -74.036000 49.473000
187.402000 -73.986600 49.651400
187.421000 -74.920500 49.660300
186.680000 -73.105300 48.943900
186.575000 -74.027800 49.562500
186.182000 -74.715900 50.704000
186.026000 -73.178700 48.419900
185.824000 -74.049300 49.080600
185.306000 -74.903100 50.416500
185.042000 -73.154800 48.790400
184.764000 -74.225000 49.379400
184.159000 -75.055500 50.908200
184.146000 -75.931600 51.245700
184.418000 -74.784000 47.841500
183.540000 -75.235200 50.303800
183.156000 -76.057200 51.458600
183.545000 -74.953600 47.641300
182.838000 -75.400000 49.742200
182.474000 -76.212100 51.022500
182.318000 -77.414400 51.078300
182.502000 -75.864100 48.637200
181.597000 -76.369400 50.940600
180.800000 -77.295400 52.380400
181.944000 -76.048200 48.412200
180.147000 -76.456300 51.950400
179.985000 -77.540000 52.169100
180.694000 -79.154900 50.603700
179.567000 -75.785200 51.040400
179.239000 -76.431400 52.127700
178.914000 -77.293400 52.852100
178.964000 -78.424500 52.914100
178.250000 -76.452500 52.415300
177.994000 -77.344700 53.223800
177.479000 -78.166600 54.339700
177.655000 -76.870300 51.398600
177.060000 -77.428500 53.245400
176.347000 -78.094600 55.000500
177.252000 -79.721800 53.142700
176.191000 -77.384600 53.247900
175.629000 -78.145800 54.661000
175.006000 -79.116200 56.059200
174.857000 -77.389300 54.179400
174.601000 -78.430400 54.946100
174.015000 -79.239100 56.658100
174.649000 -81.029200 54.814700
174.386000 -77.657800 53.206500
173.940000 -78.422800 54.472500
173.300000 -79.256700 56.452300
173.307000 -80.433000 56.778300
173.006000 -81.334800 57.446100
174.074000 -78.837200 52.414300
172.231000 -79.229500 56.704900
172.309000 -80.427500 57.146500
172.018000 -81.218000 58.086800
171.828000 -78.724300 55.376400
171.532000 -79.464900 56.236000
171.243000 -80.266700 57.432200
171.338000 -81.391000 57.672500
167.497000 -98.037300 73.978500
167.133000 -98.394500 75.193500
167.049000 -99.438500 75.247000
171.286000 -79.793400 55.182500
170.414000 -80.187400 57.550600
170.006000 -81.177800 58.513000
166.544000 -97.715200 74.547700
166.476000 -98.764500 74.523300
169.083000 -80.319100 58.653400
168.941000 -81.320600 58.952100
169.361000 -82.693500 57.846900
165.824000 -97.920200 74.068300
165.698000 -99.070700 74.100900
168.366000 -80.640600 58.274700
168.168000 -81.279800 59.128700
167.737000 -81.920600 60.347200
165.190000 -98.387800 72.943800
167.091000 -81.276900 59.739200
167.128000 -82.558300 59.412000
167.613000 -83.735500 58.631700
165.944000 -81.256700 60.269600
166.005000 -82.137500 60.542000
165.522000 -82.970700 61.623400
163.988000 -93.773200 68.323400
165.477000 -81.854400 59.010200
164.906000 -82.036600 61.292300
164.576000 -83.019100 62.147500
165.139000 -84.731400 60.391100
162.351000 -91.013000 71.203200
163.054000 -93.107100 69.245800
163.123000 -94.371900 69.780700
162.845000 -95.410300 71.048900
162.745000 -96.530700 71.876100
164.108000 -82.163300 61.058600
163.925000 -82.957900 62.008600
163.546000 -83.859100 62.951600
162.022000 -91.491100 70.128500
162.191000 -92.660200 69.968200
162.240000 -94.045800 70.171500
162.052000 -95.188700 71.129600
162.027000 -96.611700 71.519000
163.618000 -82.739400 59.770600
162.988000 -82.963400 62.141900
162.520000 -83.952200 63.308800
162.853000 -85.222000 62.723000
161.187000 -91.378300 70.002400
161.368000 -92.575700 70.120300
161.535000 -94.137800 69.782400
161.245000 -95.018700 71.101400
161.173000 -96.709700 71.188000
162.303000 -82.101700 61.797900
161.992000 -83.109600 62.397300
161.693000 -84.072900 63.368800
161.596000 -84.693100 64.367400
160.359000 -91.059800 70.065300
160.372000 -92.055600 70.372600
160.508000 -93.632800 70.465400
160.641000 -95.532500 70.053900
160.557000 -97.024000 70.515300
160.485000 -98.135200 71.656400
161.742000 -82.477400 61.156700
