# .PCD v0.7 - Point Cloud Data file format
VERSION 0.7
FIELDS x y z
SIZE 4 4 4
TYPE F F F
COUNT 1 1 1
WIDTH 1444
HEIGHT 1
VIEWPOINT 0 0 0 1 0 0 0
POINTS 1444
DATA ascii
67.963300 -22.012600 188.739000
67.694900 -22.928200 189.734000
66.958000 -23.590500 191.460000
67.723500 -25.491400 190.612000
67.872700 -26.688100 190.976000
68.482000 -28.262400 190.517000
66.494500 -21.258400 190.089000
66.557400 -22.705500 190.312000
66.129600 -23.569200 191.434000
66.704300 -25.263500 191.035000
67.086300 -26.600000 190.950000
67.262200 -27.779800 190.934000
65.552300 -20.224200 189.957000
65.971300 -21.780600 189.546000
65.827800 -22.802100 190.080000
65.117100 -23.192800 191.950000
65.634000 -24.976000 191.431000
66.291100 -26.774000 190.847000
66.676500 -28.227500 190.246000
64.906700 -20.236600 189.891000
65.255300 -21.788500 189.325000
64.973800 -22.779600 190.238000
64.502000 -23.590200 191.656000
64.881200 -25.225700 191.384000
65.273500 -26.486400 191.259000
65.461700 -27.889300 191.058000
64.895000 -21.263200 188.385000
64.592100 -22.225000 189.188000
64.193200 -22.931000 190.367000
63.563900 -23.474200 191.857000
64.188800 -25.223100 191.169000
64.442700 -26.632800 191.306000
64.804100 -28.313200 190.657000
64.924700 -29.163800 190.822000
63.353800 -22.996700 190.398000
62.839700 -23.593400 191.737000
63.391700 -25.215300 191.131000
63.619800 -26.399700 191.368000
63.908400 -27.983700 191.016000
64.223000 -29.434000 190.609000
62.475400 -23.023200 190.466000
62.132800 -23.524100 191.539000
62.478800 -25.055800 191.321000
62.905800 -26.757400 191.097000
63.440200 -28.787100 190.246000
63.455100 -29.862800 190.437000
61.593400 -23.012400 190.630000
61.108000 -23.195200 192.187000
61.619200 -24.815300 191.367000
61.841200 -26.441300 191.341000
62.313800 -28.283900 190.927000
62.808700 -30.013900 190.277000
63.638100 -31.910000 188.653000
60.982600 -23.192400 190.240000
60.512300 -23.496700 191.752000
61.067800 -25.432900 190.930000
61.115900 -26.598600 191.236000
61.121800 -27.707000 191.639000
61.923500 -29.839100 190.408000
62.447600 -31.285600 189.782000
60.232400 -23.188000 190.245000
59.687500 -23.595500 191.541000
60.063000 -24.896100 191.487000
60.355300 -26.614600 191.230000
60.446800 -27.821400 191.534000
60.755600 -29.233600 191.228000
61.470200 -31.180800 189.884000
59.449000 -23.201200 190.075000
58.675200 -23.311200 191.960000
59.483700 -25.372800 190.869000
59.457700 -26.676000 191.356000
59.825400 -27.990800 191.371000
60.060400 -29.563300 191.015000
60.632100 -31.424800 189.715000
58.947700 -22.796800 188.256000
58.231300 -22.575400 190.825000
57.627800 -22.906800 192.443000
58.854600 -25.475600 190.529000
58.607100 -26.455800 191.401000
59.067900 -28.272400 191.103000
59.473900 -30.056200 190.498000
59.852200 -31.387500 189.892000
57.942000 -22.304700 189.448000
57.175000 -22.153400 191.779000
56.854500 -23.005000 192.587000
57.628500 -25.039700 191.481000
57.778800 -26.596700 191.427000
58.123000 -28.032000 191.249000
58.533400 -29.663100 190.822000
59.032500 -31.176500 190.125000
56.324800 -22.174800 191.982000
55.849000 -22.728600 193.298000
56.691700 -24.811100 191.764000
56.985500 -26.369300 191.563000
57.126300 -27.748900 191.758000
57.707200 -29.464900 190.955000
57.882700 -30.681600 190.822000
55.511800 -22.218100 191.929000
55.217400 -22.734700 192.951000
55.704200 -24.436500 192.292000
56.350300 -26.328300 191.263000
56.196200 -27.518900 191.930000
56.895000 -29.578500 190.975000
57.325900 -31.117200 190.190000
54.654300 -22.243300 192.111000
54.331800 -22.528100 193.409000
54.929000 -24.316100 192.225000
55.345600 -26.111400 191.789000
55.249900 -27.515700 192.129000
55.713900 -29.067700 191.812000
56.354100 -30.722900 190.857000
54.090500 -22.678200 191.337000
53.764500 -22.896900 192.999000
54.341900 -24.922200 191.932000
54.707800 -26.583500 191.469000
54.401200 -27.417200 192.313000
54.930200 -29.140000 191.620000
55.383000 -30.488300 191.212000
53.615300 -22.980600 190.684000
52.908200 -22.737000 193.097000
53.515900 -24.684800 191.886000
53.899000 -26.493800 191.488000
53.800500 -27.496000 192.080000
53.877000 -28.645400 192.317000
54.070900 -30.076800 192.220000
52.231900 -22.770100 193.018000
52.726300 -24.526500 191.789000
52.815400 -25.848300 192.104000
53.102100 -27.625800 191.887000
53.448000 -29.538000 191.444000
53.726300 -31.067800 191.044000
54.201800 -32.425800 190.205000
51.436900 -23.116200 192.794000
52.081100 -25.037700 191.520000
52.215000 -26.444600 191.689000
52.282000 -27.614900 191.953000
52.358800 -28.935300 192.116000
52.877800 -30.804700 191.410000
53.425000 -32.349000 190.505000
51.335600 -23.284600 190.521000
50.753000 -23.209400 192.486000
51.214100 -24.625100 191.822000
51.268900 -25.848900 192.107000
51.404400 -27.434700 192.214000
51.378200 -28.703600 192.701000
52.010100 -30.626400 191.537000
52.508600 -32.095400 190.891000
49.992600 -23.014600 192.792000
50.385700 -24.666100 191.927000
50.753800 -26.385800 191.564000
50.632300 -27.582500 191.940000
50.842600 -28.743900 192.247000
51.006000 -30.166700 192.176000
51.837500 -32.483300 190.198000
49.135100 -23.142900 192.655000
49.582300 -24.875000 191.852000
49.988000 -26.347700 191.559000
49.761600 -27.469200 192.133000
50.071700 -28.973400 192.214000
50.605200 -31.028200 191.175000
51.100600 -32.662000 190.097000
48.780500 -22.845700 191.123000
48.093600 -22.651800 193.304000
48.604500 -24.401500 192.460000
49.176100 -26.385500 191.582000
48.952200 -27.194500 192.595000
49.222900 -28.850100 192.077000
49.720800 -30.636500 191.581000
50.575100 -32.819000 189.758000
47.814200 -22.281400 192.158000
47.337900 -22.374800 193.741000
47.755200 -24.180900 192.583000
48.328800 -26.225900 191.663000
48.546800 -27.626600 191.806000
48.401500 -28.911100 192.071000
48.559300 -30.050300 192.276000
49.997800 -32.694500 189.796000
46.903700 -22.845500 193.138000
46.914400 -24.214700 192.735000
47.440400 -26.064600 191.806000
47.667300 -27.584400 192.001000
47.462900 -28.448200 192.980000
47.606600 -29.769800 192.772000
48.335200 -31.817500 191.013000
46.185100 -23.326400 192.634000
46.191300 -24.145300 192.921000
46.458100 -25.557200 192.474000
46.691700 -27.245400 192.314000
47.066700 -28.845400 192.158000
46.801100 -29.671600 192.977000
47.327300 -31.499600 191.662000
45.112600 -22.982700 193.355000
45.629200 -24.459000 192.534000
45.943500 -26.279300 191.821000
45.869200 -27.366400 192.485000
46.046600 -28.395800 193.010000
46.074200 -29.762000 193.007000
46.625400 -31.879700 191.242000
44.269000 -22.765000 193.500000
44.681000 -24.089800 192.992000
45.275300 -26.034600 191.692000
45.128700 -27.158800 192.342000
45.365800 -28.583400 192.695000
45.331200 -29.974500 192.774000
45.929600 -31.905400 191.282000
43.421900 -22.569300 193.730000
43.874500 -23.834100 193.246000
44.340500 -25.717100 192.229000
44.290300 -27.037300 192.476000
44.520900 -28.560700 192.560000
44.487200 -29.933900 192.811000
45.199200 -31.780600 191.416000
42.950300 -22.032700 192.784000
42.666900 -22.369300 193.984000
43.289200 -24.236200 192.757000
43.683500 -26.088800 192.041000
43.631200 -27.386500 192.299000
43.678700 -28.745600 192.763000
43.536500 -29.643500 193.550000
44.165200 -31.306900 192.297000
42.203600 -22.592600 193.487000
42.178200 -23.659500 193.688000
42.944200 -26.019800 192.005000
42.474600 -26.698200 193.471000
42.746400 -28.028000 193.493000
42.776700 -29.431900 193.613000
43.135300 -31.053600 192.955000
41.411800 -22.783100 193.457000
41.454000 -23.899000 193.499000
41.885100 -25.636200 192.784000
41.964900 -27.153900 192.709000
41.959600 -28.062900 193.627000
42.142100 -29.598600 193.364000
41.959600 -30.334200 194.303000
42.240800 -31.601000 193.968000
40.573900 -22.789600 193.550000
40.740400 -23.629200 193.736000
41.022300 -25.373300 192.943000
41.152900 -26.521400 193.361000
41.321100 -28.059800 193.089000
41.232800 -29.165800 193.991000
40.967100 -30.146800 194.972000
41.236900 -31.120500 195.041000
39.799500 -22.749600 193.574000
40.007000 -23.771000 193.663000
40.346900 -25.752200 192.621000
40.519500 -26.772200 193.110000
40.556500 -28.221200 193.226000
40.269100 -29.152600 194.456000
40.036100 -29.892100 195.795000
40.179200 -30.824600 196.005000
38.994800 -22.551800 193.837000
39.215600 -23.508300 193.853000
39.420000 -25.188100 193.233000
39.778300 -27.016000 192.927000
39.851600 -28.397500 193.229000
39.391600 -28.856700 194.730000
39.514800 -30.108100 195.147000
39.397800 -30.835000 196.219000
39.836000 -32.615100 194.909000
36.676300 -16.122800 199.083000
38.305700 -22.451900 194.030000
38.377400 -23.422700 194.114000
38.769700 -25.321300 192.982000
38.764400 -26.485200 193.421000
39.116700 -28.216300 193.197000
38.642200 -28.625200 194.881000
38.751500 -30.022200 195.015000
38.721000 -30.788000 196.161000
38.719800 -32.022400 196.207000
35.969800 -15.114200 199.219000
35.857700 -15.807300 199.789000
37.778600 -22.637600 193.529000
37.453800 -23.028400 194.663000
37.970300 -25.077200 193.341000
37.956000 -26.415100 193.537000
38.130800 -27.922200 193.681000
38.045700 -28.880000 194.779000
37.975400 -29.994500 195.148000
37.917800 -30.923800 196.226000
37.964300 -32.051500 196.560000
37.526900 -31.920800 198.386000
35.829800 -15.366900 197.116000
35.236500 -15.231500 199.426000
35.151500 -15.956800 199.760000
36.617900 -21.460600 193.520000
36.897200 -22.383100 193.828000
36.822100 -23.345200 194.358000
37.394000 -25.595700 192.834000
37.372400 -26.918400 193.029000
37.414600 -28.033900 193.539000
37.296300 -28.885500 194.628000
37.038100 -29.676500 196.182000
36.839100 -30.382500 197.501000
36.989500 -31.270000 197.964000
36.494400 -30.992400 200.032000
34.356500 -15.230900 199.960000
34.469300 -16.345200 199.534000
35.534100 -20.305500 195.427000
36.191000 -22.388000 193.634000
36.018300 -23.067900 194.741000
36.604700 -25.505400 192.785000
36.596400 -26.642100 193.335000
36.602700 -27.832100 193.809000
36.485800 -28.675700 194.876000
36.492700 -29.739100 195.371000
36.300500 -30.636400 196.527000
36.040500 -30.789900 198.611000
33.993000 -16.086100 198.524000
33.900300 -16.832400 198.967000
34.561000 -19.153300 196.837000
35.409000 -21.899000 194.086000
35.412800 -23.238800 194.288000
35.800000 -25.288900 193.074000
35.970200 -26.698500 193.018000
35.936800 -28.044200 193.217000
35.837100 -28.938900 194.463000
35.768500 -29.861000 195.574000
35.654900 -30.881400 196.049000
35.279700 -30.747200 198.435000
34.749200 -30.092100 201.264000
33.599600 -16.671700 197.560000
33.439600 -16.986800 198.569000
33.598100 -18.529400 197.771000
34.630800 -21.751700 194.619000
34.373900 -22.626900 195.383000
35.078400 -25.374100 193.012000
35.341500 -27.064400 192.728000
35.074500 -27.856100 193.889000
34.996400 -28.691200 194.925000
35.067500 -30.000400 195.172000
34.940000 -30.719800 196.653000
34.669500 -30.669200 198.717000
33.044100 -17.756100 197.530000
32.869400 -18.759000 197.969000
33.488800 -21.057500 196.010000
33.765100 -23.097300 195.040000
34.298900 -25.488500 193.074000
34.607200 -26.927600 192.827000
34.288700 -27.575900 194.028000
34.383900 -28.886600 194.419000
34.342500 -30.191900 194.597000
34.510900 -31.171700 195.025000
34.125500 -30.574100 198.914000
32.163900 -18.677400 198.218000
32.334600 -20.087800 197.763000
32.948600 -22.607200 195.546000
33.500300 -25.104300 193.503000
33.826500 -26.836500 192.935000
33.567800 -27.736100 194.087000
33.820300 -29.401600 193.786000
33.507400 -29.859700 195.072000
33.667100 -31.015800 195.004000
31.356200 -18.575800 198.669000
31.415000 -19.597600 198.586000
32.011600 -21.978300 196.579000
32.677700 -24.612700 194.173000
32.934500 -26.640100 193.276000
32.950900 -27.871400 193.635000
32.985100 -29.000700 194.151000
32.892400 -30.203800 194.609000
32.956800 -31.106600 194.949000
30.635400 -18.706000 198.701000
30.488100 -19.090100 199.726000
30.934400 -20.622600 198.477000
32.047600 -25.176400 193.785000
32.303200 -26.853500 192.899000
32.286800 -27.814500 193.552000
32.106100 -28.785900 194.605000
31.983100 -29.704900 195.293000
32.171500 -30.992900 195.008000
30.012900 -19.024000 198.088000
29.849600 -19.150300 199.600000
30.149100 -20.368300 198.932000
31.198000 -25.311500 194.007000
31.611400 -26.775800 193.120000
31.481200 -27.817100 193.749000
31.383200 -28.921200 194.481000
31.429100 -30.104500 194.785000
31.401100 -31.159400 194.864000
29.708300 -19.858900 196.520000
29.273400 -19.477000 199.074000
29.261500 -20.170300 199.553000
30.527000 -25.346900 194.128000
30.811800 -26.683300 193.459000
30.617500 -27.784700 194.085000
30.672800 -29.107400 194.621000
30.799800 -30.421700 194.579000
30.593200 -31.329700 195.045000
28.869400 -20.078700 198.159000
28.685600 -20.582500 199.041000
28.896200 -21.962600 198.091000
30.092500 -26.870400 193.404000
29.776900 -27.656600 194.182000
29.882100 -28.854900 194.610000
30.106400 -30.535100 194.436000
30.032700 -31.623600 194.836000
29.881800 -32.664500 195.424000
29.286400 -32.266100 198.464000
28.026200 -20.534300 199.445000
28.117000 -21.805900 198.633000
29.221900 -26.972700 193.496000
29.119500 -27.644100 194.161000
29.092800 -28.666100 194.634000
29.215800 -29.987000 195.027000
29.387700 -31.759700 194.705000
29.431000 -33.357200 194.398000
28.981400 -32.707700 197.808000
29.212000 -34.631600 196.302000
27.590600 -21.991200 194.881000
27.475300 -21.156300 198.518000
27.445300 -22.172800 198.119000
28.528800 -27.106500 193.264000
28.406900 -27.664600 194.195000
28.318900 -28.627500 195.012000
28.446800 -29.593600 195.455000
28.548000 -31.183000 195.159000
28.831600 -33.639800 193.828000
28.494300 -33.217600 196.962000
28.544300 -34.768300 196.228000
27.077900 -21.875600 194.876000
26.859800 -21.680200 197.312000
26.875100 -22.501100 197.482000
27.735700 -26.911200 193.657000
27.710200 -27.595800 194.216000
27.653900 -28.647000 194.698000
27.791900 -29.823800 195.327000
27.809400 -31.631000 194.910000
28.211300 -34.232500 192.981000
28.137700 -34.713400 194.627000
27.922600 -35.112200 195.997000
26.594000 -22.109700 194.301000
26.390400 -22.239300 195.912000
26.095200 -22.443000 197.809000
26.790900 -26.363200 194.510000
27.100400 -27.786300 193.944000
26.764500 -28.332600 195.332000
27.082500 -30.143500 194.847000
27.121300 -31.468300 194.953000
27.564600 -34.030300 192.814000
27.785300 -35.777900 192.077000
27.149400 -35.142800 196.307000
25.888000 -22.157200 194.482000
25.645100 -22.316400 196.321000
25.489000 -22.826500 197.591000
25.830200 -25.215700 195.702000
26.180300 -27.326100 194.820000
26.195300 -28.560500 194.931000
26.204800 -29.569700 195.403000
26.421600 -31.191600 194.991000
27.300700 -35.404000 191.194000
27.572400 -37.215900 189.766000
26.443200 -35.445000 196.303000
26.621100 -37.053900 195.032000
25.276400 -22.422800 194.038000
25.064100 -22.567200 195.663000
24.909000 -23.162200 197.111000
25.052000 -25.173900 196.056000
25.337900 -26.971400 195.249000
25.483000 -28.434500 195.340000
25.608800 -30.132000 194.838000
25.664000 -31.193600 194.817000
26.912000 -35.965000 190.470000
25.817500 -35.675000 196.093000
25.938700 -37.338700 194.681000
24.542900 -42.421000 206.496000
24.224100 -41.894600 209.032000
24.330000 -43.029700 209.024000
24.259500 -21.936900 196.840000
24.341200 -23.419900 196.109000
24.162000 -24.315800 197.253000
24.608200 -26.915100 195.193000
24.702200 -28.308000 195.361000
24.819900 -29.534100 195.548000
24.882400 -30.897900 195.126000
25.159800 -35.933500 195.783000
25.273900 -37.672900 194.194000
24.013100 -41.572200 205.776000
23.945500 -41.942500 207.164000
23.789400 -42.168400 208.689000
23.809100 -42.922900 209.120000
23.700500 -22.697200 195.885000
23.497500 -23.545700 196.554000
23.484200 -24.609500 197.098000
23.828900 -26.380100 195.975000
23.868200 -27.964500 195.742000
24.069600 -29.580600 195.477000
24.161600 -30.940700 195.024000
24.542400 -36.391400 195.008000
24.525400 -37.757400 194.130000
23.701600 -42.019300 202.969000
23.441100 -41.594000 205.676000
23.387500 -42.094300 207.123000
23.252000 -42.149200 208.817000
23.387600 -43.470400 208.249000
22.908300 -22.902900 195.776000
22.882600 -23.898400 195.845000
22.749600 -24.310800 197.508000
23.184800 -26.812600 195.601000
23.170000 -27.960400 195.902000
23.233700 -29.151400 195.954000
23.265800 -30.275200 196.062000
23.935700 -37.024800 194.040000
23.689800 -37.733600 194.489000
23.070200 -40.623800 199.956000
23.162900 -41.350000 201.291000
23.059800 -41.340800 203.710000
22.867300 -41.443600 205.869000
22.900000 -42.265000 206.440000
22.952900 -43.081000 207.119000
21.976400 -22.236800 196.745000
22.256200 -23.659200 195.951000
22.061900 -24.307400 197.156000
22.289100 -26.221600 196.480000
22.601900 -28.414500 195.348000
22.643600 -29.647600 195.510000
22.523300 -30.515900 195.774000
23.190100 -37.109800 194.037000
22.921900 -37.582800 194.945000
23.038400 -38.936600 194.733000
22.706300 -39.184600 196.916000
22.542400 -39.638800 199.027000
22.611300 -40.575500 199.895000
22.641400 -40.896900 201.614000
22.843500 -42.288600 201.433000
22.529800 -42.622200 205.945000
21.221100 -22.053100 196.803000
21.447200 -23.494400 196.345000
21.429800 -24.477200 196.988000
21.341100 -25.434400 197.756000
21.720600 -27.937300 196.008000
21.915300 -29.732400 195.440000
21.859200 -30.637100 195.713000
22.499000 -37.298500 193.605000
22.069700 -36.843400 196.007000
22.119200 -37.860900 196.710000
21.953200 -38.642900 198.203000
22.026000 -39.554100 199.143000
22.114700 -40.725900 198.845000
20.776300 -22.043000 194.638000
20.645600 -22.172100 196.535000
20.730300 -23.688400 196.086000
20.794200 -24.690500 196.794000
20.583500 -25.367100 198.184000
20.907200 -27.646700 196.463000
21.057800 -29.313200 196.101000
21.161200 -30.800700 195.780000
21.280700 -34.438700 193.045000
21.526300 -36.317400 194.772000
21.293900 -36.616600 196.620000
21.356700 -37.580000 197.592000
21.301400 -38.666400 197.776000
21.428000 -39.565000 198.441000
20.251100 -22.050400 194.411000
19.979200 -21.812500 196.714000
19.994000 -23.052000 196.746000
20.097700 -24.778500 196.256000
19.965700 -24.982100 198.415000
20.042200 -26.953600 197.462000
20.196000 -28.678100 197.119000
20.373800 -30.684000 196.202000
20.630300 -33.267200 194.493000
20.781000 -34.985600 194.270000
20.676100 -35.696900 195.558000
20.538100 -36.731600 196.331000
20.661100 -37.503700 197.483000
20.765500 -39.241700 196.728000
19.597000 -21.529600 195.549000
19.225800 -21.790200 197.319000
19.457300 -23.694400 196.279000
19.472500 -24.898700 196.230000
19.314400 -25.271500 197.898000
19.204100 -26.656500 198.124000
19.508600 -28.458700 197.228000
19.468100 -29.835300 197.395000
19.816300 -32.558100 195.455000
20.000800 -34.295700 195.288000
20.033500 -35.808900 195.403000
20.076900 -37.631300 194.746000
19.963900 -37.873500 196.834000
20.182000 -40.058700 195.189000
17.482000 -16.460100 202.431000
17.668900 -17.899300 202.104000
18.047500 -20.079700 200.340000
18.248100 -21.842500 199.365000
18.686100 -24.217000 197.551000
18.461600 -25.154900 198.574000
18.426400 -25.937600 199.561000
18.689900 -28.018100 198.164000
18.627000 -29.372400 198.283000
19.003700 -32.083300 195.962000
19.126100 -33.521700 196.012000
19.444900 -35.689400 194.899000
19.369800 -38.319500 196.145000
19.366200 -39.541800 195.871000
16.876500 -14.021300 201.804000
16.764300 -14.307200 203.829000
16.934600 -15.890100 203.217000
17.089300 -17.358500 202.754000
17.378500 -19.280600 201.334000
17.539400 -21.249000 199.969000
17.777000 -23.841400 198.156000
17.758400 -25.199300 198.533000
17.838100 -26.242600 199.166000
18.020500 -28.658200 197.632000
18.099900 -30.305800 197.337000
18.345400 -32.453400 195.983000
18.455800 -33.348400 196.475000
18.766900 -39.014800 195.486000
18.691400 -39.925600 195.438000
16.663800 -37.285600 213.608000
16.644000 -37.934400 214.433000
16.594900 -38.844200 215.319000
16.632000 -39.935300 215.859000
16.535200 -40.343500 217.119000
16.462000 -41.299200 217.761000
15.889900 -10.183900 204.526000
16.059500 -11.683200 204.306000
16.223400 -12.927000 204.129000
16.214100 -13.779200 204.328000
16.320600 -14.998900 204.191000
16.530900 -17.159000 202.891000
16.789400 -19.397700 201.099000
16.944100 -21.900800 199.145000
17.047800 -24.216500 197.426000
17.138200 -25.272600 198.097000
17.137300 -25.916300 199.346000
17.141300 -27.679500 198.848000
17.270000 -29.482700 198.411000
17.471600 -31.572700 197.214000
17.696600 -33.187700 196.421000
18.262300 -39.534700 194.778000
18.043500 -39.192000 196.654000
16.757600 -37.590800 204.143000
16.749300 -38.083500 204.925000
16.314100 -37.348000 209.576000
16.161800 -36.572600 212.945000
16.234400 -37.195400 213.872000
16.144900 -37.831500 214.803000
15.964600 -38.030600 216.441000
15.953600 -38.804500 217.501000
15.935500 -39.579000 218.501000
15.371800 -10.658500 205.639000
15.667700 -12.487900 204.622000
15.756900 -13.673400 204.268000
16.233000 -17.556200 200.926000
16.272600 -18.661200 200.710000
16.364400 -20.950000 198.819000
16.387000 -22.961800 197.500000
16.559900 -24.746400 196.413000
16.468000 -25.469800 197.452000
16.469700 -26.294700 198.817000
16.368600 -27.523100 199.256000
16.451300 -28.848800 199.294000
16.598100 -30.664900 198.643000
16.784900 -32.641100 197.377000
16.161200 -34.711200 201.859000
16.149500 -35.321600 203.017000
16.102700 -35.870600 204.777000
16.119500 -36.276200 206.527000
15.969300 -36.699900 208.326000
15.867300 -37.194800 209.392000
15.737600 -37.173600 211.612000
15.698200 -37.581900 213.322000
15.481400 -37.686500 215.334000
15.337500 -37.923600 217.030000
15.272000 -38.732900 217.817000
15.339800 -39.575400 218.580000
15.102500 -12.023000 205.097000
15.776300 -22.344800 196.584000
15.720100 -23.174500 197.156000
15.960300 -24.712600 196.493000
15.812000 -25.575300 197.203000
15.810800 -26.470500 197.966000
15.690300 -26.971800 199.637000
15.648100 -28.059700 200.287000
15.715500 -29.812800 199.984000
16.001600 -31.952400 198.611000
15.706700 -32.112500 200.709000
15.498100 -32.807600 202.637000
15.631700 -34.006500 203.104000
15.608400 -34.866800 203.903000
15.572900 -35.572600 204.797000
15.680800 -36.387000 205.927000
15.621800 -36.871800 207.702000
15.551300 -37.726300 208.468000
15.486700 -38.427700 209.435000
15.183500 -37.794200 212.697000
14.968400 -37.930100 214.632000
14.823400 -38.195100 216.278000
14.690600 -38.530000 217.830000
14.671400 -39.473700 218.527000
15.207900 -22.813500 195.521000
15.076100 -23.297500 196.512000
15.195800 -24.612600 196.829000
15.225500 -25.822300 197.225000
15.108400 -26.555300 198.301000
14.974300 -27.101700 199.912000
14.918700 -28.400600 200.284000
14.959700 -29.725100 200.535000
15.150500 -30.953400 200.622000
14.834600 -31.046400 202.994000
14.929600 -32.434900 203.003000
15.060800 -33.524600 203.535000
15.220000 -35.417800 203.066000
15.310900 -36.950700 202.427000
14.684500 -39.071800 212.905000
14.520200 -39.118000 214.659000
14.382100 -39.479100 216.180000
14.192200 -39.902500 217.846000
14.611000 -23.003700 195.095000
14.357000 -23.143100 196.668000
14.405400 -24.579100 196.467000
14.494600 -25.715700 197.430000
14.352700 -26.438300 198.951000
14.305600 -27.397700 199.832000
14.256600 -28.066900 200.788000
14.207600 -29.051000 201.281000
14.398100 -30.641400 201.183000
14.136200 -30.691000 203.154000
14.349000 -32.163800 202.929000
13.871600 -22.776600 195.573000
13.681700 -23.334800 196.585000
13.819400 -25.006000 195.805000
13.677400 -25.272600 197.717000
13.781800 -26.549000 198.031000
13.614200 -27.295400 199.344000
13.665200 -28.111500 200.557000
13.541100 -29.153800 200.996000
13.569200 -29.959200 202.073000
13.537600 -30.945900 202.521000
13.169200 -21.190800 191.709000
13.015700 -22.256600 196.198000
12.842700 -22.568300 197.892000
13.142300 -24.566400 196.589000
12.944000 -25.119800 197.937000
13.012800 -26.304600 198.417000
12.881500 -27.256000 199.317000
12.910400 -28.280400 200.220000
12.936900 -29.197000 201.302000
12.885200 -30.185500 201.708000
12.932500 -31.611500 201.016000
12.418200 -21.695800 193.969000
12.312400 -22.050700 196.542000
12.261800 -22.543400 197.871000
12.366700 -24.202900 197.158000
12.243100 -25.236700 198.239000
12.360100 -26.566000 198.459000
12.200400 -27.296000 199.652000
12.301100 -28.733300 199.470000
12.324400 -29.674900 200.165000
12.240300 -30.700200 200.491000
11.667300 -21.643700 194.001000
11.657800 -22.126500 195.870000
11.692200 -22.679100 197.604000
11.573700 -24.253400 197.379000
11.527700 -25.219700 198.264000
11.644100 -26.164000 199.044000
11.464800 -27.315400 199.453000
11.662600 -28.586800 199.745000
11.633200 -30.240900 199.282000
11.604000 -31.883600 198.370000
11.058400 -21.659900 193.984000
11.025100 -22.412000 194.917000
10.909000 -22.763300 197.371000
10.923500 -24.171400 197.336000
10.896200 -25.056600 198.049000
10.893900 -26.018400 199.061000
10.704000 -27.039200 199.940000
10.929600 -28.883900 199.390000
10.976200 -30.878300 198.356000
11.002500 -32.292200 197.615000
10.117500 -22.685500 197.506000
10.271100 -24.198600 197.371000
10.199900 -24.915900 198.881000
10.178800 -25.864200 199.705000
9.993400 -26.893400 200.151000
10.184700 -28.834800 199.273000
10.340100 -30.519300 198.610000
10.358000 -32.346900 197.398000
9.469300 -38.363500 216.823000
9.740140 -22.440800 195.424000
9.399200 -22.550100 197.852000
9.585850 -23.954600 197.410000
9.524580 -24.604200 198.735000
9.474180 -25.744400 199.513000
9.302690 -26.933600 200.019000
9.427130 -28.446600 199.916000
9.649390 -30.905300 198.062000
9.679040 -32.459300 197.222000
8.808740 -37.180200 218.178000
8.823660 -21.964600 197.000000
8.735180 -22.609600 197.931000
8.916610 -23.871700 197.793000
8.807960 -24.646000 199.016000
8.700910 -25.807100 199.721000
8.706570 -26.855200 200.216000
8.685650 -28.138100 200.315000
8.858640 -30.311000 198.968000
9.040910 -32.397200 197.289000
8.151070 -37.096700 217.923000
8.236720 -38.096400 217.983000
8.386240 -39.694700 217.370000
8.142040 -21.896000 197.094000
8.120020 -22.488400 197.794000
8.105600 -23.406000 198.733000
8.114710 -24.654800 199.308000
7.938950 -25.514300 200.158000
8.061530 -26.833200 200.412000
7.977450 -28.076800 200.772000
8.126360 -30.130400 199.270000
8.300290 -31.779600 198.219000
7.644330 -36.760900 216.858000
7.744690 -38.554300 215.662000
7.458530 -21.840200 197.301000
7.476990 -22.487700 198.080000
7.360880 -23.280600 198.781000
7.358750 -24.334100 199.561000
7.236310 -25.031200 201.002000
7.298190 -26.152100 201.428000
7.341330 -27.742000 201.159000
7.406430 -29.649500 200.105000
7.578620 -31.523400 198.636000
7.224180 -36.660100 216.877000
6.776730 -22.178200 196.659000
6.754010 -22.537000 197.948000
6.782150 -23.662300 198.326000
6.674670 -24.571600 198.797000
6.645270 -25.069900 200.326000
6.577280 -25.901500 201.573000
6.640280 -27.216400 201.847000
6.696040 -29.310600 200.540000
6.807480 -30.630200 200.097000
6.085350 -22.179600 196.641000
6.050690 -22.185300 198.492000
6.107130 -23.603200 198.148000
6.013520 -24.118900 199.843000
5.957120 -25.052100 200.697000
5.827400 -25.705900 202.101000
5.984430 -26.748400 202.457000
5.973920 -28.411100 201.885000
5.996080 -30.088200 201.006000
5.393250 -22.132700 196.712000
5.375840 -22.391900 198.189000
5.428100 -23.522800 198.659000
5.326350 -24.023200 200.219000
5.250790 -24.502100 201.892000
5.136890 -25.376900 202.743000
5.299090 -27.048500 202.296000
5.283440 -28.818900 201.629000
5.291390 -30.309800 200.788000
4.714680 -22.493400 195.895000
4.694730 -22.057700 198.745000
4.664550 -22.950600 199.485000
4.634060 -23.547500 201.335000
4.626730 -24.388500 202.272000
4.470200 -25.333300 202.775000
4.616510 -26.514800 202.905000
4.610470 -28.350800 202.054000
4.572430 -30.035300 201.266000
3.866430 -23.012600 190.597000
3.904860 -22.618300 194.703000
4.078980 -22.151400 198.400000
3.940040 -23.056900 198.879000
3.942180 -23.327600 200.924000
3.942140 -24.234900 202.112000
3.779340 -25.082400 203.233000
3.928440 -26.831700 202.676000
3.886500 -28.919800 201.658000
3.812450 -30.404000 201.070000
3.297590 -22.678700 191.688000
3.245910 -22.611500 194.519000
3.338160 -22.406500 197.688000
3.281290 -22.795600 199.741000
3.264520 -23.420100 201.237000
3.171150 -24.173800 202.547000
3.142740 -25.091300 203.404000
3.257640 -26.019000 203.834000
3.177620 -28.297000 202.427000
3.198920 -30.348500 201.237000
3.209490 -32.417900 199.401000
2.695870 -22.309000 189.679000
2.586320 -22.514800 192.332000
2.635360 -22.366900 195.538000
2.625640 -22.188700 198.649000
2.593370 -22.767800 200.257000
2.577760 -23.547100 201.443000
2.560180 -23.858600 203.029000
2.508700 -25.130900 203.015000
2.578730 -26.336900 203.489000
2.452160 -28.358500 202.493000
2.518530 -29.850700 202.040000
2.615730 -32.159200 199.866000
2.016040 -36.727400 207.032000
2.070950 -20.959600 189.497000
1.904740 -21.976600 190.551000
1.868860 -22.617700 192.159000
1.997110 -22.486800 194.780000
1.968000 -22.133700 197.980000
1.928120 -22.854900 199.246000
1.857130 -23.156000 201.462000
1.927210 -24.238400 202.337000
1.846640 -25.011600 203.425000
1.927300 -26.095500 203.545000
1.858740 -27.131500 204.116000
1.802860 -29.239800 202.916000
1.933430 -31.338600 201.147000
1.582950 -36.037900 206.738000
1.550400 -35.950700 208.001000
1.290940 -20.719900 190.198000
1.194370 -22.636600 191.706000
1.325660 -22.471400 195.121000
1.353390 -22.089000 198.522000
1.255030 -22.751700 199.673000
1.152600 -23.221000 201.156000
1.170920 -24.078500 202.157000
1.267150 -25.182800 202.759000
1.203750 -26.070200 203.796000
1.184950 -27.662200 203.763000
1.200090 -29.114200 203.234000
1.262370 -30.675000 202.103000
1.014260 -35.565200 207.116000
0.993495 -37.188400 205.850000
0.512151 -18.494100 189.796000
0.611009 -18.885200 190.854000
0.515114 -20.271500 190.679000
0.570455 -22.099200 189.981000
0.533154 -23.278400 189.803000
0.699395 -22.500300 195.263000
0.742706 -22.042100 198.644000
0.595525 -22.734900 199.792000
0.528887 -23.125400 201.561000
0.465083 -24.237900 201.972000
0.534814 -25.089600 203.125000
0.530267 -26.051500 203.861000
0.493266 -27.184700 204.144000
0.648269 -28.584900 203.846000
0.267068 -35.763400 204.967000
0.344371 -36.301900 205.475000
-0.146998 -19.185100 188.538000
-0.092854 -19.470100 189.986000
-0.161397 -20.360600 190.624000
-0.209876 -21.639800 190.579000
-0.112327 -23.439400 189.175000
0.069776 -22.011400 199.006000
-0.081492 -22.577200 200.325000
-0.163007 -23.248300 201.609000
-0.132266 -24.073100 202.759000
-0.188120 -24.926900 203.622000
-0.128245 -26.179800 203.814000
-0.209893 -27.215400 204.319000
-0.087453 -28.142100 204.367000
-0.428367 -35.303000 203.703000
-0.272279 -35.256900 205.362000
-0.333741 -37.326700 203.404000
-0.744710 -19.934500 189.334000
-0.814333 -20.667700 190.325000
-0.921614 -21.734800 190.850000
-0.816020 -23.063300 190.047000
-1.195540 -22.342700 195.122000
-0.708147 -21.682300 200.035000
-0.719260 -22.435400 200.783000
-0.870800 -23.292900 201.259000
-0.741393 -23.930400 202.415000
-0.788722 -24.670200 203.414000
-0.850906 -25.474200 204.570000
-0.831915 -26.728100 204.974000
-0.839283 -27.765600 205.176000
-1.113840 -34.506000 204.229000
-0.983423 -35.568400 204.226000
-1.465360 -21.050600 189.663000
-1.538960 -21.376000 191.558000
-1.564970 -22.619000 191.703000
-1.689170 -22.382300 194.960000
-1.521770 -22.129200 198.345000
-1.365310 -22.594500 200.111000
-1.521070 -23.365900 200.821000
-1.430600 -23.847400 202.511000
-1.456340 -24.336500 204.321000
-1.520940 -25.209600 205.083000
-1.492120 -26.317600 205.394000
-1.542130 -27.442400 205.891000
-1.562520 -29.177300 204.662000
-1.778120 -33.564100 203.675000
-1.711060 -34.780300 203.397000
-1.715760 -36.442100 202.331000
-2.133680 -20.984400 192.469000
-2.273980 -22.087300 192.713000
-2.322550 -22.719000 193.636000
-2.117240 -22.147000 198.261000
-2.100610 -22.741200 199.613000
-2.124410 -23.185700 201.506000
-2.162960 -23.803400 203.105000
-2.120680 -24.464300 204.611000
-2.110740 -25.224900 205.663000
-2.102610 -25.910300 206.807000
-2.190140 -26.986400 207.115000
-2.204670 -28.864500 205.751000
-2.375890 -33.383200 201.980000
-2.290650 -32.822500 204.446000
-2.312000 -35.050100 202.599000
-2.882580 -21.202200 192.605000
-3.043800 -22.227900 192.449000
-2.983070 -22.600900 193.669000
-2.885840 -21.963200 198.901000
-2.800580 -22.591600 200.395000
-2.735720 -22.902500 202.314000
-2.927290 -24.039200 202.454000
-2.812970 -24.592800 203.998000
-2.771790 -25.221100 205.358000
-2.734090 -25.902100 206.527000
-2.698390 -26.635000 207.397000
-2.868840 -28.677400 206.167000
-2.838600 -31.344500 204.362000
-2.900810 -33.301800 203.127000
-3.617320 -21.456800 192.403000
-3.617580 -22.156700 192.927000
-3.630210 -22.474700 194.833000
-3.601970 -21.911600 198.400000
-3.545740 -22.664600 199.486000
-3.478290 -23.323300 201.121000
-3.613670 -24.033500 202.490000
-3.505050 -24.846600 203.393000
-3.451540 -25.459100 204.685000
-3.429440 -26.202800 205.807000
-3.338410 -26.935100 206.884000
-3.574290 -28.888100 205.704000
-3.553910 -30.595500 205.007000
-4.235240 -22.210800 190.924000
-4.190480 -21.945200 193.686000
-4.234700 -22.321100 195.416000
-4.202800 -21.892800 198.773000
-4.213550 -22.410100 200.533000
-4.188450 -23.230100 201.773000
-4.220410 -24.003200 202.735000
-4.167690 -25.036900 203.010000
-4.089870 -25.785800 203.849000
-4.154950 -26.766900 204.419000
-4.133550 -27.770600 205.326000
-4.306200 -29.883000 204.208000
-4.393910 -30.793000 204.517000
-4.929670 -22.383900 195.383000
-4.853250 -21.679700 199.868000
-4.864470 -22.503400 200.344000
-4.887960 -23.168200 201.305000
-4.859690 -24.242300 201.971000
-4.752640 -24.703500 203.429000
-4.793120 -26.141100 203.304000
-4.880810 -27.419400 203.723000
-4.958750 -28.900300 203.753000
-5.035810 -30.048400 204.147000
-4.996120 -30.661500 204.724000
-5.656130 -21.952100 196.544000
-5.609120 -21.908700 198.679000
-5.479120 -22.364000 200.501000
-5.501710 -23.130300 201.339000
-5.532510 -24.047500 201.888000
-5.509830 -25.201400 202.735000
-5.481870 -26.593000 203.008000
-5.640490 -27.770900 203.362000
-5.674210 -29.131400 203.718000
-5.729070 -30.347700 203.712000
-5.619270 -31.026500 204.111000
-6.373800 -22.146800 196.399000
-6.212660 -21.609000 199.181000
-6.229090 -22.611800 199.389000
-6.148620 -23.092100 201.318000
-6.267030 -24.318000 201.924000
-6.229250 -25.057700 203.157000
-6.140220 -26.445500 203.046000
-6.272840 -26.954900 204.300000
-6.351780 -28.485500 204.200000
-6.341130 -30.003400 204.008000
-6.268560 -30.983600 204.075000
-7.076950 -21.873500 196.861000
-6.833500 -21.871900 198.758000
-6.883010 -22.508400 199.933000
-6.914970 -23.172800 201.584000
-6.918180 -24.446800 201.608000
-6.865570 -24.919500 202.950000
-6.844590 -26.085700 203.524000
-6.956740 -27.276400 204.092000
-6.961900 -28.380300 204.400000
-7.015770 -29.420900 204.670000
-6.966160 -30.907000 204.055000
-7.716000 -21.939200 196.723000
-7.539600 -21.731900 199.045000
-7.568870 -22.367000 200.403000
-7.660370 -23.173700 201.460000
-7.498950 -24.051500 202.485000
-7.523140 -25.258500 202.973000
-7.556630 -26.350000 203.569000
-7.565030 -27.129700 204.307000
-7.584640 -28.303800 204.451000
-7.711770 -29.529300 204.589000
-7.742250 -30.783400 204.216000
-8.236780 -21.440100 197.989000
-8.170890 -21.468000 200.027000
-8.171420 -22.279500 200.787000
-8.372600 -23.380500 200.999000
-8.196790 -23.813200 202.683000
-8.198610 -25.135800 202.820000
-8.158850 -26.021900 203.615000
-8.255000 -27.299400 203.898000
-8.317460 -28.803500 204.014000
-8.343990 -30.039400 204.020000
-8.512720 -31.088900 203.727000
-8.892270 -21.682800 199.539000
-8.789570 -22.121000 200.852000
-9.082440 -23.482300 200.647000
-8.902370 -23.943900 202.398000
-8.778680 -24.705500 203.342000
-8.857000 -25.914900 203.805000
-8.944470 -27.305700 203.729000
-8.965860 -28.320200 204.152000
-9.036450 -29.958500 203.798000
-9.251380 -31.692300 202.552000
-9.632760 -22.020900 198.958000
-9.544190 -22.251000 200.433000
-9.722210 -23.339500 200.670000
-9.685170 -24.189900 201.687000
-9.492400 -24.885400 203.271000
-9.540220 -25.952800 203.781000
-9.552380 -27.066200 204.100000
-9.731110 -29.082700 203.181000
-9.852770 -30.505300 202.736000
-10.214400 -21.810900 199.585000
-10.316800 -22.644100 199.940000
-10.336400 -23.428900 200.845000
-10.352500 -24.141800 201.841000
-10.248600 -24.900000 202.827000
-10.215400 -25.848500 203.898000
-10.305800 -27.595400 203.669000
-10.453900 -29.588100 202.484000
-10.739100 -31.088300 201.463000
-10.981300 -21.852000 199.576000
-11.015400 -22.725000 200.063000
-10.927600 -23.212800 201.653000
-10.887200 -24.047400 202.577000
-10.872500 -25.109600 202.979000
-10.910200 -25.579200 204.173000
-10.962000 -27.065900 203.877000
-11.158900 -29.351200 202.443000
-11.488400 -31.102400 201.271000
-11.759400 -22.297600 198.469000
-11.667000 -22.386200 200.072000
-11.691400 -23.205700 201.062000
-11.487500 -23.750800 202.641000
-11.577000 -25.066600 202.947000
-11.487100 -25.818900 204.084000
-11.672800 -27.529200 203.375000
-11.969600 -29.748900 201.831000
-12.232600 -31.302900 200.958000
-12.390500 -22.313000 198.503000
-12.341100 -22.395400 200.297000
-12.448900 -23.272800 200.983000
-12.237400 -23.940100 202.398000
-12.361300 -25.308100 202.594000
-12.184200 -26.098300 203.548000
-12.426500 -27.844700 202.938000
-12.707400 -29.996800 201.555000
-12.987200 -31.761600 200.325000
-13.062500 -22.089200 199.166000
-12.980800 -22.519800 200.236000
-13.120600 -23.379900 200.588000
-13.110100 -24.477400 200.941000
-13.020600 -25.186600 202.223000
-13.036700 -26.328200 203.075000
-13.255200 -28.625700 201.987000
-13.453500 -30.501200 200.953000
-13.615200 -31.959000 200.062000
-13.880300 -22.240400 198.772000
-13.595200 -22.414700 200.325000
-13.769200 -23.538600 200.590000
-13.637300 -24.344500 201.680000
-13.678300 -25.157300 202.572000
-13.764900 -25.933700 203.605000
-13.914000 -28.103900 202.321000
-14.042000 -30.128800 201.232000
-14.133200 -31.863000 200.127000
-14.322200 -22.477200 200.092000
-14.479200 -23.424700 200.430000
-14.324300 -24.143200 201.789000
-14.307700 -24.804600 203.171000
-14.363100 -25.589700 204.008000
-14.508600 -27.427800 203.115000
-14.709800 -29.172400 202.410000
-14.662500 -31.994300 199.747000
-15.018000 -23.094700 201.356000
-14.953200 -23.898400 202.452000
-14.901400 -24.523700 203.758000
-15.146000 -26.326700 203.132000
-15.242300 -28.106300 202.677000
-15.374400 -29.408800 202.360000
-15.724600 -31.323200 200.684000
-15.751600 -22.413900 200.438000
-15.650800 -23.104800 201.822000
-15.553900 -23.915400 202.698000
-15.765400 -25.352900 202.399000
-15.912600 -26.453400 202.845000
-15.840200 -27.546600 203.309000
-15.981000 -29.506200 202.264000
-16.221500 -31.346300 200.844000
-16.458700 -23.114600 201.184000
-16.260900 -23.908900 202.595000
-16.480900 -25.522900 202.322000
-16.602200 -26.719000 202.541000
-16.472200 -27.408000 203.267000
-16.668400 -28.810300 203.043000
-16.711300 -31.639400 200.474000
-17.351800 -22.488300 198.110000
-17.050900 -22.252600 200.600000
-17.281500 -23.418300 200.676000
-17.056900 -23.948300 202.188000
-16.916900 -24.705800 203.223000
-17.075800 -25.899300 203.619000
-17.186500 -27.637300 203.133000
-17.360500 -28.803900 203.321000
-17.665900 -30.772400 201.517000
-18.089100 -22.246600 198.599000
-17.810900 -22.491900 200.229000
-17.887500 -23.471400 200.598000
-17.858100 -24.139200 201.709000
-17.675800 -24.910900 203.032000
-17.747100 -25.930900 203.724000
-17.764200 -27.183000 203.555000
-17.928200 -28.506300 203.512000
-18.319400 -30.705600 201.744000
-18.809600 -22.427300 198.127000
-18.546200 -22.234700 200.340000
-18.429500 -23.183800 201.140000
-18.393600 -23.826200 202.329000
-18.519800 -25.080900 202.430000
-18.277300 -25.622200 203.944000
-18.435700 -27.156500 203.736000
-18.743300 -28.934400 203.141000
-19.058200 -30.925800 201.492000
-19.378200 -22.168600 198.723000
-19.137400 -22.099700 200.549000
-19.163000 -23.028300 200.914000
-19.180400 -24.234600 201.505000
-19.298300 -25.241600 202.308000
-19.113100 -26.127600 203.300000
-19.359000 -28.059400 202.753000
-19.416800 -29.060500 203.031000
-19.616500 -30.447400 202.280000
-20.160500 -22.366100 198.473000
-19.771300 -22.261800 200.416000
-19.927900 -23.353000 200.877000
-19.873000 -24.339800 201.837000
-19.724300 -24.717200 203.260000
-19.820800 -25.860000 203.307000
-19.998100 -27.445800 203.291000
-20.001700 -28.839200 203.340000
-20.293700 -30.532800 202.150000
-20.836400 -22.496900 198.245000
-20.517400 -22.390700 200.329000
-20.639500 -23.434400 200.554000
-20.584400 -24.071800 201.763000
-20.390000 -24.970100 202.793000
-20.563600 -26.082000 203.345000
-20.763300 -27.624500 203.106000
-20.665300 -28.503600 203.655000
-20.842800 -30.217300 202.563000
-21.032900 -22.041100 200.952000
-21.192600 -23.128000 201.005000
-21.313500 -24.053300 201.731000
-21.257500 -25.206700 202.370000
-21.291900 -26.273700 202.865000
-21.211300 -26.870100 203.975000
-21.264700 -28.095700 204.134000
-21.326100 -29.409800 203.687000
-21.845800 -22.507400 200.519000
-21.971700 -23.256600 201.171000
-21.988700 -24.409400 201.576000
-21.805900 -24.831100 203.064000
-21.852500 -25.894900 203.517000
-21.889100 -27.216000 203.892000
-21.916200 -28.207000 204.136000
-21.653800 -27.350400 206.910000
-22.634100 -22.568000 200.538000
-22.690200 -23.349800 200.747000
-22.627600 -24.020400 201.582000
-22.512000 -24.830100 202.837000
-22.626300 -25.870900 203.592000
-22.476400 -26.850800 204.064000
-22.508600 -27.780600 204.596000
-22.173200 -26.613400 209.024000
-23.536600 -36.485700 206.831000
-23.303400 -22.447800 200.644000
-23.306100 -23.262300 200.905000
-23.267500 -24.049300 201.903000
-23.310900 -25.007800 202.838000
-23.347600 -26.156300 203.266000
-23.024100 -26.557100 204.722000
-23.054100 -27.083300 206.192000
-22.610200 -26.595700 208.953000
-22.103000 -25.830300 211.737000
-23.813100 -35.015300 207.472000
-23.705300 -35.536800 208.152000
-23.922400 -36.949500 207.414000
-23.984500 -22.393800 200.751000
-24.024300 -23.393100 201.041000
-23.871600 -23.981600 202.371000
-24.169100 -25.350800 202.091000
-23.889800 -25.873200 203.359000
-23.825500 -26.704200 204.356000
-23.639500 -26.715900 206.558000
-23.492900 -27.154000 207.654000
-24.254700 -33.608800 207.616000
-24.174800 -34.493600 207.965000
-24.296800 -35.842700 207.451000
-24.630100 -22.245500 200.865000
-24.650400 -22.953500 201.328000
-24.678500 -23.996200 201.989000
-24.796000 -25.253600 202.340000
-24.611400 -26.142500 203.061000
-24.433400 -26.377700 205.239000
-24.214600 -26.841700 206.594000
-24.366400 -27.637700 206.727000
-24.717700 -31.942700 208.013000
-24.618900 -33.059700 208.162000
-24.854800 -34.763600 207.139000
-25.249800 -22.154100 201.016000
-25.381700 -22.990100 201.472000
-25.461500 -24.210000 201.489000
-25.331900 -24.777700 202.711000
-25.327400 -25.908100 203.511000
-25.159800 -26.431400 205.143000
-24.823000 -26.753600 206.605000
-25.279000 -28.488900 205.140000
-25.490100 -31.525300 206.731000
-25.230400 -31.354800 208.273000
-25.206300 -32.668000 208.065000
-25.952400 -21.997200 201.169000
-26.116500 -22.834300 201.399000
-26.057300 -23.918300 202.024000
-25.933800 -24.799100 203.199000
-26.079700 -26.079800 203.149000
-25.843600 -26.194000 205.093000
-25.577600 -26.867900 206.144000
-25.898400 -30.615800 207.485000
-25.878600 -31.580700 207.526000
-26.597800 -21.708900 201.424000
-26.745100 -22.868500 201.658000
-26.785900 -24.005200 201.827000
-26.632600 -24.598000 202.968000
-26.613100 -25.665900 203.648000
-26.516400 -26.014100 205.332000
-26.529900 -27.132400 205.910000
-27.080900 -29.506600 204.444000
-26.625100 -29.509000 206.832000
-26.399200 -30.161100 207.739000
-27.332500 -22.736300 201.881000
-27.335900 -23.720700 202.390000
-27.199000 -25.359000 204.339000
-27.177500 -26.112200 205.600000
-27.272200 -27.452400 205.752000
-27.416700 -29.040100 205.332000
-27.310000 -29.710400 206.317000
-27.859400 -31.238700 205.014000
-27.786600 -25.031700 204.925000
-27.829700 -25.809700 205.881000
-27.791500 -26.998500 206.219000
-27.821500 -28.250000 206.251000
-28.019200 -29.510400 206.031000
-28.431500 -24.031600 204.336000
-28.374400 -24.782300 205.441000
-28.280700 -25.284600 206.691000
-28.278900 -26.362600 207.019000
-28.509200 -28.149600 206.333000
-28.980600 -30.024000 205.006000
-28.869000 -23.552000 205.571000
-28.811700 -24.360500 206.496000
-28.933600 -25.611600 206.623000
-29.092800 -27.026400 206.545000
-29.229700 -28.145300 206.585000
-29.539200 -23.202200 205.648000
-29.385500 -24.042900 206.469000
-29.506000 -25.106900 207.027000
-29.506600 -26.276600 207.351000
-30.053800 -28.294200 206.193000
-30.558400 -30.309700 204.554000
-33.026200 -23.933000 193.383000
-30.909900 -21.966200 201.359000
-30.559100 -22.230500 202.759000
-29.870900 -22.494700 207.209000
-29.964700 -23.885800 206.820000
-30.031200 -24.606300 207.934000
-30.225900 -26.327900 207.421000
-30.762600 -28.375000 206.391000
-31.096300 -29.999700 205.339000
-33.494700 -23.083600 193.018000
-33.302400 -23.511800 194.341000
-31.722400 -22.024200 200.964000
-31.511700 -22.631400 201.714000
-30.617200 -22.493800 206.832000
-30.414100 -23.330700 207.821000
-30.720200 -24.535800 207.942000
-30.740200 -25.802500 207.965000
-31.007100 -27.214000 207.934000
-31.620200 -29.685500 206.139000
-32.173900 -31.756400 204.381000
-34.602400 -19.466900 189.454000
-34.470300 -20.086900 190.463000
-34.532200 -21.444100 190.495000
-34.145900 -22.066700 192.274000
-33.932900 -22.839000 193.469000
-33.688700 -23.149900 195.095000
-32.953900 -22.824400 198.432000
-32.231900 -22.591100 201.881000
-31.506400 -22.186600 205.391000
-31.128700 -22.278900 207.368000
-31.193700 -23.390000 207.545000
-31.378600 -24.494300 207.910000
-31.383800 -25.671900 208.200000
-31.745900 -27.244000 207.830000
-31.928500 -28.651700 207.805000
-32.339600 -30.563700 206.643000
-35.486700 -17.485600 187.691000
-35.248700 -17.995000 188.887000
-35.046600 -19.023100 189.815000
-34.843600 -19.647200 191.181000
-34.606700 -20.461900 192.515000
-34.574500 -21.786400 193.063000
-34.352500 -22.488100 194.277000
-34.389700 -23.182100 194.898000
-32.922200 -21.957200 201.127000
-33.084700 -22.704100 201.730000
-32.629500 -22.936800 203.694000
-32.007900 -22.880300 206.422000
-31.986000 -23.806800 207.188000
-32.354400 -25.363700 206.762000
-32.277800 -26.372200 207.408000
-32.648400 -27.866800 207.169000
-32.640500 -28.897600 207.787000
-32.665600 -29.918400 207.863000
-32.929800 -30.965100 208.084000
-36.347600 -16.271000 186.805000
-35.973300 -17.204100 188.019000
-35.671100 -17.905600 189.447000
-35.506000 -18.773600 190.644000
-35.353700 -19.647900 191.747000
-35.070300 -20.099700 193.219000
