# .PCD v0.7 - Point Cloud Data file format
VERSION 0.7
FIELDS x y z
SIZE 4 4 4
TYPE F F F
COUNT 1 1 1
WIDTH 1010
HEIGHT 1
VIEWPOINT 0 0 0 1 0 0 0
POINTS 1010
DATA ascii
1.16459 -0.450811 1.314787
1.17203 -0.459721 1.2945691
1.17312 -0.44587201 1.291501
1.17118 -0.458781 1.2869751
1.17142 -0.453466 1.285997
1.17625 -0.44649601 1.2865381
1.16758 -0.458204 1.279659
1.1713201 -0.45409402 1.2803681
1.17247 -0.44589803 1.277194
1.17152 -0.45961499 1.2760161
1.1773601 -0.43987501 1.272886
1.16891 -0.45804298 1.268643
1.1728801 -0.44436002 1.2650781
1.16945 -0.45817602 1.2625231
1.17024 -0.44434601 1.256909
1.16888 -0.44433498 1.250705
1.17401 -0.43737498 1.2521491
1.17465 -0.43521199 1.2456601
1.19489 -0.42619899 1.2353311
1.16712 -0.458691 1.222955
1.17138 -0.44497898 1.21582
1.1646 -0.45646301 1.209542
1.16597 -0.443719 1.2084711
1.15943 -0.43980202 1.1928461
1.16039 -0.41920602 1.184904
1.1650599 -0.460765 1.1849661
1.1589199 -0.44157201 1.1812091
1.16863 -0.464001 1.179652
1.17484 -0.47783101 1.1775759
1.16914 -0.46641102 1.1739601
1.17167 -0.475465 1.170189
1.16977 -0.44002301 1.31457
1.16403 -0.44832298 1.307032
1.16829 -0.44026798 1.3065201
1.16395 -0.44584 1.2995089
1.16698 -0.43848202 1.2995019
1.1707599 -0.44019499 1.294668
1.17056 -0.45606998 1.2859579
1.16596 -0.44687501 1.2808419
1.16933 -0.440635 1.2807322
1.1707 -0.43400902 1.279296
1.17312 -0.457201 1.2795
1.16545 -0.447772 1.275112
1.1686599 -0.44120499 1.2750911
1.17334 -0.434039 1.273586
1.17383 -0.458489 1.273874
1.1682299 -0.44943199 1.270514
1.1708 -0.439888 1.2680271
1.1667401 -0.44724998 1.261884
1.16211 -0.436353 1.258562
1.1618299 -0.44635898 1.2534291
1.16704 -0.43883702 1.2542291
1.17374 -0.43008801 1.2548641
1.16368 -0.452474 1.250532
1.16277 -0.44513801 1.247177
1.16197 -0.43542802 1.2321781
1.16107 -0.43640801 1.220391
1.16045 -0.45091498 1.218125
1.1613201 -0.43445203 1.2150711
1.15965 -0.435862 1.2019
1.1678801 -0.46129799 1.181555
1.1689 -0.470359 1.177146
1.16774 -0.46230701 1.175958
1.16942 -0.471789 1.1718071
1.1696601 -0.436317 1.3151089
1.16291 -0.44849202 1.308825
1.16813 -0.43864101 1.3085999
1.16904 -0.441488 1.3017141
1.16997 -0.43992698 1.2936801
1.16882 -0.46022099 1.293766
1.16561 -0.44759601 1.287832
1.1720099 -0.43953401 1.287937
1.16714 -0.457293 1.2847501
1.1660399 -0.45746899 1.2776351
1.16368 -0.44674501 1.2749771
1.16935 -0.43817198 1.2734801
1.16781 -0.45957401 1.2713611
1.16467 -0.45027801 1.268679
1.1676999 -0.43944901 1.266698
1.1673599 -0.45854598 1.263694
1.16333 -0.445932 1.260296
1.16757 -0.43705899 1.259061
1.16977 -0.46190301 1.259504
1.1626999 -0.44989499 1.2548699
1.16549 -0.43930802 1.252496
1.1753601 -0.43324402 1.255029
1.16144 -0.446484 1.247173
1.1618199 -0.43670201 1.2441701
1.15845 -0.44166002 1.238616
1.16352 -0.43737498 1.2321781
1.1624299 -0.435662 1.223878
1.1608599 -0.433029 1.216812
1.1605999 -0.436133 1.2125341
1.1593699 -0.43450502 1.206053
1.16739 -0.467877 1.187898
1.16847 -0.47518501 1.174026
1.16241 -0.45115602 1.3147211
1.16705 -0.441376 1.3124671
1.1748 -0.43524799 1.314965
1.16932 -0.44231999 1.3069171
1.17575 -0.472018 1.307865
1.17247 -0.44476199 1.3018661
1.17529 -0.47953302 1.302243
1.1793901 -0.47490799 1.30234
1.17531 -0.44239399 1.2942871
1.17573 -0.48033699 1.2957749
1.1692901 -0.45541698 1.28791
1.17387 -0.44567901 1.286615
1.17136 -0.45711499 1.281436
1.1685801 -0.43945399 1.276129
1.1705999 -0.45825601 1.274171
1.16751 -0.44184199 1.269142
1.16434 -0.43891102 1.2608
1.16449 -0.44838601 1.257303
1.16548 -0.43676499 1.255363
1.1720201 -0.429851 1.253523
1.17153 -0.47541901 1.2577901
1.17301 -0.47113499 1.2581841
1.1671801 -0.44066799 1.2497849
1.17041 -0.42867601 1.245656
1.16676 -0.43898499 1.241742
1.1628 -0.43461201 1.2323421
1.1607 -0.44399503 1.218676
1.1638501 -0.45642298 1.2089961
1.1601 -0.43502799 1.2050891
1.1616 -0.409168 1.200561
1.1585701 -0.43778899 1.1985691
1.17047 -0.46503398 1.184823
1.16994 -0.46629003 1.177687
1.16654 -0.44293201 1.3029981
1.16638 -0.46641102 1.3021131
1.17049 -0.43577 1.295586
1.16785 -0.46847302 1.2942871
1.1685901 -0.46097001 1.294989
1.16307 -0.46496701 1.2848171
1.1688 -0.46141103 1.288
1.1666 -0.44793597 1.282382
1.17264 -0.43655801 1.282189
1.1671801 -0.46935099 1.2806281
1.16697 -0.460343 1.279083
1.17107 -0.43132198 1.2719531
1.1589299 -0.460998 1.2708881
1.16394 -0.45542499 1.268544
1.1675299 -0.442002 1.266582
1.16187 -0.463204 1.264111
1.16368 -0.45755699 1.260964
1.16524 -0.44629601 1.259745
1.16908 -0.43200698 1.257897
1.1591899 -0.46126097 1.2544091
1.1618199 -0.45282599 1.253125
1.1655 -0.44243598 1.2526441
1.1686901 -0.43285701 1.24972
1.1629 -0.465976 1.248767
1.1616 -0.46386397 1.2406781
1.1594 -0.43938598 1.2351811
1.16327 -0.466483 1.233385
1.15662 -0.460978 1.224787
1.1613899 -0.45684898 1.2256371
1.1604 -0.46347901 1.220034
1.1603199 -0.453327 1.216563
1.15847 -0.46109501 1.210592
1.15848 -0.43828499 1.205752
1.1582 -0.462998 1.2039131
1.1592801 -0.44188899 1.2001151
1.15965 -0.46325803 1.198271
1.16992 -0.47179499 1.183031
1.16881 -0.47073898 1.1777631
1.2314601 -0.43025398 1.3158669
1.24026 -0.44168401 1.306857
1.22983 -0.43499401 1.3017089
1.24439 -0.44673699 1.299028
1.2159801 -0.43298697 1.29813
1.2324901 -0.43594399 1.292492
1.2448699 -0.44458801 1.2891791
1.21437 -0.432421 1.2919751
1.22658 -0.43545699 1.2869861
1.22403 -0.42998201 1.2788529
1.2243 -0.42937601 1.270674
1.23098 -0.43304297 1.2682331
1.2356 -0.442027 1.2698491
1.22517 -0.42866698 1.262885
1.23331 -0.43110001 1.258185
1.22693 -0.42787498 1.253132
1.2335 -0.43045798 1.2514501
1.23816 -0.43824601 1.25187
1.24485 -0.443268 1.2483051
1.22324 -0.428121 1.245389
1.2314299 -0.432354 1.245213
1.24192 -0.43732497 1.2419301
1.2194899 -0.42906702 1.2397411
1.2279201 -0.43054402 1.2375621
1.24462 -0.44094002 1.234804
1.21996 -0.42900699 1.232609
1.2296 -0.43094701 1.2302541
1.2411599 -0.44135502 1.2265381
1.21917 -0.42859599 1.2254001
1.22788 -0.430731 1.222972
1.2446901 -0.44161901 1.217453
1.2208101 -0.42724201 1.217813
1.22919 -0.430141 1.213943
1.2406 -0.44739497 1.2109311
1.2283599 -0.43085602 1.2073151
1.23544 -0.46079201 1.208802
1.2439801 -0.44266602 1.3114661
1.23265 -0.428339 1.3094001
1.23028 -0.43028501 1.29374
1.2271399 -0.43092 1.287786
1.23236 -0.43495998 1.2859921
1.22808 -0.43050998 1.28082
1.2309999 -0.43715099 1.2782561
1.22528 -0.43234003 1.274518
1.2273101 -0.43670601 1.27188
1.23594 -0.441062 1.269357
1.22394 -0.43234101 1.267518
1.2238801 -0.43280801 1.259629
1.2331901 -0.43541598 1.2540721
1.24263 -0.43919799 1.2510761
1.22755 -0.42928398 1.2485369
1.23296 -0.43387002 1.2461661
1.24347 -0.44388101 1.2451119
1.22453 -0.42878699 1.2425331
1.23015 -0.432118 1.2405471
1.2268699 -0.42737901 1.234942
1.2454699 -0.44150397 1.2297831
1.22776 -0.42757499 1.2258
1.24481 -0.44063598 1.221424
1.22357 -0.428321 1.2194301
1.24292 -0.44103 1.2135341
1.224 -0.42737201 1.211745
1.23122 -0.43001202 1.2097981
1.23115 -0.42894 1.2021631
1.2182801 -0.42148998 1.197567
1.23006 -0.42583901 1.1937261
1.23378 -0.43025601 1.3161141
1.22981 -0.43177301 1.3092111
1.24484 -0.43193802 1.3036571
1.22543 -0.43502301 1.296463
1.23733 -0.43229598 1.2839011
1.1667401 -0.43650201 1.3067991
1.22208 -0.432823 1.277423
1.22773 -0.43089598 1.266963
1.23979 -0.458193 1.264706
1.22676 -0.43055999 1.259637
1.23747 -0.43119499 1.252681
1.24027 -0.43967801 1.254752
1.22733 -0.42929101 1.2520961
1.23656 -0.43051103 1.2463051
1.2419699 -0.43973202 1.245898
1.2275801 -0.42899299 1.2449241
1.23932 -0.43090099 1.238181
1.24391 -0.44036901 1.237581
1.22735 -0.42895401 1.237574
1.23867 -0.428918 1.230267
1.24199 -0.438591 1.231333
1.2302201 -0.42613801 1.2288921
1.2385501 -0.42719701 1.2235811
1.24336 -0.434165 1.223235
1.23957 -0.42911398 1.216858
1.2401299 -0.45252401 1.219126
1.22881 -0.42629799 1.2137281
1.23908 -0.42861599 1.209632
1.22537 -0.42573798 1.208276
1.23362 -0.42766398 1.2052851
1.23434 -0.42738202 1.198017
1.2515399 -0.44110098 1.314939
1.22911 -0.43105203 1.313536
1.23067 -0.43206501 1.305961
1.2462001 -0.43442699 1.296761
1.2371299 -0.43121102 1.2936161
1.2344 -0.431274 1.2871921
1.2411901 -0.43442699 1.284857
1.23698 -0.43053398 1.27898
1.24072 -0.461292 1.27837
1.2345099 -0.43012699 1.2725661
1.25006 -0.44167098 1.2675221
1.232 -0.42939603 1.2659581
1.24196 -0.433319 1.2613431
1.2294 -0.42245099 1.258484
1.23059 -0.42890301 1.259902
1.2404901 -0.43335998 1.2547191
1.22864 -0.420719 1.252694
1.2307 -0.42683202 1.252182
1.23946 -0.43414602 1.2488281
1.2440699 -0.44241002 1.249966
1.22654 -0.42081401 1.2477549
1.23171 -0.42500901 1.243701
1.23586 -0.43247601 1.244805
1.24177 -0.44285199 1.242695
1.22824 -0.42001498 1.2395951
1.2349501 -0.42326802 1.234997
1.22945 -0.41873798 1.2313
1.23113 -0.423852 1.23095
1.21513 -0.423518 1.230948
1.24114 -0.43118301 1.2202771
1.21769 -0.42263499 1.2237411
1.2302999 -0.42493698 1.2175241
1.2178 -0.423466 1.215816
1.2296801 -0.42601299 1.210736
1.2431901 -0.44034699 1.208349
1.21428 -0.42448601 1.2108791
1.2282701 -0.42370498 1.2059951
1.23394 -0.429894 1.203174
1.24365 -0.43922299 1.1995881
1.22812 -0.424348 1.200017
1.23822 -0.42911997 1.194415
1.24898 -0.43725601 1.182912
1.24798 -0.43656701 1.177713
1.2528601 -0.443425 1.318688
1.24616 -0.43474302 1.312601
1.25193 -0.444015 1.3127761
1.23718 -0.428781 1.311316
1.24253 -0.43480301 1.3080239
1.2275599 -0.42707002 1.310307
1.23613 -0.43129903 1.305267
1.2329201 -0.43225601 1.2995981
1.23027 -0.43277901 1.2922599
1.2412 -0.43653402 1.28888
1.22846 -0.433007 1.287389
1.23219 -0.43225202 1.2803241
1.24018 -0.46210802 1.2797661
1.24263 -0.45999101 1.2713051
1.2379 -0.43123502 1.262859
1.24731 -0.43494201 1.25925
1.2373101 -0.43039501 1.255869
1.24388 -0.43466899 1.2537491
1.2349501 -0.43145999 1.2499521
1.24699 -0.435274 1.245298
1.24516 -0.44371399 1.239731
1.2309101 -0.43262601 1.238286
1.2442601 -0.43444002 1.2260231
1.24072 -0.45404398 1.2293601
1.23444 -0.43060601 1.2213991
1.24198 -0.452384 1.2222869
1.22984 -0.42930198 1.217106
1.23197 -0.42771199 1.2099341
1.21813 -0.426507 1.2090341
1.23086 -0.42846 1.204111
1.2421499 -0.45174801 1.1995641
1.23578 -0.45846501 1.203492
1.15487 -0.406744 1.2580031
1.1603299 -0.404926 1.242694
1.1600801 -0.40243801 1.223233
1.15747 -0.41804799 1.306344
1.15749 -0.41342202 1.2999071
1.15237 -0.41660702 1.296765
1.16044 -0.41259202 1.2927721
1.1535 -0.41649202 1.290688
1.15965 -0.41312599 1.2854871
1.15944 -0.41364601 1.279303
1.15432 -0.409035 1.2517481
1.1597899 -0.40518102 1.241907
1.15176 -0.419148 1.307162
1.1605899 -0.413367 1.29983
1.16308 -0.41525102 1.2903011
1.15903 -0.41303003 1.2856179
1.17281 -0.43869999 1.261026
1.1639 -0.41509101 1.2771111
1.17326 -0.43995997 1.256937
1.17257 -0.439888 1.2524691
1.17056 -0.43718898 1.2472481
1.17004 -0.44312698 1.201689
1.15905 -0.41733003 1.295719
1.16159 -0.415225 1.289152
1.16831 -0.41091597 1.286806
1.1619999 -0.414713 1.2815961
1.1602 -0.413028 1.2542
1.20681 -0.42330399 1.298182
1.1560299 -0.421929 1.306251
1.16548 -0.41654399 1.2898771
1.20154 -0.420535 1.268481
1.20319 -0.420948 1.261731
1.2000099 -0.41949502 1.2569261
1.1549801 -0.407244 1.190677
1.23954 -0.42232102 1.306756
1.23831 -0.41861999 1.303923
1.23367 -0.426074 1.3009491
1.2321399 -0.425825 1.295959
1.22114 -0.42567101 1.2844172
1.22711 -0.42772999 1.287788
1.22697 -0.41525599 1.283089
1.21776 -0.42530301 1.276404
1.2225499 -0.42761299 1.277524
1.20947 -0.42302898 1.267598
1.21547 -0.42531201 1.268069
1.22251 -0.42698398 1.2699521
1.2051899 -0.42307702 1.258945
1.21624 -0.42290002 1.261731
1.21919 -0.42745399 1.2611951
1.2110801 -0.410236 1.257862
1.20127 -0.42152402 1.250216
1.2149299 -0.42163798 1.2545201
1.22093 -0.42535901 1.252964
1.21737 -0.42145699 1.2476751
1.22234 -0.42411202 1.245393
1.21286 -0.42209899 1.238978
1.21652 -0.42660198 1.23527
1.2096701 -0.42237499 1.228723
1.21542 -0.42895499 1.2256751
1.21114 -0.42567003 1.219192
1.21943 -0.430509 1.2174431
1.20803 -0.42366299 1.2122791
1.2246701 -0.42479402 1.3145571
1.2257199 -0.43014598 1.313728
1.2278501 -0.43436599 1.3129269
1.21575 -0.42730799 1.303069
1.22683 -0.43348703 1.306125
1.21409 -0.42469299 1.294297
1.2228 -0.42837501 1.2987571
1.2032 -0.42254299 1.2851629
1.20877 -0.425107 1.287322
1.21571 -0.429268 1.2886931
1.19859 -0.42223203 1.277048
1.2105401 -0.42398 1.2813439
1.2232499 -0.42728099 1.283569
1.22655 -0.43215698 1.2835519
1.19585 -0.421949 1.2699131
1.2068599 -0.42259997 1.272557
1.2177501 -0.427228 1.273872
1.22764 -0.43007198 1.2773581
1.1984401 -0.420966 1.2632949
1.2098 -0.42389899 1.2653871
1.22383 -0.42462102 1.268676
1.22486 -0.430237 1.2680031
1.2040499 -0.42430499 1.2554761
1.22166 -0.42554799 1.2611591
1.22429 -0.43098599 1.2604401
1.2024 -0.423886 1.246279
1.21808 -0.42495999 1.2516141
1.22526 -0.42929 1.2541701
1.2030101 -0.42271802 1.239372
1.21313 -0.42588797 1.242139
1.22218 -0.42917901 1.244168
1.20778 -0.42289299 1.234271
1.21956 -0.42508 1.237697
1.22083 -0.430354 1.23447
1.20763 -0.421437 1.226526
1.21759 -0.42548198 1.229822
1.2219 -0.42978802 1.226899
1.21886 -0.424759 1.221416
1.22118 -0.431283 1.2193711
1.2154 -0.425731 1.211356
1.22316 -0.43191701 1.211761
1.18837 -0.41064498 1.192494
1.22367 -0.41992199 1.182363
1.2295899 -0.432556 1.3192489
1.2301 -0.43195203 1.3111991
1.23253 -0.430381 1.3060479
1.23172 -0.43019903 1.3001131
1.23294 -0.43699101 1.296832
1.2263401 -0.42514703 1.290657
1.23288 -0.42862999 1.29261
1.23276 -0.438039 1.2895501
1.2275701 -0.42499101 1.2840921
1.23254 -0.43052199 1.2849771
1.2252101 -0.425446 1.275609
1.2322299 -0.429268 1.2767611
1.2303901 -0.438559 1.274224
1.2294101 -0.42302102 1.269722
1.23045 -0.42877498 1.2690221
1.23281 -0.43604302 1.268541
1.22469 -0.42460099 1.260668
1.23084 -0.42850101 1.261611
1.23123 -0.43845502 1.259444
1.2252101 -0.42389402 1.253463
1.23341 -0.42588601 1.255306
1.23224 -0.43439201 1.2533799
1.2235501 -0.424099 1.24546
1.2276 -0.428859 1.245811
1.22578 -0.422602 1.238867
1.22838 -0.42762199 1.238718
1.22163 -0.42355701 1.2303621
1.22376 -0.429362 1.229377
1.21986 -0.42273301 1.2230611
1.2255501 -0.42566201 1.2218499
1.22795 -0.43436101 1.221406
1.22609 -0.42683497 1.2139341
1.22974 -0.42398301 1.208788
1.2306401 -0.43346599 1.20662
1.2279299 -0.42481801 1.201288
1.20479 -0.42912701 1.307063
1.21991 -0.43032199 1.312822
1.21804 -0.43000197 1.3050909
1.22774 -0.434798 1.308778
1.2285399 -0.43554002 1.3021981
1.19548 -0.431225 1.28181
1.22583 -0.43555802 1.2849811
1.2219501 -0.43515 1.276237
1.23487 -0.44092602 1.273587
1.21264 -0.43023202 1.260156
1.22803 -0.434764 1.262611
1.23102 -0.44313598 1.26369
1.22566 -0.43175498 1.256114
1.21679 -0.427836 1.246398
1.22814 -0.43486401 1.249297
1.20546 -0.42587003 1.2364421
1.2183599 -0.42645302 1.240441
1.2220501 -0.43332198 1.240555
1.20499 -0.425125 1.2273771
1.2189 -0.42707297 1.2341501
1.2292299 -0.43299499 1.236815
1.21435 -0.42720002 1.2243201
1.2272201 -0.43252602 1.229773
1.20777 -0.42723203 1.2136681
1.22632 -0.43217099 1.2219681
1.22744 -0.43127701 1.214396
1.2355 -0.42873502 1.1922361
1.21264 -0.41395 1.1818471
1.21446 -0.42571399 1.314997
1.21103 -0.42599702 1.3061349
1.22384 -0.42861599 1.3109131
1.2481999 -0.43778598 1.3165649
1.20863 -0.425868 1.298511
1.21821 -0.428253 1.3030161
1.23133 -0.43293399 1.305843
1.24366 -0.43965697 1.307843
1.25419 -0.44216499 1.3111219
1.2202899 -0.42852297 1.2961041
1.24481 -0.44103 1.301725
1.2079901 -0.42583501 1.286713
1.2196801 -0.42800799 1.288219
1.2310801 -0.433433 1.2918581
1.21189 -0.42557099 1.2796431
1.22588 -0.4289 1.2841361
1.21009 -0.424404 1.270932
1.22032 -0.428404 1.275273
1.23544 -0.433929 1.2809551
1.20792 -0.42417499 1.264055
1.21596 -0.42749199 1.2666141
1.2318 -0.433209 1.271989
1.23523 -0.44129199 1.270156
1.2078 -0.42497599 1.257205
1.22412 -0.42807999 1.2628371
1.20882 -0.423857 1.2496871
1.21849 -0.42697799 1.2545561
1.22842 -0.43360001 1.256947
1.20709 -0.42408699 1.242614
1.21787 -0.427203 1.2468791
1.2318599 -0.43364799 1.250213
1.21322 -0.42317402 1.237864
1.22498 -0.42779201 1.241675
1.2313 -0.43531898 1.2433181
1.21307 -0.42264402 1.22921
1.2201899 -0.42643902 1.2334801
1.2291 -0.43404701 1.2350571
1.22365 -0.42579499 1.227071
1.22912 -0.43315101 1.227823
1.21365 -0.424831 1.215348
1.23009 -0.432448 1.220844
1.2232701 -0.42578399 1.211929
1.2219599 -0.423363 1.204282
1.23281 -0.432273 1.208276
1.2323101 -0.42930302 1.201254
1.2197599 -0.465682 1.1811321
1.1643801 -0.44863901 1.3117959
1.1791201 -0.47009301 1.3044951
1.17352 -0.46025002 1.2829499
1.17322 -0.45995098 1.2770441
1.17252 -0.46662199 1.273038
1.1712101 -0.461757 1.272032
1.17721 -0.444662 1.242756
1.17641 -0.44897997 1.233482
1.17943 -0.40061 1.1944641
1.1646399 -0.45660099 1.2048711
1.16502 -0.45732102 1.197877
1.17054 -0.465756 1.1834561
1.16998 -0.47583801 1.179268
1.17032 -0.46592999 1.1776251
1.16931 -0.464524 1.171194
1.1643 -0.45708901 1.3127
1.16184 -0.44802102 1.3106641
1.1673 -0.44859698 1.297137
1.1702 -0.469776 1.2952781
1.16827 -0.464313 1.2939011
1.16808 -0.46961603 1.2887741
1.16915 -0.46278399 1.2876171
1.16852 -0.45645499 1.2853491
1.17277 -0.44871497 1.2804791
1.1708 -0.46877202 1.280789
1.1670899 -0.46478599 1.2822161
1.1707599 -0.45507899 1.2776221
1.1710601 -0.448982 1.274848
1.1686699 -0.46896899 1.275323
1.16835 -0.46271598 1.275139
1.1689601 -0.45509398 1.271526
1.16945 -0.46268502 1.2683821
1.1689399 -0.45625302 1.264649
1.17154 -0.46744099 1.259061
1.16957 -0.46313801 1.261572
1.16548 -0.45840698 1.260492
1.16387 -0.45781201 1.256001
1.16505 -0.45241797 1.2524631
1.1628801 -0.465242 1.231963
1.16289 -0.45793 1.229005
1.16408 -0.464715 1.224987
1.1646399 -0.45550099 1.220716
1.17004 -0.44172099 1.2133321
1.16383 -0.45393002 1.213966
1.1614499 -0.46779999 1.2119231
1.1599801 -0.46063301 1.211203
1.1617501 -0.45763198 1.2032371
1.17575 -0.39978901 1.185744
1.1581 -0.45686799 1.19877
1.16113 -0.44568801 1.1939751
1.2029099 -0.483937 1.176333
1.16556 -0.46535701 1.187778
1.16598 -0.43335 1.182587
1.17159 -0.47149 1.1812661
1.16816 -0.464313 1.180799
1.1672699 -0.46374598 1.175427
1.16328 -0.44824901 1.3184481
1.1690899 -0.44032001 1.2982361
1.16774 -0.450241 1.2947661
1.16791 -0.453623 1.2875071
1.17015 -0.45746899 1.281391
1.1679699 -0.45353001 1.280055
1.17155 -0.45773998 1.2735651
1.16948 -0.45864102 1.2675191
1.17782 -0.44180501 1.2547309
1.1776201 -0.440561 1.248367
1.17187 -0.44738498 1.2457299
1.17918 -0.438959 1.2346271
1.1659 -0.44744301 1.209829
1.16289 -0.44715101 1.1989421
1.1579 -0.440642 1.1993181
1.16925 -0.41591203 1.190233
1.16012 -0.44099399 1.19289
1.16524 -0.42054901 1.185605
1.17337 -0.465159 1.1815441
1.1603 -0.439861 1.185577
1.16854 -0.44898102 1.3156661
1.16571 -0.44191301 1.299998
1.1700801 -0.441208 1.291712
1.17278 -0.45625401 1.2854471
1.17102 -0.44143599 1.2844901
1.17389 -0.43872797 1.276262
1.16792 -0.44279599 1.273199
1.16931 -0.439987 1.2659941
1.17345 -0.434145 1.263064
1.1677899 -0.44208899 1.2615911
1.17303 -0.434598 1.256598
1.16809 -0.44238499 1.254775
1.1734101 -0.43345401 1.2499549
1.17672 -0.428583 1.248338
1.16688 -0.44036701 1.248703
1.1471801 -0.45475301 1.234167
1.16749 -0.409832 1.186408
1.1763901 -0.42759401 1.265754
1.16497 -0.44068298 1.265475
1.18032 -0.42502999 1.257944
1.15876 -0.44748902 1.263491
1.1644599 -0.44315299 1.2592551
1.1651599 -0.43636298 1.260408
1.1762999 -0.42712298 1.2536451
1.1633201 -0.44869098 1.256083
1.1653501 -0.44461301 1.2532361
1.16642 -0.43600601 1.2526699
1.17612 -0.42619598 1.247187
1.16216 -0.444235 1.249194
1.16212 -0.436452 1.247701
1.15465 -0.45496601 1.2500861
1.16168 -0.436739 1.243119
1.1593499 -0.43803102 1.2392939
1.16263 -0.436371 1.230343
1.1824501 -0.41918701 1.21772
1.16189 -0.44481099 1.2251111
1.17887 -0.41745499 1.213066
1.16189 -0.44368899 1.21778
1.16278 -0.43368098 1.21653
1.1612101 -0.45302898 1.201262
1.1554101 -0.43548098 1.201339
1.1724601 -0.461685 1.186964
1.15864 -0.442864 1.1945931
1.16748 -0.45979899 1.184633
1.17146 -0.45929798 1.1756901
1.15783 -0.445315 1.1838051
1.26521 -0.47699901 1.306524
1.26658 -0.47199601 1.301572
1.2661901 -0.47646302 1.301185
1.2683001 -0.47158 1.2960049
1.26191 -0.476704 1.2937311
1.26396 -0.47628501 1.2869071
1.2653199 -0.47139001 1.2812281
1.25914 -0.477667 1.2793381
1.26129 -0.467996 1.271456
1.2644 -0.47464699 1.2751191
1.2598001 -0.480407 1.2727851
1.24107 -0.45881301 1.257365
1.2612799 -0.473277 1.266644
1.2574199 -0.48098999 1.263769
1.25686 -0.46647 1.2570961
1.25494 -0.47639099 1.25696
1.25728 -0.46564499 1.2514451
1.25688 -0.472828 1.251315
1.25349 -0.47483003 1.2435369
1.2437 -0.48365101 1.239289
1.24807 -0.477256 1.234578
1.2573 -0.47367901 1.2322351
1.21068 -0.428572 1.204931
1.25484 -0.46647599 1.2216771
1.25552 -0.47469199 1.224961
1.24365 -0.48348498 1.218905
1.25245 -0.476282 1.2156531
1.25916 -0.46500501 1.209805
1.26051 -0.46534401 1.203812
1.26449 -0.46553001 1.198724
1.26253 -0.465608 1.1910861
1.26924 -0.483518 1.180389
1.26995 -0.48624802 1.1750391
1.25904 -0.48025 1.3118111
1.26375 -0.47353899 1.3084331
1.2547799 -0.466207 1.296721
1.25704 -0.48040599 1.297605
1.25629 -0.466409 1.28391
1.2575901 -0.479855 1.285085
1.26293 -0.47404599 1.2809801
1.25855 -0.47959399 1.277986
1.2590899 -0.467554 1.2706211
1.2612799 -0.47364601 1.273957
1.25621 -0.48006001 1.270314
1.2579 -0.467163 1.263916
1.26012 -0.47292 1.2658811
1.25868 -0.47958601 1.264182
1.26072 -0.468124 1.258785
1.2600701 -0.47398201 1.259518
1.25653 -0.47991002 1.257323
1.2579 -0.467513 1.25071
1.2611001 -0.473546 1.252956
1.25475 -0.48010501 1.249768
1.25893 -0.46722901 1.2445351
1.2585 -0.47417 1.2454561
1.2551301 -0.48026797 1.2429941
1.25608 -0.47219199 1.2374541
1.25414 -0.48045501 1.2356011
1.25358 -0.46581298 1.2290441
1.25849 -0.47457802 1.231627
1.25209 -0.48114899 1.2274921
1.25616 -0.47383401 1.2232051
1.25693 -0.48114398 1.223254
1.2442299 -0.484945 1.2180001
1.22348 -0.44393903 1.1992061
1.25481 -0.46981603 1.214602
1.2551999 -0.479929 1.216035
1.2582 -0.47215599 1.2030751
1.25588 -0.46329102 1.194507
1.25765 -0.48438302 1.189486
1.24904 -0.493047 1.17897
1.25802 -0.47926 1.314523
1.258 -0.47407001 1.3051901
1.25464 -0.46680999 1.2956131
1.2549701 -0.48082501 1.291795
1.25457 -0.46720901 1.281725
1.2582901 -0.47422501 1.2859759
1.25386 -0.48086399 1.2786011
1.25718 -0.47444302 1.2709801
1.25559 -0.467639 1.262372
1.25492 -0.47442201 1.262368
1.2527 -0.48244703 1.263956
1.25446 -0.48107898 1.2578701
1.25641 -0.473777 1.2500399
1.2467999 -0.48077202 1.2478089
1.25552 -0.46765801 1.2408741
1.2542 -0.47437 1.242866
1.24893 -0.48163101 1.241577
1.25439 -0.46706402 1.2343479
1.2524099 -0.47187197 1.234345
1.24852 -0.48063999 1.234095
1.25579 -0.46829101 1.2292731
1.25463 -0.474181 1.228446
1.2540001 -0.48103002 1.227883
1.25673 -0.469598 1.22168
1.25713 -0.476073 1.22341
1.25413 -0.48220903 1.2216591
1.24351 -0.48650399 1.2164011
1.2512001 -0.46507198 1.209666
1.25776 -0.47585601 1.2168061
1.25665 -0.47732103 1.309015
1.25585 -0.47536099 1.301797
1.2549701 -0.48018903 1.2954531
1.25349 -0.47424302 1.2871451
1.2557399 -0.48129398 1.28843
1.25676 -0.48122397 1.2814621
1.2563601 -0.475997 1.274354
1.2543499 -0.48093101 1.272251
1.25573 -0.48197702 1.265388
1.23859 -0.45692402 1.250576
1.25582 -0.47769797 1.260283
1.2538301 -0.48189601 1.257912
1.25423 -0.47634301 1.253064
1.2538201 -0.48152199 1.250636
1.2525001 -0.47480702 1.244216
1.25114 -0.481269 1.242413
1.23174 -0.450416 1.224462
1.2541699 -0.47787201 1.238307
1.25181 -0.48203301 1.235809
1.25164 -0.476147 1.230665
1.25263 -0.482198 1.229056
1.25102 -0.47577801 1.223076
1.24945 -0.475564 1.214902
1.2543399 -0.47907698 1.1946681
1.25614 -0.48416197 1.187824
1.25036 -0.475023 1.2904181
1.2505001 -0.47499198 1.28282
1.2075 -0.42741698 1.209196
1.2499501 -0.47471198 1.232233
1.21137 -0.43043098 1.2038281
1.24019 -0.47815499 1.221678
1.23975 -0.480647 1.2157761
1.23728 -0.45585603 1.202063
1.24638 -0.48460701 1.1865081
1.2046 -0.46749401 1.248004
1.2065799 -0.42851299 1.23034
1.20455 -0.42721698 1.218555
1.21486 -0.42393199 1.2487381
1.20916 -0.42941001 1.241161
1.21701 -0.421543 1.2451741
1.21606 -0.421801 1.240072
1.20907 -0.42546397 1.2308841
1.2051799 -0.425861 1.2145281
1.2082599 -0.42392102 1.2108541
1.21489 -0.43150398 1.30567
1.21726 -0.430188 1.3017371
1.21887 -0.42921501 1.2972721
1.21349 -0.429324 1.288028
1.20632 -0.425374 1.2796921
1.205 -0.42494598 1.2474941
1.20509 -0.42387101 1.24238
1.20567 -0.423702 1.237642
1.20047 -0.43089902 1.3034511
1.21252 -0.42473203 1.303188
1.21164 -0.42532599 1.297346
1.20028 -0.42573202 1.2306441
1.1910399 -0.412826 1.192409
1.2530999 -0.44195202 1.315817
1.25525 -0.450798 1.3149121
1.25938 -0.44960603 1.2980291
1.25455 -0.45589101 1.3012539
1.25703 -0.45585099 1.294245
1.25318 -0.46153599 1.295531
1.26194 -0.45009699 1.282747
1.25445 -0.456999 1.2886341
1.25489 -0.462731 1.288323
1.2614601 -0.45709899 1.277776
1.2542701 -0.46255901 1.2829181
1.2597899 -0.455872 1.271067
1.25729 -0.46171901 1.274366
1.2631199 -0.456954 1.263271
1.25995 -0.46181801 1.26508
1.25947 -0.44885501 1.2581121
1.26109 -0.45669997 1.257641
1.25888 -0.46225202 1.258806
1.26192 -0.45716801 1.2507471
1.25861 -0.46219003 1.25231
1.24415 -0.43642798 1.2506331
1.2608399 -0.44792801 1.24423
1.2602301 -0.45675701 1.2449729
1.2578501 -0.46245497 1.246466
1.25915 -0.449532 1.239614
1.2586 -0.457019 1.237972
1.2573301 -0.45743501 1.232247
1.25981 -0.45573398 1.224714
1.26096 -0.44924 1.2178741
1.2625901 -0.45677602 1.217607
1.2621601 -0.44920897 1.2117261
1.26019 -0.45682201 1.2125109
1.2604699 -0.44916499 1.206133
1.26433 -0.44922799 1.197927
1.26059 -0.45627603 1.198902
1.26114 -0.45828998 1.191911
1.2364601 -0.42523602 1.195145
1.26415 -0.45820302 1.1847391
1.26019 -0.46602401 1.186474
1.24406 -0.426433 1.187106
1.26694 -0.45774201 1.1773911
1.27034 -0.457068 1.1708031
1.23176 -0.411172 1.1815621
1.25515 -0.44479001 1.3134201
1.2563601 -0.453814 1.3099661
1.25853 -0.45390701 1.3020309
1.25446 -0.450288 1.298403
1.25677 -0.46013302 1.2967221
1.25481 -0.45484403 1.2913611
1.25365 -0.46301702 1.292008
1.2581401 -0.45458099 1.255761
1.2556701 -0.45396399 1.250922
1.2564601 -0.45505601 1.2440511
1.25696 -0.45399398 1.237031
1.25573 -0.45492101 1.2296851
1.2611699 -0.44717398 1.2209671
1.25904 -0.45479599 1.221881
1.2616 -0.445997 1.214321
1.26054 -0.452701 1.216037
1.25876 -0.452851 1.209599
1.2562699 -0.45343 1.20236
1.25936 -0.45426899 1.1941631
1.26131 -0.45559201 1.187554
1.22667 -0.405485 1.1849511
1.25218 -0.42983699 1.173534
1.23184 -0.40945598 1.1780419
1.24322 -0.420008 1.17252
1.2548001 -0.44364399 1.3186591
1.2597699 -0.45180801 1.31236
1.2572 -0.44645101 1.3099151
1.2586 -0.45332402 1.3064691
1.25834 -0.448091 1.3022461
1.25658 -0.45375702 1.300221
1.25677 -0.44828901 1.2957251
1.2546901 -0.45443198 1.293267
1.25666 -0.45417598 1.2847
1.2538301 -0.46120998 1.287012
1.26038 -0.455313 1.275744
1.26021 -0.45525798 1.269781
1.25554 -0.45227 1.267195
1.25732 -0.45969898 1.26515
1.25692 -0.45300302 1.2598461
1.2552301 -0.45131901 1.238258
1.25472 -0.45265901 1.23256
1.2450299 -0.43545398 1.2332671
1.2549601 -0.45329601 1.2175081
1.2571701 -0.45229399 1.2105591
1.2582901 -0.45329499 1.1968471
1.2399299 -0.425484 1.1929761
1.25458 -0.442379 1.18744
1.25887 -0.45476699 1.1826811
1.2537 -0.43182701 1.174875
1.23979 -0.41265097 1.177392
1.24754 -0.42123798 1.172505
1.26142 -0.455015 1.312556
1.26229 -0.461613 1.308676
1.25923 -0.45242101 1.3049001
1.26184 -0.460731 1.303002
1.25649 -0.448201 1.29977
1.25614 -0.457984 1.2990761
1.25877 -0.449442 1.292536
1.26006 -0.45853901 1.289644
1.2537301 -0.46591702 1.29241
1.26199 -0.45238 1.2831022
1.25841 -0.46138099 1.2841752
1.2654099 -0.45348999 1.274435
1.2648101 -0.46082601 1.275696
1.2589 -0.467289 1.277137
1.26199 -0.450537 1.2694581
1.2638401 -0.460691 1.2697841
1.25922 -0.466883 1.270023
1.26222 -0.45018601 1.2623961
1.2617401 -0.45958802 1.26214
1.2602201 -0.46656501 1.26247
1.26298 -0.452833 1.255493
1.26425 -0.46156299 1.2524481
1.25903 -0.46521801 1.256898
1.26473 -0.456099 1.2472701
1.26081 -0.46162498 1.2475541
1.26403 -0.46732798 1.247732
1.26404 -0.45536801 1.2412571
1.26103 -0.46058601 1.2416321
1.26366 -0.45587799 1.23466
1.2615499 -0.46020499 1.234678
1.2571499 -0.464616 1.2359101
1.2615 -0.457039 1.22923
1.26138 -0.462477 1.2269599
1.26161 -0.45832402 1.221199
1.26333 -0.45860401 1.2140161
1.26161 -0.45839 1.2083811
1.25968 -0.462782 1.2065409
1.2609 -0.46365002 1.199491
1.26149 -0.45703802 1.19376
1.26142 -0.46254298 1.192806
1.2635 -0.45571098 1.185783
1.2635399 -0.46374199 1.184
1.25017 -0.43906102 1.184901
1.25115 -0.43684399 1.179144
1.22482 -0.405415 1.181771
1.2275801 -0.40661401 1.1770179
1.25556 -0.45467201 1.311686
1.2594399 -0.455208 1.302544
1.25913 -0.44991699 1.29844
1.26013 -0.45705602 1.29488
1.2574401 -0.45033401 1.2915469
1.26167 -0.45744899 1.285935
1.26153 -0.45165402 1.2817
1.25904 -0.45571998 1.279511
1.25499 -0.45926499 1.283614
1.25993 -0.45561799 1.271615
1.25603 -0.459674 1.27549
1.26142 -0.45651901 1.2651311
1.25721 -0.460421 1.2668041
1.25782 -0.454227 1.260311
1.25626 -0.460574 1.260157
1.24317 -0.43202099 1.2637249
1.26064 -0.45598301 1.2511461
1.2584701 -0.46220002 1.2518401
1.24582 -0.43468499 1.257592
1.26188 -0.45970401 1.2440341
1.25851 -0.44875401 1.236974
1.25769 -0.45661598 1.238772
1.25773 -0.46320701 1.2396511
1.24564 -0.43526599 1.2384331
1.25695 -0.45466802 1.230919
1.24538 -0.43452999 1.234586
1.26057 -0.45830601 1.2219471
1.24371 -0.43392101 1.231927
1.25914 -0.45200101 1.2170891
1.2526001 -0.46638301 1.217527
1.25995 -0.45831299 1.208815
1.26399 -0.46046001 1.2000511
1.2558999 -0.46474302 1.2042191
1.23234 -0.41999999 1.2110831
1.26583 -0.45691699 1.1946541
1.26169 -0.46293399 1.1937581
1.2645301 -0.45837602 1.1865311
1.26059 -0.46417901 1.186532
