# .PCD v0.7 - Point Cloud Data file format
VERSION 0.7
FIELDS x y z
SIZE 4 4 4
TYPE F F F
COUNT 1 1 1
WIDTH 804
HEIGHT 1
VIEWPOINT 0 0 0 1 0 0 0
POINTS 804
DATA ascii
1.1439099 -0.26559201 2.4132299
1.1457499 -0.250936 2.4016101
1.13397 -0.28833801 2.3286099
1.131 -0.31075898 2.3165798
1.1805201 -0.30316499 2.2797298
1.1803299 -0.30677602 2.2761002
1.18682 -0.303285 2.2820501
1.12753 -0.25490201 2.3982301
1.15127 -0.26256001 2.3361301
1.12752 -0.304059 2.2845502
1.1321499 -0.30790898 2.2632599
1.13332 -0.31698298 2.2416101
1.13141 -0.325596 2.23332
1.1293399 -0.25754499 2.39375
1.15127 -0.23354 2.3939402
1.13446 -0.255097 2.3681703
1.13003 -0.27898601 2.31991
1.11957 -0.313705 2.2866001
1.12459 -0.299887 2.2859499
1.12257 -0.30788001 2.2765501
1.11972 -0.33000001 2.26914
1.119 -0.32283601 2.2676001
1.1268699 -0.30820999 2.2661002
1.133 -0.29986998 2.2665899
1.12287 -0.33546397 2.2520599
1.13065 -0.311443 2.24564
1.13201 -0.31394601 2.23469
1.14943 -0.30941701 2.24207
1.16117 -0.305006 2.25194
1.12852 -0.257449 2.3938198
1.13414 -0.24613199 2.37609
1.12939 -0.25340798 2.3629901
1.13565 -0.247041 2.3638601
1.1232901 -0.28674299 2.3119102
1.12246 -0.29810101 2.2904198
1.12754 -0.29089701 2.2905898
1.11862 -0.30522001 2.27461
1.12278 -0.29864401 2.28052
1.1290001 -0.29177299 2.2768798
1.12229 -0.31020099 2.25635
1.12323 -0.33181801 2.24844
1.1272399 -0.315227 2.23841
1.12137 -0.32974201 2.2341299
1.12723 -0.31633198 2.2274499
1.18628 -0.30401501 2.2707701
1.1288201 -0.24177499 2.3830302
1.1258 -0.25187999 2.3736498
1.1289001 -0.244104 2.37186
1.1359401 -0.23873699 2.3744102
1.12684 -0.25757602 2.3645401
1.13228 -0.24797601 2.3645098
1.13272 -0.24938601 2.3515201
1.15986 -0.25475201 2.3414099
1.12161 -0.281692 2.3087602
1.12889 -0.273096 2.3082199
1.12203 -0.28536302 2.2978501
1.12982 -0.27789602 2.3007901
1.16643 -0.26104099 2.3308899
1.11902 -0.29275399 2.2897501
1.1174999 -0.29974702 2.28247
1.12432 -0.29576299 2.28052
1.11931 -0.30504501 2.27055
1.12317 -0.29785299 2.2656798
1.13394 -0.29414099 2.26299
1.17428 -0.27672899 2.2785602
1.12082 -0.310588 2.2356701
1.11852 -0.32876599 2.2369101
1.12147 -0.31459498 2.2259099
1.13651 -0.30000299 2.2318301
1.1702 -0.203604 2.4126198
1.17476 -0.21118701 2.40957
1.1782299 -0.217833 2.4119298
1.17301 -0.22511101 2.38539
1.16247 -0.234478 2.3495901
1.1831601 -0.276564 2.3377802
1.18569 -0.28452599 2.3357801
1.16169 -0.24077801 2.3348501
1.15757 -0.24393299 2.3259301
1.17634 -0.266864 2.3155499
1.18317 -0.27598602 2.3128703
1.18365 -0.28566501 2.3172102
1.1753299 -0.26672101 2.3036301
1.18231 -0.28608599 2.3051002
1.1760501 -0.27016398 2.2894602
1.18341 -0.29574302 2.2775698
1.1813999 -0.29229602 2.24862
1.18312 -0.29831302 2.25383
1.17729 -0.30458599 2.2317998
1.17577 -0.20877101 2.42138
1.15581 -0.20861201 2.40224
1.15347 -0.23197299 2.3536701
1.18071 -0.25866401 2.32741
1.16162 -0.24337 2.3357501
1.15716 -0.24572201 2.32551
1.1503501 -0.250047 2.3195503
1.17529 -0.27025101 2.29704
1.1552501 -0.25732699 2.3023801
1.17345 -0.27251199 2.28513
1.17505 -0.276048 2.27279
1.17916 -0.28281501 2.2686002
1.13276 -0.26087901 2.30323
1.15818 -0.29053101 2.2415099
1.18046 -0.230139 2.39814
1.1524401 -0.209704 2.3949099
1.18968 -0.238307 2.35744
1.15543 -0.218703 2.38186
1.19024 -0.24282199 2.34167
1.1524501 -0.22319099 2.3703201
1.18791 -0.25278899 2.3338001
1.15589 -0.22940399 2.35341
1.18162 -0.26017499 2.3293099
1.1569999 -0.235292 2.3394101
1.1566501 -0.23791401 2.32354
1.14894 -0.23979001 2.3206
1.15453 -0.24475901 2.31586
1.17317 -0.26468599 2.2985401
1.15793 -0.256165 2.3008401
1.1751 -0.27345899 2.2859702
1.14547 -0.24232401 2.2917902
1.14837 -0.248959 2.2889299
1.12581 -0.27478901 2.3001101
1.1777999 -0.228617 2.4049599
1.15786 -0.20549101 2.4118798
1.18515 -0.26143399 2.3387899
1.1589 -0.23742701 2.3426101
1.17979 -0.265044 2.30795
1.17998 -0.27487302 2.3122501
1.18398 -0.280797 2.3067701
1.1504101 -0.24611001 2.3272202
1.17232 -0.263477 2.30216
1.1777999 -0.27475101 2.2994699
1.17976 -0.283131 2.29422
1.15021 -0.25006101 2.3162301
1.18329 -0.28471002 2.2740302
1.15581 -0.263648 2.2780499
1.18248 -0.29400298 2.2567801
1.17914 -0.21373101 2.41238
1.17883 -0.222572 2.41733
1.1743599 -0.23325799 2.4082401
1.18874 -0.24870101 2.3429801
1.1879001 -0.258636 2.3454599
1.18457 -0.267708 2.3489902
1.1876999 -0.25087798 2.3318899
1.19075 -0.260052 2.33114
1.18738 -0.26932999 2.33588
1.18181 -0.27258 2.3167002
1.18319 -0.282105 2.31638
1.17228 -0.253102 2.3123801
1.1770301 -0.26185399 2.3027802
1.1775299 -0.273276 2.30723
1.17611 -0.27305201 2.2935801
1.17626 -0.28491199 2.2981601
1.17301 -0.27109501 2.28301
1.17716 -0.28395399 2.2793601
1.15364 -0.24917901 2.2874701
1.1449 -0.24943501 2.2867098
1.15342 -0.264994 2.2764902
1.16557 -0.275105 2.2655001
1.17922 -0.30335101 2.25315
1.1428399 -0.256513 2.28262
1.14644 -0.266736 2.27618
1.17844 -0.304858 2.2398102
1.1740201 -0.29759398 2.2346201
1.14984 -0.297382 2.2333498
1.1384799 -0.20965999 2.4219501
1.1445099 -0.208207 2.4186099
1.14255 -0.211024 2.4125602
1.1739299 -0.25767499 2.4207699
1.16943 -0.252904 2.41798
1.12975 -0.218752 2.3996801
1.1336 -0.24374099 2.36742
1.1342601 -0.25050801 2.3629599
1.13325 -0.24993901 2.3578401
1.12988 -0.25059998 2.3508599
1.1333699 -0.25157499 2.3391001
1.1300399 -0.25368601 2.33266
1.12626 -0.25874799 2.3270903
1.13516 -0.25321501 2.3296599
1.12755 -0.269777 2.32109
1.1296901 -0.260223 2.3236499
1.13161 -0.26124299 2.31848
1.12658 -0.27582702 2.3097298
1.12503 -0.26785901 2.30901
1.1293499 -0.26167601 2.3111701
1.12752 -0.28359801 2.30651
1.12628 -0.27661502 2.3034501
1.1269001 -0.26771298 2.30474
1.12995 -0.26056802 2.3051801
1.1258999 -0.28429002 2.2998102
1.12514 -0.27695501 2.29831
1.1266301 -0.28530002 2.2941401
1.12468 -0.28879401 2.2888601
1.1319699 -0.26252499 2.29
1.1412899 -0.25136602 2.29159
1.12783 -0.27598801 2.28285
1.13386 -0.270206 2.2848501
1.1375901 -0.26385099 2.2867701
1.13914 -0.27241001 2.2757001
1.12708 -0.293529 2.26615
1.13412 -0.278438 2.2690899
1.14273 -0.273592 2.2716601
1.13107 -0.287983 2.2623401
1.13757 -0.27899998 2.2653701
1.14689 -0.27417299 2.26792
1.15277 -0.27101299 2.2695901
1.1319699 -0.288113 2.2564099
1.13535 -0.280119 2.2584798
1.14931 -0.275011 2.26373
1.15587 -0.271669 2.2653
1.1448001 -0.27646101 2.25651
1.15526 -0.272466 2.2601402
1.12946 -0.30268201 2.2358301
1.15461 -0.29085198 2.2384303
1.12973 -0.216277 2.41431
1.12783 -0.217475 2.40767
1.13543 -0.21094102 2.4109702
1.12851 -0.21719199 2.3964999
1.1268901 -0.223396 2.3901901
1.15513 -0.211661 2.4002199
1.1538501 -0.212703 2.3949802
1.12991 -0.249613 2.3647201
1.12919 -0.252765 2.359
1.12545 -0.251562 2.3514903
1.12327 -0.251715 2.3394201
1.11797 -0.26081499 2.3325698
1.12137 -0.26755199 2.3196499
1.1290799 -0.29493701 2.28456
1.12915 -0.274598 2.2790101
1.1278 -0.292968 2.2700799
1.14063 -0.27613199 2.27263
1.12906 -0.30637601 2.2685502
1.12788 -0.30028799 2.26559
1.1261901 -0.291217 2.26367
1.1301301 -0.28543401 2.26582
1.13437 -0.27768001 2.2656701
1.12463 -0.30015799 2.25964
1.12731 -0.29446399 2.2595999
1.1304699 -0.284738 2.2594101
1.14504 -0.27865601 2.2634702
1.15233 -0.27417299 2.2652802
1.12904 -0.284899 2.25264
1.13833 -0.27948999 2.25578
1.15417 -0.27587 2.2611499
1.16116 -0.27285999 2.2621801
1.12464 -0.289729 2.24772
1.13164 -0.28656501 2.24279
1.13065 -0.31666002 2.2251801
1.13906 -0.203872 2.41975
1.13265 -0.21216699 2.4119601
1.14092 -0.205604 2.4157598
1.13782 -0.207919 2.4077802
1.13028 -0.219042 2.3934
1.15582 -0.21971701 2.3904002
1.15499 -0.23567499 2.3536499
1.15029 -0.23470899 2.3469601
1.16101 -0.238232 2.3452899
1.15947 -0.24627899 2.3345098
1.14248 -0.27164701 2.2766399
1.1229399 -0.2924 2.26846
1.13012 -0.27636102 2.2691202
1.14082 -0.27177799 2.2707102
1.1477101 -0.26973301 2.27263
1.12431 -0.30125201 2.2648599
1.12456 -0.28336099 2.26266
1.13421 -0.27540299 2.2642503
1.14337 -0.27202499 2.2663801
1.14776 -0.26876602 2.2671099
1.12211 -0.30075198 2.2593
1.12409 -0.28403601 2.2560799
1.13056 -0.27738601 2.25773
1.14617 -0.27399099 2.2622499
1.1223301 -0.30023599 2.2545199
1.13755 -0.27853099 2.25441
1.1664801 -0.27411199 2.26212
1.1589199 -0.193423 2.42434
1.1523499 -0.23358801 2.35057
1.15853 -0.23139 2.3531299
1.14798 -0.23397399 2.3436801
1.1596199 -0.23294599 2.34724
1.1541101 -0.23604201 2.33986
1.1490899 -0.24230601 2.3338699
1.1637501 -0.24139601 2.3383701
1.15607 -0.247215 2.33198
1.11691 -0.28749901 2.2802701
1.1207399 -0.29880199 2.2776198
1.11979 -0.29249501 2.2773502
1.11992 -0.29347 2.2729199
1.11914 -0.283205 2.2686999
1.119 -0.29373899 2.2664301
1.12572 -0.27511102 2.2640901
1.1396 -0.27102199 2.2664199
1.15233 -0.26994801 2.2688501
1.1550801 -0.26656699 2.2704501
1.11904 -0.29503599 2.2600203
1.1457599 -0.26887301 2.2620199
1.15765 -0.26876199 2.26491
1.12502 -0.304941 2.25827
1.11823 -0.28248501 2.2497602
1.15335 -0.27247199 2.2594001
1.15948 -0.268727 2.2608099
1.11467 -0.281185 2.24368
1.1196901 -0.284623 2.24055
1.1185601 -0.29345599 2.2284601
1.1460099 -0.28580999 2.2271802
1.15087 -0.199791 2.4180899
1.14985 -0.23618901 2.3506899
1.16041 -0.235488 2.3468101
1.1511799 -0.23901899 2.3389199
1.16407 -0.23856199 2.3418303
1.15914 -0.24429899 2.3366699
1.12514 -0.25993201 2.2963102
1.1264499 -0.26128501 2.2898102
1.12234 -0.28730699 2.2881701
1.13076 -0.26221099 2.2860501
1.11536 -0.27720699 2.2781401
1.12041 -0.27965501 2.2727401
1.136 -0.267537 2.2743399
1.15083 -0.268038 2.2764401
1.1581199 -0.26617 2.2774801
1.11743 -0.27954599 2.2653799
1.14293 -0.26989901 2.2695701
1.15467 -0.26800799 2.2720001
1.12186 -0.290353 2.26387
1.11875 -0.280312 2.2596803
1.13823 -0.27108499 2.2616601
1.15381 -0.26996401 2.26596
1.1228399 -0.282985 2.2539001
1.1412001 -0.27308699 2.2570901
1.14806 -0.26921698 2.2581701
1.12686 -0.30474299 2.2534702
1.11972 -0.282525 2.2477
1.15249 -0.23393601 2.3959799
1.15651 -0.230671 2.3541698
1.1506701 -0.231447 2.34902
1.15942 -0.26653099 2.3478899
1.14677 -0.235356 2.34238
1.15537 -0.239189 2.34095
1.15546 -0.27320999 2.2709601
1.15447 -0.27567399 2.26211
1.15317 -0.28558099 2.2427702
1.15285 -0.288681 2.2329001
1.15706 -0.295903 2.2306299
1.1529599 -0.29485399 2.2253501
1.1518 -0.20040399 2.41801
1.15187 -0.231902 2.3975899
1.15636 -0.26177001 2.3559601
1.1325901 -0.25334001 2.2959702
1.1288201 -0.26302299 2.2892401
1.13876 -0.20467199 2.4166801
1.15926 -0.22015801 2.3947299
1.13552 -0.26312798 2.2855003
1.15676 -0.230269 2.3697901
1.1571 -0.23245701 2.3557401
1.15521 -0.234303 2.3479002
1.1647899 -0.26737201 2.3386199
1.14759 -0.271007 2.2797298
1.14387 -0.272102 2.2747698
1.1500701 -0.27579501 2.2648101
1.15456 -0.28546101 2.24945
1.15254 -0.288149 2.24124
1.15834 -0.29271099 2.2415202
1.1575 -0.294361 2.23385
1.15686 -0.215543 2.4003501
1.16549 -0.25911301 2.3312201
1.15969 -0.27360401 2.3185101
1.14166 -0.268244 2.2667301
1.15377 -0.27495801 2.2629402
1.1418 -0.27113 2.2598901
1.14827 -0.276016 2.2578602
1.15716 -0.28916401 2.2425501
1.15101 -0.29394501 2.2370901
1.13095 -0.24327201 2.40518
1.1404799 -0.26924199 2.2769501
1.12999 -0.296657 2.2666399
1.14373 -0.27291 2.2738101
1.14623 -0.26368099 2.2764001
1.12999 -0.308999 2.2579501
1.14824 -0.269685 2.2711499
1.13423 -0.31597701 2.24967
1.14714 -0.27503401 2.2634001
1.13209 -0.31923202 2.24085
1.13131 -0.320669 2.23544
1.12898 -0.313613 2.2368898
1.12992 -0.32230899 2.2298901
1.1350701 -0.24496099 2.3806798
1.13254 -0.248899 2.37483
1.1571499 -0.29067001 2.3424599
1.18111 -0.29326499 2.3392401
1.15949 -0.29977599 2.3276701
1.1518199 -0.30255198 2.32073
1.12081 -0.303893 2.2713501
1.12087 -0.294761 2.27314
1.1242 -0.29026401 2.2713799
1.11392 -0.283057 2.27091
1.13068 -0.30858299 2.2642999
1.12321 -0.301561 2.26405
1.13153 -0.27553099 2.27303
1.14002 -0.27478901 2.2727499
1.13318 -0.31435099 2.25138
1.12635 -0.30447599 2.2532501
1.1314 -0.31993601 2.2430999
1.12816 -0.311883 2.24459
1.12922 -0.304445 2.2476501
1.12773 -0.314228 2.2378101
1.1298001 -0.30509001 2.2404799
1.12707 -0.32042998 2.23048
1.13624 -0.300026 2.23682
1.1346 -0.242596 2.3831701
1.12851 -0.23948799 2.3823998
1.10639 -0.30501699 2.27613
1.1187999 -0.30504 2.2776301
1.1192601 -0.297896 2.2785101
1.10568 -0.29027098 2.2748501
1.12567 -0.29144201 2.27703
1.13343 -0.30217201 2.2720001
1.136 -0.30723 2.2662001
1.13158 -0.300248 2.26544
1.13269 -0.308148 2.2598002
1.13024 -0.30287799 2.25842
1.1371 -0.281104 2.2676401
1.13088 -0.309064 2.24716
1.13052 -0.31874001 2.2373998
1.12932 -0.30365601 2.2398598
1.13396 -0.294173 2.2380302
1.1254001 -0.215441 2.4114199
1.1297001 -0.21736099 2.41203
1.12858 -0.217933 2.4042401
1.14274 -0.229784 2.3919401
1.1320601 -0.24336201 2.3758199
1.13253 -0.25508699 2.36128
1.1316301 -0.25044399 2.3626299
1.13377 -0.244248 2.3666201
1.1318699 -0.25191098 2.3573501
1.13369 -0.244743 2.3603201
1.13035 -0.253591 2.3506799
1.13239 -0.24670701 2.35411
1.15187 -0.23804899 2.3444901
1.1182901 -0.26923501 2.3203101
1.13333 -0.25518599 2.3291202
1.13282 -0.26331601 2.3151598
1.1216301 -0.28602999 2.3012099
1.12602 -0.27303499 2.3051102
1.13483 -0.26292402 2.31129
1.12 -0.28743401 2.29441
1.12438 -0.281138 2.29896
1.1305001 -0.26699901 2.3018398
1.12319 -0.28704202 2.2906702
1.1252201 -0.281032 2.2923801
1.12721 -0.280595 2.28701
1.12753 -0.27346799 2.2885602
1.13278 -0.26451901 2.29163
1.12725 -0.27596599 2.2827599
1.13019 -0.26704201 2.2848802
1.1200299 -0.28826702 2.2727098
1.12621 -0.28610799 2.2699499
1.1338099 -0.27336901 2.2695701
1.13693 -0.27851701 2.26353
1.1424099 -0.272576 2.2663102
1.13801 -0.27976102 2.2583401
1.1443801 -0.27345899 2.2609501
1.15464 -0.27390701 2.2603703
1.1607701 -0.26773199 2.2622499
1.17884 -0.224253 2.42574
1.18269 -0.235907 2.4209702
1.17844 -0.241336 2.4248502
1.18374 -0.23599899 2.4138501
1.18241 -0.24306899 2.4140399
1.17865 -0.227396 2.41238
1.18337 -0.23847701 2.4069901
1.18575 -0.24827999 2.4027402
1.1836799 -0.23251699 2.4013102
1.18406 -0.243065 2.3983898
1.1825299 -0.25158301 2.3972299
1.18591 -0.24243701 2.39048
1.18567 -0.25244102 2.38975
1.18293 -0.259325 2.3904901
1.18215 -0.242093 2.38357
1.18398 -0.251313 2.38293
1.18327 -0.26106301 2.3831201
1.17423 -0.26544201 2.3871
1.17809 -0.24152701 2.37904
1.17923 -0.248678 2.3779199
1.18258 -0.26057601 2.3751199
1.17744 -0.266803 2.37924
1.1763099 -0.243303 2.3743799
1.1865799 -0.26309001 2.3645599
1.1812201 -0.26819798 2.3698502
1.18847 -0.26542899 2.3558002
1.18397 -0.270273 2.3603702
1.18998 -0.25903299 2.35022
1.1937001 -0.26842201 2.3467999
1.1910701 -0.27555501 2.3482001
1.18442 -0.25742501 2.3457599
1.19182 -0.26647601 2.34266
1.19092 -0.277035 2.3406
1.1848201 -0.28850201 2.3415799
1.17408 -0.29885998 2.3434799
1.18581 -0.267582 2.3376501
1.19032 -0.27868798 2.3344603
1.18887 -0.288569 2.3338501
1.18385 -0.29821801 2.3362398
1.18887 -0.28008601 2.32862
1.18476 -0.29884601 2.3291101
1.1797299 -0.27243701 2.32318
1.1508499 -0.307834 2.3313301
1.1826999 -0.281737 2.31582
1.18037 -0.28200701 2.30861
1.1802 -0.289139 2.30003
1.1757801 -0.29978701 2.3026199
1.17704 -0.28788799 2.29375
1.1736599 -0.28050399 2.2901902
1.18398 -0.30219001 2.28283
1.1784101 -0.307046 2.2876999
1.1806999 -0.31041598 2.2781601
1.15732 -0.26750699 2.2833002
1.1760399 -0.31705299 2.2731702
1.19731 -0.30012301 2.2574399
1.19689 -0.30512699 2.2595201
1.1800901 -0.30324599 2.24297
1.19148 -0.32437801 2.23754
1.18663 -0.33001098 2.2379501
1.18747 -0.317826 2.2342598
1.18779 -0.32606301 2.2325501
1.18804 -0.332522 2.2307699
1.16028 -0.295257 2.2365398
1.18215 -0.31629801 2.2288501
1.18589 -0.32753101 2.2272401
1.14733 -0.29299399 2.2371399
1.16009 -0.300789 2.2334101
1.1877301 -0.23025699 2.4244299
1.1807599 -0.24019399 2.42714
1.17804 -0.24589899 2.4281602
1.18085 -0.209848 2.4212799
1.18322 -0.21967699 2.41939
1.18691 -0.231618 2.4158201
1.18282 -0.23986 2.4182501
1.17813 -0.245877 2.42154
1.17265 -0.207755 2.41745
1.18259 -0.22769199 2.41189
1.18488 -0.24002001 2.4084702
1.1850901 -0.24751301 2.4102802
1.1799999 -0.22986999 2.40431
1.18537 -0.24317499 2.3997102
1.1824 -0.24950899 2.4014802
1.1817601 -0.240564 2.39592
1.18285 -0.25115201 2.3929801
1.17829 -0.24143299 2.3903501
1.18204 -0.253656 2.38448
1.17888 -0.25853598 2.38745
1.18003 -0.245721 2.3810101
1.18356 -0.25531 2.3773
1.18145 -0.262142 2.37656
1.1758699 -0.25392801 2.3738298
1.17591 -0.26390201 2.37008
1.1793599 -0.26766199 2.36062
1.17353 -0.27159798 2.3652899
1.1805301 -0.26082098 2.3548102
1.18318 -0.27114299 2.35221
1.17954 -0.27739999 2.35396
1.1846499 -0.27059299 2.34586
1.1874601 -0.28066298 2.3443601
1.18748 -0.29131001 2.34074
1.18014 -0.29774201 2.3420801
1.1882399 -0.27274501 2.33816
1.18694 -0.28274301 2.33708
1.18775 -0.30023301 2.33477
1.18854 -0.27920601 2.3289599
1.1901799 -0.28770798 2.32793
1.18891 -0.30115199 2.3275499
1.18001 -0.27662 2.31622
1.18454 -0.284208 2.31446
1.17809 -0.27733099 2.30969
1.18259 -0.28720501 2.3076999
1.17844 -0.28427801 2.3012202
1.17681 -0.284174 2.29422
1.1804 -0.29260501 2.2944202
1.18361 -0.300776 2.2920198
1.1715699 -0.27505699 2.29074
1.18207 -0.293264 2.2858801
1.1870099 -0.30352601 2.2812202
1.19179 -0.29215899 2.2660799
1.1910501 -0.291107 2.2593799
1.19143 -0.299308 2.26017
1.18308 -0.29105899 2.2565701
1.1850801 -0.32084301 2.24719
1.17568 -0.30450198 2.2439802
1.1834999 -0.31165302 2.2417099
1.18286 -0.32251203 2.2400699
1.18444 -0.32417402 2.23281
1.18801 -0.32597598 2.2258401
1.18108 -0.22371501 2.4277499
1.18179 -0.233078 2.4242802
1.1763099 -0.23906499 2.42643
1.17996 -0.22363199 2.4203601
1.18039 -0.23642001 2.4174099
1.17518 -0.243242 2.4172299
1.18179 -0.23424999 2.4108498
1.17695 -0.244056 2.4093599
1.17307 -0.245187 2.4017599
1.1701 -0.25061801 2.4049802
1.17871 -0.239948 2.3952401
1.17515 -0.248327 2.3924398
1.1791 -0.24264601 2.38695
1.18038 -0.25101298 2.3843398
1.1724 -0.256892 2.38586
1.17652 -0.25041801 2.37957
1.1755201 -0.25998601 2.37586
1.1791301 -0.25231799 2.36924
1.1783201 -0.26335698 2.3659501
1.18796 -0.25943801 2.3566201
1.1866601 -0.269665 2.3549399
1.1788501 -0.274306 2.3586402
1.18336 -0.25579101 2.35147
1.18637 -0.268134 2.3489699
1.18019 -0.27790701 2.35021
1.1454901 -0.231806 2.3573902
1.18613 -0.26627001 2.3434
1.18432 -0.27855101 2.3408499
1.1784301 -0.28964898 2.3422899
1.17242 -0.29163301 2.3299301
1.1614701 -0.297997 2.3313401
1.18136 -0.28426301 2.3192401
1.17161 -0.29239902 2.3226402
1.15022 -0.29885399 2.32849
1.17423 -0.28646001 2.2998502
1.17647 -0.29379201 2.2960901
1.17231 -0.30277699 2.2969298
1.15317 -0.30655199 2.30565
1.17629 -0.28832799 2.2914801
1.18032 -0.29786101 2.2866602
1.1774 -0.30658901 2.2872
1.18197 -0.29136699 2.28127
1.18135 -0.30521098 2.2716901
1.15194 -0.32271197 2.2715499
1.17483 -0.32094699 2.2559302
1.1541101 -0.32955199 2.2658002
1.1750599 -0.32300299 2.2489002
1.16921 -0.329059 2.2527201
1.17825 -0.321013 2.2411802
1.17407 -0.302524 2.2313399
1.17553 -0.238905 2.4265301
1.17181 -0.242155 2.4180801
1.17255 -0.24611099 2.3936701
1.17309 -0.25384301 2.39305
1.1687 -0.22919101 2.3910198
1.1725 -0.25575799 2.38361
1.1763301 -0.250525 2.3773801
1.1777101 -0.263136 2.3709302
1.18372 -0.25839299 2.3636599
1.1793599 -0.26821399 2.36256
1.1903701 -0.26092899 2.3543701
1.18639 -0.26855302 2.3543899
1.17861 -0.27891299 2.3543
1.18627 -0.26008698 2.3496599
1.1825299 -0.27022201 2.3480401
1.1793699 -0.28126499 2.3464999
1.18564 -0.27627099 2.3388603
1.18444 -0.28670701 2.33849
1.1824501 -0.29374599 2.3361301
1.1475199 -0.29914799 2.3391602
1.17582 -0.29687101 2.3236001
1.1527801 -0.298168 2.3309901
1.17338 -0.29705799 2.3009501
1.17705 -0.29320899 2.2941799
1.1775299 -0.295122 2.2859201
1.1777301 -0.30274099 2.28178
1.17691 -0.31297898 2.2672698
1.18862 -0.30812401 2.2578399
1.1752 -0.32187501 2.25984
1.18195 -0.308494 2.2525299
1.1758 -0.323899 2.25108
1.1775399 -0.308624 2.2462301
1.1700701 -0.33047101 2.24668
1.1808699 -0.32060799 2.23564
1.18143 -0.33071801 2.2326598
1.1820201 -0.237772 2.4256701
1.18337 -0.21849899 2.4227898
1.18545 -0.233537 2.4188502
1.17844 -0.24006201 2.4195199
1.18589 -0.230965 2.4118798
1.1825 -0.241524 2.41101
1.17697 -0.24624701 2.4134901
1.18371 -0.230225 2.40624
1.18364 -0.24112499 2.4026599
1.17852 -0.24838801 2.4027898
1.1846299 -0.23783399 2.39574
1.18003 -0.24519199 2.39341
1.17626 -0.25262898 2.3926001
1.18425 -0.24825199 2.3838902
1.1770999 -0.25365201 2.38449
1.18294 -0.24763599 2.37712
1.17969 -0.25652 2.3749702
1.17441 -0.26297101 2.3761599
1.18146 -0.26222798 2.3652401
1.18283 -0.26380801 2.3573802
1.18117 -0.27570102 2.35513
1.18813 -0.24694499 2.3496101
1.18871 -0.25621098 2.3476701
1.18654 -0.26757801 2.34851
1.18423 -0.279502 2.34677
1.1783 -0.28940201 2.3461401
1.18418 -0.26433301 2.3422401
1.18349 -0.28055298 2.3392999
1.17878 -0.292386 2.3388801
1.18189 -0.28178102 2.3308401
1.16219 -0.30067301 2.33426
1.15291 -0.299896 2.3222899
1.17115 -0.29099199 2.3106399
1.16515 -0.30226901 2.3092501
1.17364 -0.293309 2.3009601
1.16824 -0.30380601 2.2986999
1.17352 -0.28566 2.29474
1.1767 -0.2967 2.2904401
1.17688 -0.30865401 2.2873502
1.18084 -0.289597 2.2821701
1.17932 -0.299712 2.2803102
1.17747 -0.32084399 2.2641799
1.16275 -0.272778 2.2718899
1.1771901 -0.32390201 2.2560198
1.17934 -0.30832702 2.2509799
1.17099 -0.32881099 2.25159
1.1823601 -0.32033002 2.2420402
1.18081 -0.32916099 2.2379198
1.18119 -0.32412398 2.23281
1.1754 -0.26737201 2.2922201
1.16053 -0.30548099 2.2544699
1.17802 -0.2527 2.2890399
1.1488401 -0.21212299 2.38204
1.15144 -0.32098401 2.24879
1.1662101 -0.272066 2.26542
1.1424299 -0.20362 2.4038801
1.13974 -0.210335 2.3833899
1.17679 -0.29603702 2.30913
1.1735801 -0.29865301 2.2925401
1.1618199 -0.202822 2.4009702
1.1820301 -0.254206 2.2874801
1.18373 -0.21908599 2.4238901
1.18487 -0.230152 2.4014301
1.19315 -0.240189 2.3482001
1.18615 -0.276577 2.34062
1.18345 -0.28468901 2.34114
1.19251 -0.244131 2.3345699
1.19019 -0.251589 2.3342099
1.1919 -0.26196101 2.3281901
1.18898 -0.27429599 2.3300202
1.1850801 -0.284035 2.33249
1.1767299 -0.288652 2.3419101
1.18899 -0.24446899 2.32897
1.18927 -0.26304701 2.31668
1.17962 -0.28275901 2.31604
1.19126 -0.26061401 2.2948599
1.17923 -0.28309199 2.2985699
1.17861 -0.29080999 2.2832198
1.18574 -0.30301499 2.23564
1.18422 -0.312271 2.22983
1.18115 -0.31711301 2.23469
1.1858799 -0.225229 2.4046302
1.18261 -0.231765 2.4089701
1.18898 -0.230996 2.3675601
1.19074 -0.26837501 2.3391299
1.1868 -0.28343999 2.3368399
1.18016 -0.291682 2.3416603
1.17969 -0.297975 2.33986
1.16198 -0.21119 2.3785501
1.1932499 -0.24926901 2.3328202
1.1937699 -0.26196301 2.3281701
1.19144 -0.25961798 2.3184202
1.18532 -0.28369102 2.31689
1.18724 -0.25698 2.3124499
1.18388 -0.284168 2.30427
1.17406 -0.28902999 2.3051598
1.1803299 -0.29363099 2.2498701
1.19445 -0.242512 2.3488603
1.19243 -0.26372901 2.3396399
1.1930001 -0.27932 2.32865
1.18288 -0.283472 2.33793
1.1915001 -0.243434 2.3403399
1.19382 -0.25718701 2.33202
1.19451 -0.270805 2.3222101
1.18601 -0.24700899 2.3201699
1.18953 -0.257269 2.3080401
1.17828 -0.27879199 2.3121803
1.1319699 -0.19906999 2.38062
1.18097 -0.27874398 2.29352
1.15724 -0.24186 2.2878399
1.18932 -0.222363 2.3782401
1.18766 -0.27393699 2.3443201
1.18264 -0.28337499 2.3436201
1.19266 -0.26371101 2.33792
1.1916699 -0.27695701 2.3310199
1.18791 -0.25839299 2.3315799
1.15246 -0.22554199 2.3530402
1.13587 -0.287523 2.33109
1.18766 -0.226014 2.4056799
1.19296 -0.27156401 2.3435199
1.18559 -0.27808902 2.3467002
1.19511 -0.27502 2.33111
1.1903601 -0.28414601 2.3298502
1.19213 -0.250507 2.3355999
1.19696 -0.26774499 2.32267
1.1898301 -0.25986499 2.3219101
1.15985 -0.22187901 2.3521302
1.17416 -0.284125 2.29321
1.17749 -0.30743998 2.23768
