# .PCD v0.7 - Point Cloud Data file format
VERSION 0.7
FIELDS x y z
SIZE 4 4 4
TYPE F F F
COUNT 1 1 1
WIDTH 1136
HEIGHT 1
VIEWPOINT 0 0 0 1 0 0 0
POINTS 1136
DATA ascii
1.18485 -0.43764198 1.87237
1.17838 -0.445079 1.8606601
1.18329 -0.43615398 1.86158
1.18118 -0.45738602 1.8585
1.17658 -0.44684502 1.8502899
1.18267 -0.43967399 1.8539401
1.1883 -0.43202001 1.8567002
1.19408 -0.426875 1.8597299
1.18007 -0.45806 1.8184201
1.18213 -0.44827703 1.81796
1.17846 -0.44607699 1.80645
1.1818299 -0.46698102 1.778002
1.18621 -0.46017101 1.7624661
1.18952 -0.45050701 1.761485
1.18612 -0.45537201 1.754944
1.1760299 -0.44895101 1.88229
1.1726999 -0.45785198 1.8718301
1.17892 -0.441176 1.8683301
1.17741 -0.46296102 1.86874
1.17778 -0.44056597 1.85747
1.1865699 -0.43615699 1.8654699
1.1784101 -0.46181801 1.85974
1.17654 -0.44967201 1.85181
1.17993 -0.44109198 1.85198
1.1827101 -0.43369499 1.8516501
1.17897 -0.46124199 1.8496201
1.17767 -0.45090199 1.8424499
1.1817299 -0.43340197 1.8404502
1.1800599 -0.45267799 1.82836
1.17539 -0.450425 1.8129901
1.18266 -0.443537 1.81927
1.1785901 -0.46195498 1.8122101
1.1727201 -0.44913101 1.79194
1.17776 -0.46849099 1.79581
1.1759601 -0.45941299 1.7914401
1.17926 -0.46285498 1.78499
1.18239 -0.46470699 1.777827
1.18091 -0.452407 1.774152
1.18362 -0.458298 1.768374
1.1997399 -0.49816102 1.778468
1.1830001 -0.44509 1.736434
1.17958 -0.45242801 1.730587
1.1750801 -0.447754 1.721655
1.17119 -0.45965499 1.8832401
1.1731601 -0.44768602 1.87831
1.17068 -0.47011602 1.8773001
1.16931 -0.456442 1.8707601
1.17362 -0.44929698 1.8705701
1.17795 -0.442141 1.8705601
1.18338 -0.43329701 1.8697
1.1922001 -0.43149799 1.87608
1.17462 -0.465505 1.8686501
1.17351 -0.449958 1.8615201
1.18247 -0.43236199 1.85781
1.17274 -0.46182597 1.8553602
1.1714 -0.44901502 1.85015
1.17651 -0.440438 1.8501902
1.1803601 -0.43113399 1.84567
1.1741201 -0.45169899 1.8437201
1.1735901 -0.463016 1.83784
1.17539 -0.44962001 1.83227
1.17504 -0.463433 1.82903
1.17384 -0.45042098 1.8205
1.17471 -0.46360299 1.8195701
1.17347 -0.46300599 1.8099201
1.17475 -0.45174399 1.8048599
1.17265 -0.46237701 1.80007
1.17234 -0.44979098 1.79371
1.17527 -0.44141302 1.79039
1.17287 -0.461027 1.7911801
1.17292 -0.44987899 1.7852951
1.17691 -0.44107899 1.782796
1.17623 -0.46483299 1.7840871
1.1795601 -0.46722198 1.77564
1.18138 -0.45925 1.7664191
1.1846499 -0.446096 1.7623111
1.23585 -0.434809 1.79162
1.18671 -0.47345102 1.7678241
1.18134 -0.44418299 1.749022
1.1806301 -0.44524899 1.7408251
1.18222 -0.443344 1.733387
1.17261 -0.46303099 1.88362
1.17515 -0.451637 1.87788
1.1755999 -0.46290699 1.87345
1.17371 -0.44659197 1.86474
1.17805 -0.43883702 1.86373
1.1839399 -0.432897 1.8644201
1.19103 -0.42993999 1.8709799
1.17512 -0.46471599 1.86459
1.18479 -0.43131697 1.85464
1.18815 -0.427641 1.85798
1.17281 -0.45996702 1.84905
1.17292 -0.44867298 1.844
1.18671 -0.43440202 1.8485299
1.1669899 -0.46426499 1.8382101
1.1706901 -0.46085301 1.84009
1.17085 -0.46178201 1.83254
1.16892 -0.46747398 1.82421
1.17071 -0.45981702 1.8228799
1.18042 -0.44121101 1.8148199
1.17425 -0.44887298 1.8068302
1.16747 -0.46638599 1.8031601
1.1700599 -0.45798901 1.8005201
1.20972 -0.43640301 1.8132101
1.17128 -0.463162 1.795
1.17331 -0.45185903 1.78914
1.17468 -0.46684301 1.7876
1.17906 -0.46958801 1.7810299
1.1832 -0.44702399 1.7737381
1.1846 -0.44752201 1.7650021
1.18051 -0.45333803 1.757423
1.20165 -0.433303 1.7605661
1.18634 -0.44651401 1.74903
1.18446 -0.447366 1.7390561
1.18504 -0.44676399 1.7209039
1.1678801 -0.44831401 1.8837701
1.17203 -0.44084701 1.8799499
1.16801 -0.457095 1.8807502
1.16845 -0.44922403 1.8745301
1.17338 -0.44061199 1.87154
1.1675299 -0.45676899 1.87024
1.1691101 -0.44954398 1.86518
1.1742901 -0.44085801 1.86207
1.16774 -0.45701098 1.8603799
1.1700599 -0.45010799 1.8557
1.1753299 -0.44113499 1.8527701
1.18511 -0.42858201 1.85421
1.16845 -0.45731398 1.85051
1.17126 -0.44967499 1.8450601
1.1769 -0.440391 1.84453
1.18139 -0.43355802 1.8409101
1.16997 -0.45887297 1.8413101
1.17133 -0.45171601 1.83461
1.16993 -0.45953 1.83121
1.1710601 -0.45200199 1.82444
1.17672 -0.44526002 1.82759
1.169 -0.459124 1.8205801
1.17967 -0.44430199 1.81833
1.1670099 -0.45065102 1.8014101
1.16906 -0.455201 1.7956901
1.17123 -0.44170201 1.7913001
1.1995701 -0.43297902 1.80334
1.16886 -0.45189801 1.7873801
1.17381 -0.442846 1.783039
1.17145 -0.456016 1.7820221
1.17554 -0.46002302 1.7762589
1.18093 -0.44708401 1.770213
1.26782 -0.41027999 1.79496
1.17958 -0.46504298 1.7698181
1.18037 -0.44785899 1.759096
1.17974 -0.46315899 1.7587701
1.1788601 -0.44760799 1.7482511
1.1764901 -0.44723901 1.7389441
1.17794 -0.44626799 1.731302
1.22674 -0.40340599 1.7364681
1.18196 -0.44622001 1.724151
1.2149501 -0.41136003 1.8887701
1.23735 -0.43274298 1.88116
1.23699 -0.44218102 1.8848701
1.2116899 -0.41357398 1.8796201
1.21911 -0.418852 1.8805701
1.2349601 -0.43292999 1.8720801
1.243 -0.43686 1.86847
1.2074701 -0.41521099 1.87352
1.21556 -0.41829202 1.8695301
1.2424099 -0.43729401 1.8591901
1.2138801 -0.41166002 1.8583901
1.224 -0.41205201 1.85215
1.22857 -0.422068 1.85326
1.21579 -0.411621 1.8469701
1.2218 -0.41563597 1.8454801
1.22233 -0.415804 1.83429
1.2267801 -0.42180699 1.8347602
1.2244 -0.41774601 1.8239101
1.22877 -0.42224801 1.8241699
1.23113 -0.423859 1.81265
1.24123 -0.44927898 1.78985
1.2442501 -0.43796903 1.7753531
1.23553 -0.45589599 1.7833141
1.24788 -0.43454498 1.763041
1.23712 -0.46448201 1.7749929
1.23584 -0.45935699 1.7674991
1.23685 -0.43227902 1.8836801
1.23669 -0.44172099 1.88778
1.22702 -0.426999 1.87972
1.23507 -0.43457401 1.8761001
1.24449 -0.43672299 1.86831
1.2101899 -0.416673 1.8811001
1.2271299 -0.42782798 1.86879
1.24596 -0.43561199 1.8557299
1.21219 -0.41531503 1.86672
1.2158799 -0.42175701 1.86681
1.21567 -0.41815102 1.83334
1.2263401 -0.42612302 1.82961
1.21096 -0.42054698 1.8275101
1.2252201 -0.424483 1.82038
1.23059 -0.41812599 1.7919
1.23958 -0.44217098 1.7919501
1.23607 -0.45246202 1.7970599
1.2354599 -0.44426101 1.78546
1.23631 -0.44369 1.772779
1.23005 -0.46191701 1.7830801
1.2364299 -0.43390599 1.7628021
1.23789 -0.44243899 1.763256
1.23264 -0.45723 1.7708161
1.23796 -0.443279 1.754885
1.23865 -0.43853 1.743513
1.2322201 -0.455787 1.7554832
1.24037 -0.44353902 1.739832
1.22034 -0.424564 1.8782401
1.21383 -0.41967499 1.8747602
1.22394 -0.42361999 1.86388
1.20423 -0.41532502 1.8626601
1.21342 -0.41850701 1.8605
1.23443 -0.430518 1.8351902
1.24941 -0.437051 1.82798
1.22974 -0.423177 1.8290701
1.22469 -0.42373601 1.82541
1.24224 -0.43681899 1.8116901
1.23297 -0.42845798 1.7952499
1.2255 -0.41934299 1.79084
1.23176 -0.43061 1.78793
1.2375901 -0.43848899 1.7835932
1.23848 -0.44498599 1.78854
1.2385601 -0.43905997 1.775072
1.2392501 -0.44817799 1.7762461
1.23378 -0.42145801 1.762611
1.2341599 -0.44221699 1.7708349
1.23352 -0.45531601 1.772686
1.23507 -0.43976897 1.7597189
1.23418 -0.45203099 1.7646401
1.2296901 -0.456164 1.760825
1.23599 -0.444069 1.747216
1.20318 -0.50025702 1.7860299
1.21443 -0.41333801 1.88819
1.2502201 -0.44518101 1.8631601
1.20526 -0.41216302 1.8882401
1.21323 -0.41456798 1.88003
1.2211499 -0.417137 1.8738699
1.25009 -0.441517 1.85467
1.20678 -0.41194698 1.8775101
1.21179 -0.41552502 1.87108
1.22005 -0.42022702 1.8647799
1.24415 -0.44198 1.85173
1.21051 -0.411529 1.8646801
1.2150199 -0.41620898 1.8594501
1.23939 -0.444175 1.8455701
1.2383699 -0.461988 1.8519101
1.2284501 -0.42450297 1.8409201
1.239 -0.441632 1.83403
1.21279 -0.42242101 1.8342001
1.23498 -0.431032 1.8060001
1.23218 -0.432859 1.79728
1.23177 -0.43076697 1.78584
1.22651 -0.42416099 1.7822009
1.23122 -0.44232899 1.7716321
1.23497 -0.441508 1.7598441
1.23273 -0.45572701 1.7630661
1.23639 -0.43844301 1.747872
1.23458 -0.45220903 1.7529061
1.24176 -0.425475 1.733806
1.23896 -0.44827703 1.74112
1.23958 -0.44575101 1.735152
1.23614 -0.45866001 1.7416141
1.23607 -0.440139 1.8884101
1.23629 -0.44176602 1.88034
1.2360801 -0.43652803 1.87265
1.2424901 -0.43280101 1.8543601
1.23851 -0.44111902 1.8630801
1.2426699 -0.44801798 1.8577499
1.2420501 -0.45803398 1.86104
1.24077 -0.43980598 1.84847
1.23979 -0.452434 1.8526901
1.22262 -0.41615799 1.84339
1.2378601 -0.44127601 1.8404199
1.23842 -0.44980299 1.84447
1.22471 -0.42005599 1.8379101
1.2373201 -0.43907797 1.8309399
1.2185 -0.42204499 1.83544
1.2425901 -0.43529099 1.81488
1.23197 -0.457881 1.8328601
1.23681 -0.44689399 1.7953399
1.23782 -0.444722 1.7849381
1.23465 -0.44524899 1.774765
1.23833 -0.43437099 1.7603301
1.23796 -0.44407398 1.761683
1.22804 -0.457589 1.7731799
1.23838 -0.443517 1.7512219
1.23204 -0.45416099 1.7624539
1.24059 -0.43290502 1.7415061
1.24269 -0.44124901 1.740242
1.23998 -0.44897899 1.7461411
1.24415 -0.43344799 1.733794
1.1741201 -0.40607399 1.8561301
1.17347 -0.40035 1.85745
1.1769 -0.41526499 1.8358999
1.17445 -0.41440299 1.8300101
1.1750599 -0.41634101 1.8256799
1.1724 -0.41511601 1.8203601
1.21566 -0.40860698 1.8113102
1.17769 -0.48494098 1.80724
1.20985 -0.40819699 1.80847
1.17688 -0.48497897 1.80353
1.16678 -0.411558 1.80479
1.16318 -0.41264197 1.7990701
1.19503 -0.46907699 1.783318
1.19005 -0.45741501 1.778578
1.1722599 -0.414588 1.7741361
1.17602 -0.416199 1.768049
1.1812301 -0.414478 1.761696
1.17137 -0.42062801 1.7565161
1.1751699 -0.413728 1.7569729
1.17252 -0.41492099 1.7520641
1.18328 -0.40788898 1.751035
1.1707 -0.41939801 1.747207
1.17511 -0.412541 1.747223
1.1813099 -0.40640998 1.7452209
1.19007 -0.398837 1.7460001
1.17321 -0.41283903 1.7418991
1.1809 -0.40701598 1.7410381
1.18559 -0.40076101 1.7409539
1.16978 -0.42007598 1.737023
1.17228 -0.41314098 1.737005
1.1801 -0.407662 1.736702
1.17287 -0.41439998 1.7319711
1.1789 -0.40783101 1.7310261
1.17283 -0.42128503 1.726371
1.17598 -0.41421798 1.725319
1.17383 -0.422324 1.720343
1.17669 -0.41519699 1.719537
1.18454 -0.43935201 1.8703601
1.1835999 -0.43840998 1.86459
1.18344 -0.43921298 1.85917
1.17995 -0.437738 1.8544101
1.18139 -0.43847197 1.8486301
1.17143 -0.41823199 1.83755
1.17298 -0.41527599 1.8314101
1.18259 -0.41192999 1.8307
1.18156 -0.41329497 1.82647
1.1698899 -0.41556799 1.81936
1.2023101 -0.41055802 1.8138101
1.16969 -0.41687801 1.8095801
1.19982 -0.40974998 1.8085001
1.18756 -0.47307998 1.80193
1.16995 -0.41584399 1.8032601
1.17607 -0.473203 1.7972101
1.18169 -0.45578098 1.79681
1.16645 -0.41616401 1.7982901
1.1821901 -0.46699002 1.79294
1.1691101 -0.415317 1.7939501
1.17834 -0.440597 1.7815161
1.17145 -0.41759899 1.7782321
1.18156 -0.44158199 1.7719361
1.17384 -0.41685399 1.7663571
1.1764901 -0.41806901 1.7599061
1.18171 -0.411576 1.759183
1.17211 -0.42179799 1.7545722
1.17992 -0.41056401 1.75401
1.1759 -0.41776797 1.7499881
1.1807901 -0.411367 1.747538
1.18849 -0.404313 1.74831
1.17712 -0.41874698 1.7439849
1.1818399 -0.412119 1.7417461
1.1862999 -0.40497899 1.7435281
1.1756999 -0.41878602 1.7377521
1.17861 -0.41017503 1.7365381
1.18988 -0.405444 1.738255
1.17421 -0.41636699 1.73232
1.1768299 -0.40942299 1.732399
1.18762 -0.405348 1.7324539
1.17503 -0.42016801 1.727357
1.17662 -0.4109 1.7278421
1.1739299 -0.419283 1.7224181
1.16601 -0.424705 1.7149711
1.1724601 -0.417476 1.716392
1.1679 -0.418569 1.711427
1.1683201 -0.41547799 1.87815
1.1731 -0.40088201 1.85501
1.1747299 -0.44080001 1.83709
1.17029 -0.44442201 1.82778
1.17185 -0.415512 1.8263699
1.21743 -0.41466498 1.82486
1.1667299 -0.44507098 1.8200101
1.17047 -0.41411 1.8209201
1.207 -0.41142601 1.81884
1.16987 -0.41462398 1.8150601
1.20031 -0.409015 1.8139701
1.1691999 -0.47364601 1.80871
1.1700901 -0.45191801 1.80901
1.2106401 -0.40574002 1.8080802
1.1626101 -0.41047999 1.8051001
1.20285 -0.40929499 1.8035901
1.17329 -0.46428299 1.7969601
1.16619 -0.41295397 1.7982101
1.1739601 -0.45548901 1.7926199
1.16958 -0.44081798 1.79219
1.1727901 -0.44969699 1.7865601
1.17387 -0.43959799 1.780232
1.17507 -0.43933299 1.768183
1.17223 -0.417676 1.768786
1.18004 -0.41489398 1.7679269
1.1807901 -0.44754502 1.759608
1.1775 -0.440346 1.761572
1.17416 -0.41647801 1.761939
1.17705 -0.410353 1.762576
1.17985 -0.44056198 1.756092
1.16947 -0.414763 1.757236
1.17756 -0.40884399 1.756821
1.1782399 -0.439118 1.7492321
1.16488 -0.413984 1.7527721
1.1739299 -0.409071 1.7516061
1.1874501 -0.402426 1.750442
1.1812301 -0.44077203 1.7436801
1.1707 -0.41768101 1.746431
1.1784101 -0.40774 1.7448699
1.19056 -0.40350497 1.7449591
1.1786799 -0.43828702 1.7387661
1.17475 -0.418129 1.7395059
1.17793 -0.40844798 1.73823
1.18651 -0.40115601 1.740453
1.17974 -0.43921199 1.7330099
1.17133 -0.41605201 1.7337741
1.17734 -0.40957099 1.7329291
1.18496 -0.40238702 1.734125
1.17146 -0.41435102 1.728991
1.17879 -0.40930501 1.728507
1.1646299 -0.421978 1.7218051
1.17159 -0.415685 1.72326
1.16623 -0.42528498 1.716083
1.16637 -0.41578999 1.717963
1.1695501 -0.417548 1.711418
1.1733899 -0.442891 1.8825001
1.1770099 -0.41418499 1.8823301
1.1713901 -0.44097501 1.8774
1.1786799 -0.41407698 1.8768201
1.16557 -0.41070402 1.86994
1.17451 -0.449839 1.86054
1.16738 -0.40246201 1.8575799
1.1749099 -0.40135202 1.85929
1.1751 -0.44159302 1.8530499
1.17582 -0.44096199 1.8456501
1.1713201 -0.41542599 1.83444
1.16882 -0.41308799 1.82205
1.2088 -0.40508202 1.81358
1.1694 -0.41503799 1.8081501
1.19908 -0.408402 1.80996
1.20877 -0.40445 1.80774
1.1831601 -0.453628 1.80237
1.16614 -0.41409197 1.8027099
1.19733 -0.40846598 1.8044101
1.1766 -0.444197 1.79691
1.1669201 -0.41186798 1.79856
1.1691899 -0.414599 1.7930599
1.18505 -0.47240001 1.784085
1.1703501 -0.41631302 1.774631
1.17611 -0.418497 1.766843
1.17531 -0.42031801 1.7593921
1.18056 -0.41010299 1.76009
1.17152 -0.41658199 1.7544701
1.1804299 -0.41232699 1.7533679
1.17522 -0.417799 1.7486801
1.1758699 -0.40814999 1.7483749
1.18341 -0.402953 1.7481661
1.17381 -0.41887102 1.7426581
1.17827 -0.40983897 1.742321
1.18516 -0.39988801 1.742998
1.1722 -0.417934 1.736406
1.17489 -0.40888801 1.7355981
1.18486 -0.40182498 1.7361771
1.17031 -0.41502601 1.7308501
1.1765699 -0.40851501 1.7299961
1.17045 -0.417449 1.724246
1.17089 -0.41584501 1.71716
1.16776 -0.42621201 1.7115741
1.16813 -0.41541198 1.71179
1.17379 -0.45753399 1.88309
1.17039 -0.44792703 1.8835502
1.16149 -0.40980598 1.8752999
1.17071 -0.440961 1.8411402
1.1709501 -0.44174099 1.8360502
1.16413 -0.414435 1.8233701
1.1759601 -0.409385 1.82013
1.21179 -0.41046903 1.8146701
1.18004 -0.48569697 1.8073801
1.20319 -0.40689 1.8088001
1.16097 -0.410092 1.80349
1.17782 -0.48518601 1.7982901
1.17395 -0.46675 1.79591
1.17022 -0.44994 1.7946701
1.20718 -0.412521 1.7998101
1.17374 -0.45634702 1.78935
1.17422 -0.46158698 1.784426
1.1702 -0.446843 1.7831131
1.16562 -0.410258 1.7699921
1.16346 -0.41341799 1.758042
1.16644 -0.41628897 1.751192
1.17231 -0.40782502 1.7491281
1.18234 -0.40429002 1.7506311
1.16943 -0.40362203 1.743564
1.1827101 -0.40203601 1.7450061
1.16758 -0.40743697 1.738053
1.18038 -0.400785 1.737552
1.17058 -0.407601 1.7315609
1.18211 -0.40487999 1.730558
1.1654 -0.41697499 1.7248989
1.16589 -0.41868302 1.7174371
1.1660399 -0.42269599 1.710546
1.16684 -0.413075 1.7133231
1.21412 -0.44614801 1.87783
1.1970301 -0.41558897 1.8775101
1.2077 -0.420425 1.8775201
1.19744 -0.41426602 1.8629901
1.2127301 -0.446417 1.8612601
1.2052799 -0.41046903 1.8540801
1.19438 -0.40834302 1.8486199
1.20585 -0.407803 1.84772
1.19455 -0.40804601 1.84021
1.21097 -0.41744098 1.82638
1.21281 -0.41701099 1.81775
1.22798 -0.42525902 1.81554
1.20962 -0.41677898 1.81056
1.21132 -0.416105 1.8024499
1.2321299 -0.42342299 1.80182
1.1724501 -0.41557801 1.7954501
1.2259201 -0.417373 1.79287
1.21205 -0.41475201 1.7871001
1.22697 -0.41833001 1.7851739
1.23839 -0.42121497 1.78543
1.20918 -0.41534802 1.772388
1.20982 -0.41468102 1.764407
1.23342 -0.41834998 1.757745
1.22928 -0.41986302 1.7511081
1.19418 -0.400031 1.7437351
1.20407 -0.41331798 1.88603
1.19311 -0.413297 1.8800601
1.20587 -0.414608 1.87956
1.20341 -0.41498402 1.8725901
1.22173 -0.42898899 1.86761
1.1939 -0.41248798 1.86685
1.20766 -0.41359001 1.86435
1.2184501 -0.41992298 1.8626601
1.19985 -0.41030601 1.8576601
1.2121199 -0.41311401 1.8567901
1.19543 -0.410467 1.8492501
1.2084301 -0.41177699 1.8499701
1.19675 -0.409327 1.84326
1.19775 -0.410303 1.8372101
1.2140499 -0.41902801 1.8360101
1.21536 -0.41663101 1.8278601
1.21192 -0.417573 1.82087
1.2264 -0.42763999 1.8114901
1.2165799 -0.41731602 1.8059
1.21637 -0.41707402 1.79801
1.21102 -0.415391 1.79214
1.22644 -0.42199403 1.79063
1.2053 -0.41093701 1.78616
1.2175801 -0.415831 1.78593
1.21948 -0.41363999 1.7787981
1.23518 -0.41780102 1.7760391
1.21065 -0.41411999 1.772122
1.2390599 -0.408968 1.715216
1.2099199 -0.415243 1.8879001
1.20719 -0.41421798 1.8805701
1.19993 -0.414644 1.87448
1.2163501 -0.41891101 1.87274
1.20862 -0.41287699 1.86678
1.22197 -0.41702202 1.86606
1.1970401 -0.41055697 1.8629901
1.2084401 -0.41111699 1.8600601
1.2192401 -0.41732398 1.86
1.2042199 -0.407056 1.8556
1.21452 -0.40966499 1.85367
1.22865 -0.43368 1.8527899
1.20435 -0.40806198 1.84764
1.21576 -0.41067001 1.84754
1.22085 -0.420616 1.8386099
1.22632 -0.42520303 1.8319401
1.23067 -0.430177 1.83263
1.2209899 -0.41549501 1.8257699
1.22981 -0.42129299 1.8259701
1.23066 -0.421684 1.8183
1.21128 -0.412884 1.8122799
1.21747 -0.41538602 1.8051901
1.2109101 -0.410629 1.7990601
1.22094 -0.41597 1.7993301
1.2025701 -0.41182202 1.7927201
1.22027 -0.41288799 1.78602
1.20456 -0.41238499 1.7801291
1.22194 -0.41191003 1.7717651
1.20985 -0.41110697 1.7652771
1.23077 -0.40314201 1.7253881
1.21977 -0.42252299 1.8803101
1.21515 -0.417234 1.8758399
1.2204599 -0.421249 1.8748599
1.2122101 -0.416538 1.86941
1.21997 -0.42065102 1.8691101
1.22682 -0.42788202 1.86709
1.21111 -0.415135 1.86211
1.19522 -0.41236901 1.85747
1.20495 -0.41337898 1.85603
1.21641 -0.41860199 1.8554801
1.19636 -0.41114399 1.8523599
1.20766 -0.41367099 1.8503602
1.19804 -0.41212201 1.84593
1.21393 -0.414152 1.8435102
1.22401 -0.41883302 1.8367801
1.22095 -0.41787601 1.83095
1.22744 -0.42705399 1.8290801
1.2223899 -0.41825101 1.8243401
1.23054 -0.42456001 1.82164
1.22206 -0.41873601 1.81636
1.20964 -0.41609299 1.8106101
1.22276 -0.41638303 1.7964101
1.22975 -0.41585299 1.7908901
1.22063 -0.41277501 1.7850201
1.24063 -0.42258701 1.7821561
1.2407 -0.43652803 1.764384
1.23799 -0.43730301 1.757436
1.2376699 -0.436768 1.7443991
1.2455699 -0.433514 1.7380431
1.24762 -0.42807999 1.7320071
1.24277 -0.43563598 1.725629
1.1986099 -0.41746601 1.8773199
1.20025 -0.41673198 1.8647
1.20517 -0.41439497 1.8577701
1.19644 -0.41185102 1.85094
1.21877 -0.427136 1.8499
1.2037101 -0.41197801 1.8455701
1.22788 -0.42365003 1.7997
1.2184501 -0.41856202 1.79537
1.1985199 -0.475375 1.7860299
1.21903 -0.44969299 1.7302749
1.17112 -0.44826803 1.8797299
1.17381 -0.45146701 1.8744102
1.17768 -0.457995 1.8690801
1.1746601 -0.44939801 1.86858
1.1740201 -0.442175 1.86909
1.18021 -0.46025798 1.8629501
1.1746399 -0.45227402 1.8641901
1.1719 -0.44266102 1.86314
1.20222 -0.46865502 1.85888
1.176 -0.46157902 1.8577
1.173 -0.45252299 1.85787
1.239 -0.46506402 1.8557299
1.17286 -0.45253798 1.8527
1.1721801 -0.44304901 1.8526199
1.17537 -0.460145 1.8463299
1.17263 -0.45219299 1.84804
1.173 -0.44027099 1.84694
1.1761 -0.46144 1.8414501
1.1731501 -0.45204899 1.8416699
1.1741101 -0.448814 1.8353601
1.17882 -0.45874101 1.8290601
1.1744 -0.453329 1.82921
1.17354 -0.444305 1.8295701
1.17834 -0.45908797 1.8231101
1.17468 -0.444215 1.8235401
1.17454 -0.46209702 1.81749
1.1741201 -0.45365298 1.8176001
1.17585 -0.44338101 1.8174601
1.1763301 -0.44865799 1.8116299
1.17751 -0.43966401 1.8104401
1.17558 -0.45218602 1.80598
1.17766 -0.43997601 1.8057201
1.17115 -0.46110803 1.79386
1.17198 -0.44968101 1.79538
1.1676201 -0.44348702 1.7949899
1.17348 -0.462107 1.7886401
1.16959 -0.45423999 1.79026
1.16856 -0.444572 1.7899499
1.17758 -0.461934 1.7821661
1.16947 -0.45400199 1.7849621
1.1723599 -0.44202998 1.783426
1.18414 -0.46761 1.7767911
1.1824299 -0.46580699 1.77209
1.18029 -0.456736 1.77119
1.1763099 -0.44900298 1.772558
1.17854 -0.450196 1.7665161
1.18435 -0.46288601 1.7602811
1.18197 -0.45584098 1.761387
1.18804 -0.451601 1.7359179
1.1897399 -0.46089599 1.730177
1.1791301 -0.45024601 1.8758099
1.1881 -0.43662399 1.8702999
1.18929 -0.43458301 1.86472
1.17851 -0.44834 1.85873
1.18411 -0.43615201 1.85857
1.17844 -0.44764802 1.8536099
1.18128 -0.43532699 1.8532501
1.19602 -0.41446 1.85429
1.1772 -0.44755402 1.8481201
1.17488 -0.44075298 1.8491
1.17425 -0.45160198 1.8438901
1.1763099 -0.44018599 1.8439
1.19046 -0.415705 1.8433099
1.1758699 -0.45057499 1.8384
1.1997499 -0.41050598 1.8402499
1.17457 -0.44887799 1.8334301
1.1831 -0.457589 1.82716
1.18067 -0.45857298 1.82098
1.20689 -0.46055302 1.8136901
1.17944 -0.45888901 1.81541
1.18128 -0.45873401 1.8102601
1.17644 -0.450773 1.8081399
1.1775299 -0.441432 1.80371
1.1825299 -0.466436 1.7938101
1.1757599 -0.45782003 1.7927099
1.16957 -0.451801 1.7932901
1.1712899 -0.44342202 1.7936
1.17317 -0.440191 1.78904
1.18361 -0.4668 1.7828841
1.17514 -0.46102101 1.781882
1.17329 -0.452472 1.7827481
1.17582 -0.440815 1.7834961
1.18669 -0.47298402 1.777136
1.1799099 -0.46497101 1.777207
1.1861 -0.47564802 1.7729061
1.18417 -0.466515 1.7712331
1.17655 -0.45832002 1.772581
1.1872699 -0.46460602 1.7651891
1.1817299 -0.45908797 1.7658991
1.17404 -0.45464697 1.766705
1.18423 -0.46312001 1.76028
1.17879 -0.45708698 1.7605951
1.17343 -0.45398799 1.7608371
1.18023 -0.44881302 1.7545121
1.18648 -0.46238399 1.7490751
1.18419 -0.44391799 1.748498
1.1996 -0.42578098 1.7460462
1.22105 -0.39960203 1.7450202
1.22405 -0.39849898 1.7411309
1.1824501 -0.44413799 1.7382721
1.18224 -0.453758 1.73247
1.1846 -0.46369302 1.727391
1.18717 -0.45365101 1.8140399
1.18398 -0.45422101 1.7996302
1.1847301 -0.45389199 1.783801
1.19725 -0.46487302 1.7773739
1.1902699 -0.45873502 1.7775121
1.19348 -0.463516 1.773116
1.18417 -0.459133 1.76711
1.18459 -0.45456201 1.768378
1.19111 -0.462648 1.7623361
1.18539 -0.459719 1.763126
1.18232 -0.45553002 1.762677
1.19366 -0.46011102 1.756554
1.18811 -0.457607 1.7569531
1.1870099 -0.453275 1.751554
1.1877201 -0.45286998 1.7461841
1.1893699 -0.45626599 1.740802
1.19078 -0.45570201 1.7353799
1.18762 -0.45277199 1.7355661
1.18522 -0.45789 1.730698
1.1858001 -0.453758 1.7303421
1.18528 -0.45343 1.724131
1.19188 -0.45930699 1.7206261
1.1845601 -0.45288301 1.7196591
1.17794 -0.44506401 1.8705301
1.17723 -0.43790901 1.8705701
1.18154 -0.44518298 1.86615
1.17917 -0.43779302 1.86482
1.18083 -0.43479303 1.85957
1.18093 -0.443187 1.85561
1.1784201 -0.435644 1.8540399
1.2385299 -0.45529202 1.8540801
1.1955301 -0.41228297 1.8474499
1.17865 -0.43391898 1.8412399
1.18066 -0.443014 1.82901
1.17954 -0.44301498 1.82386
1.1793699 -0.44784901 1.82055
1.17467 -0.44381401 1.8186802
1.17618 -0.44799998 1.8147101
1.17375 -0.44395 1.8145401
1.1798301 -0.447492 1.8099
1.1758599 -0.443203 1.8097
1.17679 -0.44322699 1.80347
1.17618 -0.44334498 1.7986801
1.1731 -0.43928701 1.79494
1.1949099 -0.45791698 1.779972
1.1921 -0.45868599 1.774891
1.18303 -0.45127702 1.7731171
1.18045 -0.45156801 1.768399
1.18115 -0.44302601 1.769587
1.18326 -0.45323601 1.764508
1.17847 -0.44643798 1.7641281
1.1803 -0.43879199 1.7641821
1.18643 -0.451269 1.758696
1.18155 -0.442931 1.7585731
1.18304 -0.44424197 1.7534399
1.2361 -0.45201698 1.7384931
1.1920201 -0.44924501 1.74146
1.23844 -0.45148799 1.7345511
1.18137 -0.44324797 1.733199
1.18742 -0.45081502 1.721601
1.18066 -0.45115399 1.71715
1.17916 -0.44798198 1.8731101
1.17785 -0.43978298 1.8732102
1.17638 -0.43917501 1.86763
1.1771901 -0.44010699 1.8632699
1.17819 -0.44118199 1.8588501
1.1781601 -0.44800597 1.8535101
1.17602 -0.44039798 1.8533901
1.19735 -0.40757599 1.8516901
1.17709 -0.44718102 1.8488901
1.17697 -0.44022802 1.8485901
1.19218 -0.40851897 1.84823
1.18885 -0.41339803 1.8440701
1.1961499 -0.40808898 1.84429
1.1799099 -0.44690499 1.8385401
1.17922 -0.4461 1.8338501
1.1805301 -0.446908 1.8288699
1.17707 -0.445434 1.82365
1.17774 -0.44689202 1.8180001
1.1808 -0.45178002 1.8132501
1.17958 -0.44652998 1.81261
1.17418 -0.439989 1.81376
1.17997 -0.44828799 1.80853
1.17768 -0.44714999 1.8036801
1.1889399 -0.455672 1.7922299
1.17685 -0.447119 1.7941699
1.17114 -0.438629 1.79401
1.1933399 -0.48021099 1.78791
1.17555 -0.441508 1.7890601
1.17609 -0.44792402 1.7846249
1.17177 -0.43965301 1.783807
1.19216 -0.46259898 1.7740161
1.17665 -0.44030499 1.774682
1.18515 -0.45499802 1.769032
1.17998 -0.44721401 1.7702842
1.18812 -0.454622 1.7637249
1.18111 -0.44670701 1.764526
1.18443 -0.44814098 1.7590441
1.17961 -0.439145 1.75903
1.17759 -0.44647899 1.7548441
1.1783999 -0.44049901 1.753479
1.23009 -0.40160197 1.746998
1.18101 -0.45120499 1.7490871
1.1817601 -0.446282 1.7494501
1.17987 -0.43864399 1.7487451
1.22718 -0.39923301 1.7450851
1.17848 -0.44508898 1.744756
1.17984 -0.43705601 1.743299
1.18204 -0.45048901 1.7387359
1.17984 -0.44537801 1.738916
1.17636 -0.43849602 1.739018
1.1789601 -0.45074698 1.733971
1.1786 -0.44603801 1.733999
1.1775399 -0.43867999 1.734163
1.18094 -0.45035198 1.723855
1.23774 -0.44581798 1.8753201
1.2598001 -0.47047198 1.8623902
1.23704 -0.44203401 1.85765
1.24673 -0.45137799 1.8569701
1.24317 -0.44414502 1.85207
1.25445 -0.47187901 1.85039
1.2445201 -0.44396001 1.84563
1.2544301 -0.46451598 1.84426
1.2583001 -0.47023103 1.84431
1.2392601 -0.44163701 1.8403602
1.2545099 -0.46770599 1.8390801
1.2558999 -0.46663299 1.8316901
1.2618001 -0.46124199 1.81322
1.2571399 -0.463651 1.80142
1.25791 -0.462145 1.79607
1.25335 -0.47110403 1.79528
1.25749 -0.46301997 1.7892599
1.25805 -0.47425401 1.783607
1.25867 -0.473746 1.777606
1.25585 -0.48202702 1.7792292
1.2480201 -0.488657 1.778983
1.2556 -0.47212699 1.7713921
1.25684 -0.48155499 1.7735801
1.2401 -0.44618699 1.7657131
1.23944 -0.44608101 1.760964
1.25835 -0.471432 1.760272
1.2586499 -0.46417198 1.7529792
1.2592 -0.47195703 1.754176
1.26185 -0.46937197 1.7403821
1.2614 -0.46944302 1.7294822
1.2608399 -0.47110403 1.721481
1.2594 -0.47286099 1.716889
1.23897 -0.44848302 1.86072
1.25348 -0.47133401 1.86307
1.22557 -0.438667 1.8563401
1.2395301 -0.449 1.8558099
1.25016 -0.47071201 1.8492199
1.23791 -0.44762 1.8389101
1.25612 -0.46817002 1.7985901
1.25572 -0.46197498 1.7947299
1.25438 -0.471614 1.7923599
1.21259 -0.48422298 1.79651
1.23333 -0.44571701 1.78334
1.25459 -0.465076 1.78865
1.2517099 -0.47560397 1.7813572
1.24182 -0.48431399 1.7831799
1.24005 -0.49294499 1.7833622
1.2531199 -0.47349098 1.7762531
1.2474099 -0.48204499 1.777393
1.2540699 -0.47182202 1.7706289
1.2519699 -0.472518 1.7645551
1.23303 -0.43048501 1.753226
1.25181 -0.46349898 1.7516341
1.2572399 -0.46416402 1.7467849
1.25365 -0.47167999 1.745008
1.2578 -0.464039 1.7408081
1.24194 -0.44262698 1.7265592
1.25611 -0.46564603 1.727981
1.23957 -0.44519699 1.88074
1.2407 -0.44603801 1.8754401
1.2418599 -0.44784901 1.8691101
1.25766 -0.47556701 1.8609601
1.2551301 -0.46754798 1.8477499
1.2569799 -0.47023499 1.7972101
1.2602 -0.46927202 1.79081
1.25898 -0.472146 1.785098
1.25762 -0.47962001 1.7789581
1.24569 -0.48896098 1.7819321
1.26033 -0.480425 1.773324
1.25902 -0.47913399 1.7678039
1.2582099 -0.470415 1.7558011
1.2549 -0.47044498 1.7488021
1.25929 -0.436883 1.7409672
1.2607599 -0.46850801 1.7418761
1.25554 -0.47175997 1.73518
1.25877 -0.47372201 1.728653
1.26113 -0.47218701 1.723405
1.266 -0.47130501 1.718183
1.25643 -0.470936 1.85875
1.24132 -0.44603699 1.8534
1.25595 -0.47088701 1.8515899
1.24028 -0.445135 1.8458802
1.2552301 -0.465323 1.84632
1.25081 -0.47077399 1.8443899
1.25028 -0.464403 1.83866
1.2579499 -0.47027501 1.7999701
1.2564601 -0.46931702 1.79405
1.2618099 -0.46073002 1.7883301
1.25748 -0.46914002 1.7880599
1.25848 -0.469338 1.782202
1.25246 -0.47997299 1.78179
1.2572399 -0.47250599 1.7749981
1.2503901 -0.481419 1.7763259
1.25705 -0.471571 1.768932
1.25727 -0.47054601 1.762444
1.2564701 -0.468218 1.75474
1.25541 -0.47001401 1.7498959
1.2638301 -0.47083101 1.737728
1.25971 -0.469441 1.731053
1.24238 -0.441241 1.7249371
1.2414299 -0.44253898 1.7220269
1.25565 -0.47267202 1.7171531
1.26238 -0.475328 1.710323
1.25405 -0.47152802 1.86245
1.25121 -0.46830299 1.8497
1.25304 -0.46957099 1.84137
1.25629 -0.470835 1.8022101
1.25701 -0.47261003 1.7955099
1.26231 -0.46784499 1.79013
1.25861 -0.47456002 1.784013
1.24754 -0.47999501 1.7836041
1.25752 -0.47549701 1.7770621
1.25405 -0.47116402 1.7557671
1.25518 -0.46331 1.748139
1.2595201 -0.46577302 1.741508
1.25406 -0.47241002 1.730471
1.20259 -0.43286201 1.82998
1.2128 -0.44638199 1.8614402
1.2130001 -0.41583902 1.8633701
1.2076401 -0.41132501 1.8510501
1.21373 -0.413275 1.84709
1.21477 -0.40617698 1.84998
1.21577 -0.41093701 1.8403101
1.2180101 -0.42069098 1.8301001
1.20539 -0.41139197 1.7980901
1.2076499 -0.41574699 1.7927999
1.20865 -0.408784 1.79623
1.2118 -0.41486198 1.78783
1.21112 -0.40876201 1.79182
1.2169499 -0.41299999 1.8479
1.22074 -0.420241 1.8406601
1.2328 -0.41413897 1.8796899
1.21917 -0.418663 1.8628
1.23444 -0.41106498 1.87765
1.21983 -0.41454497 1.85681
1.2190499 -0.419348 1.8347299
1.23473 -0.41117802 1.8410501
1.21875 -0.41926202 1.81718
1.2146499 -0.415869 1.8058301
1.24792 -0.47985402 1.7828909
1.20834 -0.44072202 1.740482
1.2351201 -0.43777198 1.8828101
1.2322299 -0.42986801 1.87874
1.2401201 -0.43938702 1.86625
1.2397599 -0.44852102 1.8672
1.24298 -0.45661899 1.86449
1.23833 -0.46239299 1.8659201
1.24041 -0.43872797 1.85438
1.2387201 -0.44812199 1.86026
1.23825 -0.43898201 1.84746
1.2377501 -0.447543 1.8516901
1.24446 -0.43405497 1.82215
1.2362599 -0.441461 1.8326401
1.23234 -0.41353297 1.8247
1.2349601 -0.44094199 1.8218601
1.2378399 -0.44365102 1.8056901
1.23579 -0.44648701 1.7965
1.229 -0.41633701 1.7979199
1.2361699 -0.435626 1.79038
1.2400299 -0.44665599 1.7840469
1.23633 -0.45781898 1.7865701
1.22944 -0.416958 1.7893
1.2407 -0.43804601 1.7753611
1.2382801 -0.45011699 1.777418
1.23516 -0.45991403 1.778648
1.2311699 -0.46958801 1.783074
1.23004 -0.41635898 1.780336
1.23623 -0.456745 1.7704691
1.2456601 -0.426442 1.75409
1.23173 -0.45970601 1.7666039
1.2320501 -0.45891702 1.758363
1.24812 -0.42896 1.7328562
1.23897 -0.45560101 1.7397549
1.24748 -0.43447399 1.7245231
1.24268 -0.44542098 1.8725301
1.2334 -0.43481499 1.87354
1.24236 -0.44664398 1.8619299
1.24227 -0.457427 1.8630201
1.2395099 -0.46464297 1.8642501
1.24038 -0.44453603 1.8535
1.24358 -0.42639101 1.8458501
1.23603 -0.44520199 1.8394901
1.24 -0.43420899 1.7932501
1.23892 -0.44599497 1.7945801
1.23992 -0.44424197 1.783407
1.23721 -0.45588198 1.7863001
1.2319599 -0.46665502 1.78977
1.24141 -0.43465599 1.774599
1.23485 -0.45424098 1.7797259
1.2340699 -0.46455699 1.779122
1.23443 -0.414864 1.7755311
1.24195 -0.43584099 1.7645129
1.2342501 -0.45698699 1.770643
1.22738 -0.46737599 1.776275
1.23885 -0.44777301 1.755735
1.23536 -0.45550799 1.7608889
1.23455 -0.45579702 1.7542222
1.2415 -0.416343 1.730592
1.24391 -0.42543498 1.7278579
1.24537 -0.43497699 1.7255
1.23999 -0.44415799 1.8845001
1.24044 -0.43490601 1.87866
1.2420601 -0.44626498 1.8739401
1.24181 -0.454283 1.8713601
1.2328299 -0.42287999 1.87883
1.24218 -0.43635601 1.86655
1.24008 -0.44659302 1.8658099
1.23803 -0.42562902 1.86265
1.2392601 -0.43663102 1.8584601
1.23606 -0.43842301 1.8505599
1.2398601 -0.43793097 1.8273902
1.2378299 -0.447831 1.7896899
1.23703 -0.45784101 1.7853491
1.2422 -0.43803397 1.7738761
1.23919 -0.44862702 1.778505
1.2346801 -0.45925099 1.7782141
1.2282801 -0.46764302 1.7806591
1.23624 -0.418475 1.77542
1.24321 -0.43754798 1.763853
1.23762 -0.449285 1.7681421
1.22954 -0.460042 1.774285
1.22553 -0.46849099 1.7752911
1.2392 -0.439917 1.7593341
1.23014 -0.45889899 1.7658811
1.2383599 -0.45016801 1.747429
1.2298599 -0.45658001 1.7572579
1.23927 -0.44832698 1.7385861
1.23342 -0.454137 1.744588
1.24509 -0.42854401 1.7274851
1.24771 -0.440458 1.7208019
1.23685 -0.45381001 1.7324991
1.23698 -0.443014 1.87641
1.23559 -0.43491599 1.87317
1.23806 -0.44565201 1.86518
1.24052 -0.452849 1.8623002
1.2372899 -0.44613302 1.8552301
1.2379299 -0.452326 1.8553901
1.24225 -0.426171 1.8457901
1.23507 -0.443427 1.8497101
1.23005 -0.45718399 1.8088101
1.24351 -0.43926799 1.78904
1.2373201 -0.44826198 1.79457
1.2423301 -0.44061601 1.78057
1.2361 -0.44889098 1.78565
1.23118 -0.45847499 1.79013
1.2420501 -0.43718299 1.772613
1.23874 -0.44902301 1.7739191
1.23023 -0.459463 1.7800851
1.24033 -0.44750598 1.7641251
1.23491 -0.45709702 1.766661
1.22445 -0.46760899 1.775448
1.2399 -0.44925597 1.7538511
1.23001 -0.45663202 1.762681
1.23965 -0.45022702 1.743378
1.23746 -0.45621398 1.7469079
1.2361901 -0.45477903 1.7385461
1.2448001 -0.42816299 1.726136
1.23724 -0.43345401 1.88938
1.23858 -0.44515702 1.883
1.24147 -0.45444 1.876
1.24138 -0.43764302 1.87448
1.2418801 -0.42931998 1.87009
1.2448001 -0.44107801 1.8589599
1.2447799 -0.431492 1.8544201
1.24182 -0.448834 1.84867
1.23989 -0.450196 1.8371
1.23202 -0.457201 1.83244
1.23166 -0.459324 1.82242
1.2378399 -0.45001701 1.7990299
1.2302999 -0.45931599 1.80608
1.23937 -0.450064 1.7878
1.23485 -0.46241599 1.79015
1.24282 -0.441147 1.7792761
1.23887 -0.45434201 1.7775061
1.23413 -0.46710098 1.7792931
1.24108 -0.44262698 1.7689981
1.23728 -0.453881 1.7691071
1.23241 -0.46225601 1.772827
1.24252 -0.44270501 1.756977
1.2333699 -0.449388 1.7653421
1.24089 -0.4436 1.7486621
1.2332801 -0.451276 1.7557089
1.23289 -0.44938901 1.7457061
1.24822 -0.43163201 1.7297062
1.2452999 -0.44375598 1.7254089
1.23681 -0.45089 1.732547
1.24833 -0.43270302 1.719885
