# .PCD v0.7 - Point Cloud Data file format
VERSION 0.7
FIELDS x y z
SIZE 4 4 4
TYPE F F F
COUNT 1 1 1
WIDTH 944
HEIGHT 1
VIEWPOINT 0 0 0 1 0 0 0
POINTS 944
DATA ascii
1.1500499 -0.36144698 2.1485701
1.1514 -0.33510199 2.1161499
1.13987 -0.388639 2.1131501
1.1547899 -0.35159001 2.1161499
1.14569 -0.38032901 2.1045599
1.1675299 -0.336124 2.1141901
1.14959 -0.38158199 2.0996201
1.15464 -0.41251799 2.0426199
1.13255 -0.35317501 2.20117
1.13261 -0.35384399 2.1932299
1.13257 -0.34745398 2.1908801
1.13254 -0.35754001 2.1807101
1.14706 -0.35581002 2.1371601
1.1500801 -0.34714901 2.1359301
1.1474 -0.35596198 2.1256201
1.14819 -0.36798999 2.12163
1.15306 -0.34897998 2.1184399
1.14791 -0.335682 2.1082401
1.1463799 -0.37902099 2.0785902
1.1526799 -0.39157102 2.04439
1.15229 -0.40781701 2.0414901
1.15642 -0.41059798 2.03526
1.1265 -0.346726 2.2090702
1.12621 -0.34124601 2.2046802
1.13043 -0.33440399 2.21013
1.12466 -0.34704497 2.1965799
1.12701 -0.34269297 2.1963401
1.12911 -0.351547 2.19156
1.1303 -0.345236 2.18892
1.1539199 -0.32082 2.1984701
1.12945 -0.35338297 2.1799099
1.15444 -0.32809299 2.1908002
1.13098 -0.35479999 2.17013
1.13372 -0.36036599 2.1640399
1.1661 -0.335816 2.1844501
1.13993 -0.35387698 2.1438401
1.14615 -0.34769902 2.13151
1.14829 -0.33491799 2.1125698
1.14364 -0.38370702 2.04634
1.15149 -0.41400397 2.0348401
1.1545501 -0.39664 2.02788
1.15496 -0.41585898 2.0295
1.12324 -0.33606201 2.2076101
1.12755 -0.32775199 2.2109101
1.12503 -0.34736499 2.2055402
1.12245 -0.33999401 2.19783
1.12973 -0.362701 2.2049301
1.1253901 -0.35163501 2.1971099
1.1277601 -0.34216598 2.1923699
1.12388 -0.358596 2.1900699
1.1261699 -0.35276699 2.1871302
1.12823 -0.35404 2.1783898
1.13032 -0.35889 2.1707001
1.13414 -0.36126801 2.1622698
1.13261 -0.37082699 2.1579299
1.13392 -0.37206599 2.1462302
1.14138 -0.35496399 2.1406
1.1460099 -0.34758201 2.1282599
1.13755 -0.361606 2.1067502
1.14193 -0.354002 2.1057198
1.15606 -0.33638698 2.1054599
1.14371 -0.35765597 2.0993302
1.13871 -0.36623999 2.09038
1.14345 -0.37017101 2.0824301
1.12322 -0.391213 2.0657101
1.1378399 -0.38245201 2.05056
1.1693901 -0.36874297 2.06633
1.1439 -0.40325698 2.04128
1.1519899 -0.40977401 2.0408201
1.14958 -0.40780103 2.02824
1.15615 -0.39459097 2.0269001
1.15543 -0.41211799 2.0241501
1.12298 -0.32459301 2.2097101
1.1221399 -0.332748 2.2048903
1.12446 -0.33618 2.1932199
1.12376 -0.340657 2.18173
1.1295099 -0.33498502 2.1831298
1.12753 -0.35213903 2.18224
1.12712 -0.34455502 2.17629
1.1316301 -0.33660901 2.1726103
1.1291001 -0.353811 2.1748502
1.1296 -0.345976 2.1663299
1.12893 -0.35439202 2.1628799
1.13193 -0.34979001 2.1573102
1.1414399 -0.34537601 2.1514301
1.1378601 -0.352723 2.1419799
1.13959 -0.37202901 2.14031
1.13928 -0.35870898 2.1336002
1.14417 -0.348041 2.1351199
1.14613 -0.34986302 2.1253099
1.1490799 -0.337239 2.1173301
1.1379 -0.35792598 2.1091602
1.1431199 -0.347846 2.1078901
1.1388401 -0.36002898 2.10145
1.14487 -0.351473 2.0985
1.14799 -0.40623599 2.02981
1.1521499 -0.40918499 2.0236802
1.15132 -0.39785001 2.01668
1.18345 -0.322557 2.2050102
1.16303 -0.30215001 2.20876
1.1633899 -0.30439198 2.1976502
1.19385 -0.324651 2.1692002
1.1939399 -0.33547601 2.1743798
1.1994799 -0.34318101 2.1691201
1.16319 -0.30642098 2.1864998
1.19519 -0.32483798 2.1549802
1.19743 -0.33679101 2.1614401
1.2040499 -0.34131402 2.15694
1.1863201 -0.31671 2.1495903
1.19427 -0.325692 2.14414
1.2001001 -0.334003 2.1453202
1.20026 -0.34328899 2.15236
1.18881 -0.32358003 2.13784
1.19602 -0.33464599 2.1347799
1.19915 -0.34289798 2.1396601
1.19507 -0.336559 2.1215701
1.20066 -0.34496701 2.1227601
1.19856 -0.34924999 2.11285
1.19845 -0.36439499 2.1067502
1.19788 -0.37776101 2.1105201
1.15933 -0.32635501 2.1142199
1.1978099 -0.363013 2.0936701
1.19594 -0.382081 2.10393
1.19912 -0.36373699 2.0789402
1.1812301 -0.34650099 2.08097
1.18883 -0.35666502 2.0773199
1.20136 -0.36167499 2.0644102
1.20121 -0.37781897 2.0736301
1.18269 -0.34695801 2.0695701
1.1911399 -0.35370702 2.0643899
1.20101 -0.36100498 2.0529101
1.20586 -0.37253502 2.0555701
1.19512 -0.399113 2.0780802
1.20456 -0.36964199 2.0421302
1.2138801 -0.376542 2.0251601
1.19146 -0.36620399 2.02777
1.21935 -0.38967898 2.0149
1.19077 -0.36901599 2.0186501
1.1623 -0.29849198 2.21469
1.16119 -0.30148101 2.2061601
1.18749 -0.33084702 2.1839499
1.19286 -0.344345 2.1799898
1.19891 -0.34990397 2.1767099
1.18792 -0.322644 2.1713102
1.20102 -0.34015098 2.1617301
1.1992 -0.34932899 2.1696601
1.19962 -0.339885 2.15044
1.19918 -0.34874499 2.1592002
1.18398 -0.31971902 2.14996
1.19142 -0.331613 2.14503
1.19756 -0.34113097 2.13976
1.1981701 -0.34861699 2.1473801
1.1947399 -0.34356898 2.1315398
1.1951001 -0.351987 2.12187
1.19775 -0.35733601 2.0956602
1.19554 -0.37098598 2.1036201
1.1493 -0.33055198 2.1209302
1.19806 -0.36865699 2.0892401
1.15397 -0.33951402 2.1103201
1.19996 -0.36408401 2.0724399
1.1791 -0.34945202 2.0792501
1.19253 -0.35573399 2.0660501
1.20592 -0.37290999 2.0595701
1.1828901 -0.35123003 2.0635002
1.19182 -0.358199 2.0567598
1.19928 -0.365042 2.0478699
1.2051001 -0.37425098 2.0482399
1.18736 -0.35881197 2.0495801
1.19514 -0.365318 2.0406301
1.20374 -0.37514099 2.0367501
1.20786 -0.38338298 2.0382001
1.19705 -0.36786202 2.0291901
1.2071 -0.375848 2.0227001
1.18683 -0.36783999 2.02737
1.1664901 -0.29944 2.2111402
1.19445 -0.34669 2.16225
1.19526 -0.34375501 2.1538699
1.16039 -0.31336299 2.1659899
1.1925701 -0.34381902 2.1447601
1.19445 -0.35401797 2.13483
1.19192 -0.34195599 2.1201901
1.19493 -0.35269099 2.1045098
1.19054 -0.38411799 2.1127501
1.18819 -0.34413102 2.1006601
1.19406 -0.35543597 2.0956299
1.1986799 -0.366918 2.0917099
1.19366 -0.38229302 2.1029198
1.19592 -0.36762798 2.0827401
1.1889499 -0.355746 2.0785601
1.19672 -0.36570901 2.0690501
1.17934 -0.348171 2.0760102
1.18935 -0.35661399 2.06551
1.19801 -0.36431399 2.0565701
1.19462 -0.39163899 2.0731702
1.18116 -0.35120401 2.0641
1.1915001 -0.358233 2.0521801
1.1970401 -0.36794898 2.0483902
1.18665 -0.35881999 2.04738
1.19985 -0.374405 2.0362399
1.18568 -0.36220902 2.0341599
1.1948 -0.36819303 2.02794
1.17734 -0.36463001 2.0271201
1.18837 -0.36755401 2.02283
1.1851699 -0.36972001 2.0152001
1.18211 -0.31988898 2.2033801
1.18476 -0.330275 2.1891901
1.18205 -0.32281101 2.1807299
1.19033 -0.32898301 2.1728299
1.19347 -0.33625498 2.1686499
1.18926 -0.33216399 2.16241
1.19554 -0.33921298 2.15311
1.1939701 -0.34096402 2.14449
1.19435 -0.35347998 2.09815
1.1957901 -0.36591801 2.0996301
1.1905 -0.37997398 2.1083899
1.18613 -0.346632 2.0955002
1.19759 -0.36703098 2.0848999
1.19541 -0.37853101 2.0932901
1.1851001 -0.34955201 2.0856299
1.19912 -0.36548802 2.07091
1.20199 -0.37557399 2.07377
1.17501 -0.344733 2.0839498
1.17927 -0.34897202 2.08148
1.1896 -0.356372 2.07165
1.2022799 -0.37372798 2.0592699
1.18317 -0.35139099 2.0684202
1.1907001 -0.35835099 2.0603602
1.19681 -0.36590001 2.05305
1.20243 -0.37356099 2.04688
1.20656 -0.38122898 2.0448101
1.18998 -0.36006999 2.05112
1.1965899 -0.36717901 2.0421302
1.20347 -0.37500998 2.0359399
1.209 -0.38270301 2.0304902
1.21889 -0.38595402 2.0217001
1.18747 -0.36331403 2.0387299
1.19594 -0.36885899 2.0324202
1.2032599 -0.37619701 2.02404
1.2172 -0.38832599 2.01457
1.18832 -0.36921 2.0269799
1.15456 -0.36536703 2.03297
1.20047 -0.34883201 2.1586001
1.19835 -0.34026 2.1547201
1.20407 -0.34818801 2.15095
1.19256 -0.33791599 2.15309
1.19993 -0.34792 2.15081
1.17 -0.32895902 2.1351199
1.13398 -0.30855802 2.2059302
1.13851 -0.30762199 2.2021201
1.14579 -0.30457002 2.2040601
1.13236 -0.314998 2.1942701
1.1345 -0.3087 2.19607
1.14328 -0.30556801 2.1978102
1.13072 -0.32703799 2.1907198
1.1345099 -0.31568399 2.1907699
1.13863 -0.31016198 2.1919203
1.15037 -0.30808398 2.1936898
1.13021 -0.32709998 2.18542
1.1354799 -0.31592301 2.1870201
1.1392701 -0.30997699 2.1865499
1.13113 -0.32843399 2.17891
1.13466 -0.32299 2.1798301
1.1368901 -0.316443 2.1820002
1.14193 -0.312105 2.1819298
1.13642 -0.31753901 2.17608
1.14329 -0.313867 2.1759601
1.14 -0.31759501 2.1716502
1.13508 -0.32577598 2.16572
1.13906 -0.32649502 2.1607401
1.14574 -0.319231 2.1620002
1.15437 -0.31693101 2.16398
1.13801 -0.326213 2.1549599
1.1387 -0.327104 2.15007
1.13762 -0.33341998 2.14044
1.14973 -0.32507703 2.1417599
1.13894 -0.33451599 2.1358001
1.1417 -0.32863 2.1343799
1.1521 -0.325827 2.1370199
1.14205 -0.33625999 2.1303601
1.1495301 -0.32965901 2.1317401
1.1603199 -0.32807499 2.1344202
1.14376 -0.33035401 2.1254301
1.14829 -0.35851502 2.12222
1.1438301 -0.335783 2.1205802
1.14808 -0.33125401 2.1222601
1.1364701 -0.3515 2.1127899
1.14246 -0.34551498 2.1151998
1.14196 -0.33767501 2.1156399
1.1479599 -0.33254901 2.1159201
1.1382 -0.35162202 2.1087101
1.14763 -0.33883801 2.1109202
1.16318 -0.33267298 2.1124899
1.14224 -0.353957 2.1051998
1.1496 -0.33993098 2.1056399
1.14127 -0.364252 2.0804901
1.14501 -0.37353599 2.0763199
1.14421 -0.36338198 2.076
1.14552 -0.354487 2.0745301
1.141 -0.37654999 2.0704801
1.1447101 -0.37277499 2.0708702
1.1433101 -0.36450803 2.0704401
1.15025 -0.34869301 2.0712202
1.13941 -0.36300901 2.0443702
1.15587 -0.29950601 2.21206
1.15246 -0.30002099 2.2066801
1.13133 -0.31329599 2.1965201
1.1359 -0.30692801 2.1966202
1.13366 -0.31456301 2.19115
1.14624 -0.306021 2.19294
1.13038 -0.32111198 2.18575
1.13447 -0.31570101 2.18487
1.13737 -0.30881301 2.1870999
1.1308999 -0.32242402 2.17994
1.13231 -0.315409 2.1798401
1.13807 -0.31151599 2.1815
1.13436 -0.31697398 2.1759901
1.133 -0.32498601 2.1696701
1.13615 -0.318699 2.1702302
1.1365399 -0.32666501 2.1663401
1.14536 -0.32168499 2.16624
1.1449 -0.32283199 2.1604199
1.14116 -0.34639001 2.15766
1.13886 -0.35019797 2.15312
1.1357701 -0.33384201 2.1500602
1.1392701 -0.32699099 2.1490798
1.16643 -0.371286 2.1498199
1.1426899 -0.32998198 2.14499
1.14417 -0.32458401 2.1449802
1.16527 -0.37447798 2.1475401
1.1377701 -0.33742601 2.1376801
1.1397899 -0.33158299 2.1335602
1.14544 -0.327191 2.1341698
1.14414 -0.363686 2.1331799
1.13972 -0.35563001 2.1296601
1.14218 -0.33152699 2.1286302
1.15047 -0.329007 2.1286199
1.13943 -0.36169702 2.1254199
1.14015 -0.339095 2.12413
1.1468 -0.33258998 2.1239002
1.14882 -0.36672699 2.1221099
1.1364 -0.35513303 2.1185901
1.13842 -0.34556302 2.1185102
1.13764 -0.35599399 2.1128399
1.14437 -0.33969799 2.11339
1.1444 -0.36890399 2.0781202
1.1434799 -0.36966097 2.0735002
1.13428 -0.36979699 2.05972
1.17495 -0.35082901 2.0526099
1.15925 -0.35786399 2.0411701
1.1781601 -0.35907799 2.0448999
1.15434 -0.36534801 2.03491
1.1526 -0.36726201 2.0287399
1.15703 -0.36272299 2.0196199
1.12982 -0.32363701 2.1936402
1.13552 -0.310386 2.1871099
1.15095 -0.30410802 2.1890202
1.1318001 -0.31864101 2.18137
1.13345 -0.30973899 2.1812501
1.1479599 -0.308644 2.18501
1.16502 -0.31108102 2.1878202
1.1321701 -0.32032502 2.1756899
1.13648 -0.31257999 2.1772201
1.13122 -0.318223 2.1703601
1.13153 -0.33596501 2.1672699
1.1328701 -0.31566098 2.1655302
1.13024 -0.32102698 2.1587701
1.13316 -0.33182597 2.14993
1.14456 -0.322934 2.1488602
1.13537 -0.33139899 2.14483
1.14256 -0.32726398 2.1447501
1.1390899 -0.33464599 2.1392901
1.14636 -0.32856998 2.1404002
1.13538 -0.342033 2.1331398
1.13755 -0.33407602 2.13342
1.14934 -0.331678 2.13521
1.14135 -0.33658698 2.1294799
1.14887 -0.33229899 2.12901
1.1423401 -0.33682701 2.1230199
1.15793 -0.33570802 2.12659
1.1464801 -0.36492297 2.1210401
1.1347799 -0.35260299 2.1176999
1.13634 -0.35473201 2.1134901
1.1384 -0.35521802 2.10707
1.15853 -0.38442001 2.1012702
1.1407499 -0.36235198 2.08517
1.1421601 -0.37103403 2.0816202
1.14961 -0.38804799 2.0796599
1.1425099 -0.372518 2.07655
1.15993 -0.359393 2.0299301
1.1588 -0.36022899 2.01841
1.12193 -0.29835901 2.20631
1.1235299 -0.30299199 2.1939001
1.1281301 -0.31204799 2.1845701
1.13355 -0.306961 2.1856601
1.1247799 -0.318353 2.17892
1.13298 -0.315999 2.1798
1.1367401 -0.33966598 2.17661
1.12745 -0.32612401 2.1732001
1.12889 -0.31678399 2.17419
1.13704 -0.31260499 2.1753602
1.13176 -0.31931299 2.1684501
1.13993 -0.31522 2.17068
1.12893 -0.317294 2.1614699
1.1440799 -0.32145199 2.1591101
1.12875 -0.32716301 2.1447001
1.14619 -0.32438999 2.13978
1.14297 -0.32862702 2.1347501
1.13205 -0.343346 2.12918
1.1368901 -0.33410498 2.1286402
1.14522 -0.32908902 2.1291399
1.1596 -0.33216 2.1305401
1.1396099 -0.35950002 2.1266901
1.1337 -0.35438499 2.1182299
1.14921 -0.33218202 2.1187899
1.13083 -0.35979 2.1143601
1.13494 -0.35759103 2.1134901
1.1389 -0.36268198 2.1085
1.13561 -0.358091 2.1008599
1.1497 -0.38296199 2.09973
1.13789 -0.346241 2.0706501
1.15953 -0.36013901 2.01829
1.1276799 -0.30300102 2.2095401
1.13334 -0.34358299 2.2084899
1.14195 -0.30534598 2.20559
1.12309 -0.33388802 2.1989999
1.12235 -0.301126 2.1940398
1.12362 -0.32798803 2.1924801
1.12386 -0.303657 2.18929
1.12237 -0.31218398 2.1770401
1.12062 -0.32244802 2.1701701
1.1263 -0.31503499 2.1717002
1.12135 -0.32490897 2.1647298
1.12694 -0.31924802 2.1647902
1.12884 -0.33810601 2.16031
1.12546 -0.31766301 2.1587501
1.13209 -0.34201699 2.1557102
1.1275001 -0.320485 2.1541901
1.12946 -0.32374999 2.1475799
1.1273999 -0.33890301 2.1370001
1.1467099 -0.32528099 2.12204
1.1394401 -0.315557 2.0906401
1.16046 -0.309176 2.0878799
1.1413 -0.37300399 2.07902
1.137 -0.34366199 2.0676999
1.1507801 -0.28935701 2.2192402
1.15003 -0.29150298 2.21082
1.15494 -0.29563999 2.2093201
1.14636 -0.29425299 2.2042201
1.15451 -0.297178 2.2030098
1.1619101 -0.30331099 2.2011802
1.153 -0.299907 2.1954801
1.16023 -0.30531499 2.1955099
1.1589199 -0.30869302 2.18678
1.16223 -0.31785899 2.17768
1.16061 -0.318115 2.16992
1.1593 -0.31949699 2.15624
1.16764 -0.32572401 2.1527898
1.1603199 -0.31990001 2.1486599
1.16827 -0.32945701 2.14625
1.15711 -0.32233199 2.14115
1.16583 -0.32691503 2.1403501
1.15448 -0.338377 2.1052401
1.1705201 -0.37160099 2.0752499
1.1525199 -0.36477903 2.0215201
1.1409301 -0.314538 2.1875401
1.1332901 -0.31736201 2.1856501
1.1571 -0.317996 2.1605401
1.1645 -0.32211602 2.15974
1.1625299 -0.32352901 2.1533999
1.16715 -0.33046201 2.14553
1.12858 -0.319453 2.1495299
1.15637 -0.32855597 2.13362
1.17435 -0.34870398 2.0849199
1.17497 -0.349197 2.0699399
1.17304 -0.35057098 2.06251
1.18018 -0.35513601 2.0606899
1.18022 -0.35406601 2.0540099
1.1766601 -0.35411099 2.0471499
1.1822799 -0.36192298 2.0387399
1.18682 -0.36267701 2.03069
1.18274 -0.36267602 2.02564
1.19121 -0.36923802 2.02493
1.1799999 -0.36289799 2.0204198
1.18722 -0.372273 2.0187702
1.18341 -0.366927 2.0129299
1.1628 -0.31968099 2.1676002
1.16225 -0.31970599 2.1607699
1.16707 -0.32486999 2.1599398
1.1595 -0.32073799 2.15418
1.16724 -0.32693499 2.1520998
1.1597899 -0.32610402 2.1470301
1.16347 -0.32631198 2.1380801
1.16048 -0.31987 2.1333001
1.1147 -0.33251202 2.12637
1.14687 -0.33130699 2.1212702
1.15334 -0.40894699 2.1004598
1.1542801 -0.35300201 2.0696702
1.15418 -0.35737702 2.0545001
1.1838 -0.36590302 2.0362999
1.19635 -0.370832 2.0325701
1.2003701 -0.37776297 2.0251801
1.1916699 -0.36730099 2.0209501
1.16505 -0.308357 2.2027302
1.1707901 -0.32682401 2.1591001
1.16897 -0.32532701 2.15397
1.17039 -0.352898 2.14046
1.17135 -0.32970002 2.13112
1.17344 -0.355064 2.13111
1.1712999 -0.33876598 2.1115
1.18678 -0.352705 2.0868301
1.17099 -0.34962699 2.08268
1.18619 -0.35811001 2.08077
1.18054 -0.353414 2.0702
1.1711 -0.32543302 2.1608801
1.1784999 -0.33008999 2.15236
1.18813 -0.36049598 2.0669601
1.18715 -0.35534999 2.06214
1.19022 -0.360863 2.06038
1.17856 -0.375743 2.0645599
1.17957 -0.35758999 2.0577002
1.19425 -0.37028199 2.0466299
1.19478 -0.36964101 2.0401402
1.19094 -0.36458302 2.0344901
1.19761 -0.37051702 2.0328
1.18655 -0.364081 2.0279701
1.18165 -0.36518201 2.0239501
1.1944799 -0.36905301 2.0216
1.19414 -0.36976501 2.0155301
1.12817 -0.33711103 2.2050102
1.1292601 -0.33798999 2.1945503
1.12989 -0.34057301 2.18766
1.16034 -0.35587102 2.18594
1.1271499 -0.34338599 2.1784101
1.1594 -0.35696399 2.1787798
1.12964 -0.34754002 2.1735902
1.13053 -0.34154499 2.17278
1.1317199 -0.348481 2.1676002
1.13124 -0.34193802 2.1666601
1.16618 -0.36254901 2.1652601
1.13592 -0.35442501 2.16185
1.13106 -0.34920397 2.1607401
1.13436 -0.34037998 2.16225
1.16308 -0.366081 2.1584799
1.13114 -0.35122201 2.1544201
1.1396 -0.36241698 2.10325
1.14937 -0.39643601 2.0697501
1.14429 -0.38922402 2.07129
1.1419899 -0.368494 2.0772202
1.14491 -0.39599702 2.0469601
1.1531199 -0.40473598 2.0422201
1.14889 -0.41426301 2.03407
1.12492 -0.337239 2.2076502
1.1242501 -0.32760701 2.2107501
1.12805 -0.344482 2.2023001
1.12474 -0.33563098 2.2023401
1.12565 -0.32675302 2.2058802
1.12872 -0.34288701 2.1962399
1.12712 -0.33498299 2.19767
1.12317 -0.331339 2.1974802
1.12795 -0.343638 2.1896398
1.12603 -0.336135 2.1922698
1.12685 -0.32959703 2.19172
1.13055 -0.34525502 2.18449
1.1297699 -0.32790601 2.1875
1.13166 -0.35148898 2.1779401
1.12563 -0.34480998 2.1779699
1.1264 -0.33665401 2.1798201
1.1247699 -0.33259401 2.1809602
1.12642 -0.348759 2.1717501
1.12321 -0.34190202 2.1728501
1.13115 -0.35371 2.1668899
1.12497 -0.349222 2.1657801
1.1308399 -0.354776 2.1612399
1.12735 -0.35021198 2.1601701
1.1279 -0.35954899 2.15327
1.1400701 -0.355602 2.11268
1.13748 -0.36213002 2.1081202
1.1415499 -0.35472599 2.10901
1.14817 -0.39578602 2.0196099
1.1507499 -0.39903599 2.0135601
1.12825 -0.32432801 2.20296
1.12963 -0.33443201 2.19121
1.1282099 -0.33830798 2.18363
1.12106 -0.34364498 2.1735902
1.1667401 -0.35148299 2.17891
1.1266 -0.34690103 2.1696899
1.16923 -0.350788 2.1756299
1.1329399 -0.35276601 2.1652403
1.12806 -0.36406898 2.1517301
1.13643 -0.383111 2.0513201
1.14328 -0.383037 2.04704
1.14037 -0.35050899 2.1080401
1.13778 -0.35503301 2.1043799
1.14103 -0.35087502 2.1057801
1.15432 -0.433375 2.0987399
1.14037 -0.35497898 2.1013601
1.16782 -0.43513098 2.0986898
1.14223 -0.36009601 2.09621
1.14166 -0.368469 2.0894299
1.14358 -0.37156799 2.0796802
1.14754 -0.36910498 2.0755999
1.14823 -0.36030498 2.07758
1.14855 -0.36187199 2.0720901
1.1552401 -0.35193002 2.0693901
1.15142 -0.36402598 2.03652
1.1304799 -0.31337899 2.1904502
1.1303099 -0.317184 2.1857102
1.1283799 -0.323526 2.17872
1.13265 -0.31819499 2.1819601
1.11914 -0.33183998 2.1701801
1.1322 -0.32122698 2.1750698
1.1400399 -0.32019001 2.17115
1.1161799 -0.33982399 2.1587701
1.13301 -0.32600102 2.16447
1.14377 -0.31924802 2.1672299
1.1406 -0.32401699 2.1624999
1.14083 -0.326693 2.1573501
1.13928 -0.332793 2.15134
1.1400499 -0.334346 2.1453702
1.14455 -0.33633801 2.13533
1.14059 -0.35714298 2.1166201
1.1404001 -0.36483699 2.11061
1.1405101 -0.35921299 2.1125
1.1401 -0.35252702 2.1127701
1.14483 -0.34489 2.1143799
1.15131 -0.37163898 2.1070001
1.1424199 -0.34995499 2.1088102
1.1502301 -0.34292901 2.1093302
1.14663 -0.348508 2.1041801
1.14501 -0.36114898 2.09745
1.14335 -0.35382 2.0977099
1.1458 -0.37408 2.0926402
1.14923 -0.34852999 2.0936801
1.1431099 -0.365841 2.0824599
1.1471499 -0.34929901 2.0825698
1.14547 -0.38397598 2.0764401
1.14115 -0.369872 2.07619
1.1507701 -0.34605098 2.0794101
1.147 -0.37583697 2.0724099
1.14599 -0.36646801 2.0720501
1.1481401 -0.35654801 2.0675499
1.1384101 -0.36060199 2.0404198
1.15992 -0.39319301 2.0339999
1.1875 -0.32018602 2.2169399
1.1893001 -0.32782102 2.2112
1.19165 -0.334387 2.2104599
1.1935199 -0.32959402 2.2026801
1.19344 -0.334806 2.2043798
1.1902601 -0.32901502 2.19736
1.1949199 -0.33558202 2.1970301
1.18981 -0.33147499 2.1902599
1.1939601 -0.338101 2.18894
1.1896499 -0.33581901 2.18203
1.1935 -0.340424 2.1825299
1.19575 -0.34864399 2.1791401
1.19398 -0.34381902 2.17504
1.19949 -0.35345402 2.1716299
1.1961499 -0.35782102 2.1729102
1.18993 -0.34323299 2.1702802
1.1993901 -0.36098701 2.1657901
1.1925 -0.347188 2.1629801
1.2023001 -0.35837701 2.1159601
1.19942 -0.35804099 2.1057699
1.18646 -0.34428701 2.1031601
1.20504 -0.36747897 2.0990798
1.20336 -0.368397 2.09203
1.20169 -0.363253 2.0869699
1.20147 -0.36956403 2.08565
1.15468 -0.35104001 2.07565
1.1506701 -0.35285702 2.06829
1.2135299 -0.40031102 2.0413599
1.2118 -0.388767 2.0367599
1.21903 -0.40286401 2.0350399
1.2094799 -0.38851798 2.03092
1.2239 -0.404277 2.0278301
1.2197499 -0.41089499 2.0288699
1.1888601 -0.33053797 2.21016
1.1909699 -0.33876097 2.2064099
1.1868399 -0.34511298 2.2084398
1.1923699 -0.339369 2.2002401
1.19117 -0.34730899 2.1996601
1.17862 -0.35053599 2.20439
1.19153 -0.34000197 2.19368
1.19361 -0.35077 2.1916602
1.18248 -0.35367501 2.1967902
1.1902699 -0.333446 2.18859
1.19025 -0.339329 2.1864901
1.19159 -0.34906301 2.1852899
1.18677 -0.333377 2.18189
1.19197 -0.34122699 2.18032
1.19238 -0.349123 2.17823
1.19495 -0.35976601 2.1770802
1.1879001 -0.36485198 2.18012
1.1899099 -0.34053501 2.1740999
1.19805 -0.36270401 2.16869
1.19269 -0.36715099 2.1726198
1.19306 -0.34381303 2.1659601
1.2002 -0.36963999 2.16361
1.20516 -0.37075901 2.15505
1.21024 -0.37206599 2.1459899
1.20614 -0.37201402 2.14083
1.18915 -0.379888 2.1167002
1.20209 -0.36533001 2.1085801
1.19336 -0.38282201 2.1082101
1.19835 -0.36562902 2.1034303
1.19516 -0.377884 2.1016901
1.1960601 -0.367356 2.0970502
1.1972001 -0.37894797 2.09358
1.1980799 -0.371436 2.0892401
1.19959 -0.380768 2.08249
1.19831 -0.390524 2.0794201
1.12967 -0.339582 2.0789402
1.21443 -0.40568402 2.0364699
1.2191 -0.40852401 2.0285401
1.18489 -0.329034 2.2101998
1.1596299 -0.301249 2.2127199
1.1856099 -0.33995399 2.1807501
1.1898999 -0.36187303 2.1765499
1.18784 -0.34374002 2.17243
1.19487 -0.370722 2.1192999
1.19005 -0.38190499 2.12008
1.19372 -0.36841202 2.1129103
1.19572 -0.382063 2.11185
1.19722 -0.371858 2.10568
1.20113 -0.37648898 2.09814
1.19507 -0.39223099 2.0989902
1.20207 -0.373963 2.0931602
1.20268 -0.37728801 2.0867801
1.19432 -0.39702499 2.0781298
1.20978 -0.38552299 2.04193
1.21763 -0.40478501 2.03878
1.20805 -0.38613603 2.0363801
1.21717 -0.40307 2.03251
1.21912 -0.40431198 2.0255301
1.22082 -0.40005299 2.0211401
1.18889 -0.32929599 2.2115202
1.1884201 -0.337881 2.20766
1.18195 -0.34549901 2.21017
1.18938 -0.33168301 2.20316
1.18968 -0.339017 2.19962
1.18218 -0.346829 2.2025299
1.19003 -0.33211201 2.1948998
1.19073 -0.33903098 2.19365
1.18627 -0.34745201 2.1936998
1.18599 -0.32979697 2.1909602
1.19154 -0.33975601 2.18768
1.1922699 -0.35248101 2.18361
1.19976 -0.34741798 2.1749499
1.20032 -0.35796002 2.1742501
1.18971 -0.36324 2.1789598
1.1925399 -0.37159002 2.1779101
1.1953501 -0.33829498 2.1692998
1.19919 -0.34608898 2.1684101
1.19841 -0.36520699 2.1681399
1.19664 -0.33843201 2.16398
1.19432 -0.342713 2.16488
1.1934301 -0.34512699 2.1591201
1.2041 -0.36945203 2.15049
1.1989601 -0.352375 2.14836
1.20944 -0.372042 2.1426599
1.20553 -0.380032 2.1367199
1.20823 -0.382853 2.1276901
1.20962 -0.37551799 2.12187
1.2117 -0.390129 2.1120002
1.21505 -0.38177699 2.10625
1.2115101 -0.39157298 2.10603
1.19864 -0.36159801 2.1052599
1.21568 -0.38971299 2.09969
1.2166899 -0.39350301 2.0938101
1.21454 -0.40467602 2.0419102
1.20783 -0.38623199 2.0376401
1.2253 -0.41026002 2.0332
1.2115101 -0.388652 2.0313699
1.22421 -0.40877399 2.0269601
1.1842901 -0.336669 2.20573
1.1855999 -0.33667701 2.1999099
1.17931 -0.35163897 2.1993399
1.18733 -0.342141 2.1923101
1.18498 -0.35659501 2.1888199
1.18699 -0.35929099 2.1809499
1.19907 -0.362661 2.1709702
1.19592 -0.36682799 2.17009
1.19884 -0.36508998 2.1639001
1.20559 -0.37452498 2.1586499
1.2052101 -0.370673 2.1460299
1.20471 -0.37820598 2.1300602
1.2069499 -0.37383997 2.1233001
1.2072799 -0.380427 2.1222799
1.20649 -0.381309 2.1152201
1.20164 -0.37461299 2.1033099
1.19434 -0.40103802 2.0735502
1.2214 -0.41043401 2.0399899
1.22312 -0.41095102 2.03353
1.21978 -0.38811001 2.0227799
1.21943 -0.394849 2.0257299
1.22781 -0.412774 2.0252302
1.2186 -0.38719299 2.0185299
1.2196 -0.394651 2.0188301
1.1627101 -0.33860099 2.18609
1.1659 -0.35074502 2.15871
1.1721801 -0.38013801 2.13064
1.1688 -0.350849 2.1489499
1.1637599 -0.345835 2.08882
1.16954 -0.37271801 2.0580599
1.1713201 -0.34954301 2.0750601
1.18266 -0.38563901 2.0265899
1.17265 -0.350041 2.1526902
1.21649 -0.39100498 2.10656
1.17184 -0.352501 2.0736201
1.1804 -0.38199502 2.05283
1.18016 -0.35455298 2.0612299
1.16844 -0.33167499 2.1939301
1.17172 -0.341474 2.17871
1.18279 -0.31049001 2.1601901
1.19111 -0.30989599 2.16379
1.18987 -0.30546001 2.16397
1.17878 -0.350171 2.0813699
1.1811299 -0.350115 2.0723503
1.1816001 -0.35390899 2.0614901
1.1742901 -0.35246301 2.1388502
1.17865 -0.35082 2.0792701
1.17923 -0.38010299 2.0573401
1.19451 -0.39315799 2.0239301
1.19042 -0.36993 2.0255098
1.16712 -0.33221802 2.1958098
1.1710501 -0.34053001 2.1754103
1.17381 -0.346771 2.1654902
1.1758699 -0.34742001 2.15347
1.1761 -0.356098 2.12835
1.18019 -0.35025102 2.0797799
1.18387 -0.34934101 2.0734
1.18592 -0.35163298 2.0616
1.18501 -0.35875198 2.0462
1.19048 -0.351863 2.05163
1.18496 -0.365453 2.0338001
1.18856 -0.36844701 2.02635
1.22259 -0.41044 2.03602
1.1930699 -0.374311 2.0201199
1.189 -0.31808299 2.20068
1.1932 -0.32853001 2.1810501
1.19791 -0.33879101 2.1686001
1.19452 -0.34701598 2.1673999
1.2024701 -0.33328801 2.1601102
1.1965699 -0.340067 2.1633499
1.19876 -0.350521 2.1538
1.19889 -0.34491003 2.1477301
1.1901001 -0.35766399 2.1536801
1.2106 -0.34998 2.1217699
1.2001001 -0.35432997 2.1319299
1.20407 -0.357467 2.1180899
1.2017601 -0.36925098 2.1082299
1.19734 -0.38003102 2.1075101
1.1996499 -0.37984198 2.0984602
1.18045 -0.315837 2.20152
1.1929001 -0.29927701 2.1847298
1.19359 -0.33723098 2.16482
1.19274 -0.347179 2.1614199
1.1909699 -0.32764 2.16625
1.1966001 -0.338819 2.1531298
1.19455 -0.34799197 2.15207
1.19944 -0.33540002 2.14204
1.19531 -0.34155601 2.1450901
1.19745 -0.35112 2.13676
1.19733 -0.35245299 2.12462
1.2016799 -0.35440499 2.1103799
1.19888 -0.36427602 2.1110699
1.19683 -0.37677503 2.1115799
1.20127 -0.35602 2.1013401
1.20389 -0.367268 2.09146
1.19598 -0.37665403 2.1027601
1.19583 -0.38911301 2.1008899
1.1867601 -0.415773 2.1036999
1.20346 -0.36931801 2.0794601
1.1993001 -0.376104 2.0862398
1.20981 -0.37194198 2.0621002
1.20128 -0.37588501 2.0704598
1.22153 -0.37748101 2.03703
1.20986 -0.37938598 2.04882
1.20504 -0.382772 2.0535102
1.2181801 -0.38244098 2.0285501
1.2122 -0.38513601 2.0360801
1.18206 -0.32182598 2.1921499
1.17164 -0.329478 2.1976199
1.18973 -0.31236899 2.17801
1.18951 -0.314841 2.16643
1.1916699 -0.317821 2.1513
1.1919399 -0.32749802 2.1457801
1.1939 -0.31407601 2.14112
1.19329 -0.32099301 2.1379101
1.2050099 -0.377018 2.0359602
1.21803 -0.38033298 2.0174
1.20972 -0.38231498 2.02565
1.18718 -0.307982 2.1989498
1.1893699 -0.32822898 2.1840301
1.19671 -0.32488498 2.1701102
1.1973701 -0.33315602 2.1656799
1.19462 -0.31838199 2.1670699
1.19691 -0.32843101 2.1584201
1.2007 -0.33963901 2.1460299
1.19337 -0.32074699 2.15716
1.20252 -0.33426103 2.1395903
1.19987 -0.342042 2.12236
1.20151 -0.35258099 2.1166401
1.2034301 -0.35742101 2.1003101
1.19771 -0.36098701 2.1071
1.20145 -0.36465999 2.0922699
1.2048 -0.36767399 2.0757699
1.2085 -0.35452098 2.0666602
1.2096 -0.36386397 2.0588801
1.20612 -0.37096 2.05861
1.21249 -0.37735 2.03897
1.20582 -0.37989601 2.0447199
1.20929 -0.36901599 2.0420401
1.2151101 -0.38110298 2.0252399
1.21224 -0.38487098 2.0262301
1.21582 -0.384334 2.0142701
1.18639 -0.31707501 2.2125001
1.19108 -0.32237399 2.1929598
1.18936 -0.32999802 2.1846302
1.19127 -0.30965298 2.1777201
1.1955 -0.32018003 2.16767
1.19776 -0.33087102 2.15646
1.20138 -0.34477502 2.1437702
1.19687 -0.32305402 2.1547501
1.1985 -0.333947 2.1435602
1.1977201 -0.355326 2.1316202
1.19627 -0.32528099 2.13995
1.19954 -0.335985 2.1293201
1.1997399 -0.348382 2.1228602
1.2000099 -0.36095199 2.1152301
1.20245 -0.35186401 2.1071701
1.20443 -0.36498201 2.0976501
1.19803 -0.36869702 2.1065202
1.20547 -0.36635602 2.0835502
1.20239 -0.37268102 2.0885301
1.20805 -0.36823699 2.0696399
1.2063301 -0.377592 2.0679502
1.2092099 -0.36066502 2.0618899
1.20881 -0.372509 2.0588698
1.2105 -0.37350398 2.0469401
1.21165 -0.384047 2.03828
1.21482 -0.376432 2.03141
1.21517 -0.387905 2.0234699
1.2217801 -0.38211101 2.0121701
