# .PCD v0.7 - Point Cloud Data file format
VERSION 0.7
FIELDS x y z
SIZE 4 4 4
TYPE F F F
COUNT 1 1 1
WIDTH 1642
HEIGHT 1
VIEWPOINT 0 0 0 1 0 0 0
POINTS 1642
DATA ascii
1.2053701 -0.41753501 1.8169101
1.22206 -0.41873601 1.81636
1.2337101 -0.42698002 1.81547
1.23887 -0.43370399 1.81529
1.22798 -0.44354901 1.8157001
1.16951 -0.50687999 1.8148599
1.16984 -0.51337099 1.81586
1.1684101 -0.52145302 1.81775
1.20964 -0.41609299 1.8106101
1.22098 -0.41829801 1.8099
1.23072 -0.42475399 1.80884
1.23327 -0.435992 1.80961
1.22755 -0.44514501 1.8088901
1.16877 -0.49417198 1.8069201
1.17503 -0.49858102 1.80787
1.17081 -0.50835699 1.8099301
1.20847 -0.415858 1.80453
1.2221199 -0.417867 1.8033
1.23253 -0.42573202 1.80193
1.2349299 -0.43380299 1.80327
1.21948 -0.450129 1.8021702
1.17721 -0.48925498 1.8031201
1.18002 -0.49369201 1.8026001
1.17562 -0.50157297 1.8024899
1.21516 -0.41319698 1.7985201
1.22276 -0.41638303 1.7964101
1.22765 -0.42530301 1.7956101
1.2276 -0.43916199 1.79668
1.21409 -0.45543802 1.7962899
1.19644 -0.47465199 1.79668
1.18943 -0.48715198 1.7957101
1.21842 -0.41325599 1.7912899
1.22975 -0.41585299 1.7908901
1.2354 -0.423576 1.7883
1.22948 -0.43720999 1.7896302
1.2132599 -0.45687303 1.7904501
1.1960601 -0.475676 1.7894299
1.19519 -0.48290402 1.7889199
1.22063 -0.41277501 1.7850201
1.23418 -0.41474098 1.78448
1.24063 -0.42258701 1.7821561
1.22975 -0.43678001 1.783197
1.2208999 -0.45026502 1.7843992
1.20848 -0.46579301 1.783442
1.20047 -0.477669 1.78313
1.2389901 -0.41245097 1.7787241
1.2432801 -0.419734 1.7763932
1.23501 -0.434154 1.777061
1.22179 -0.45048001 1.7787621
1.2090499 -0.46566799 1.7783911
1.19842 -0.47780499 1.7789191
1.24912 -0.41184101 1.770552
1.25064 -0.41863799 1.7696691
1.23701 -0.43177798 1.7705569
1.22851 -0.44551301 1.772539
1.26001 -0.40793899 1.762922
1.252 -0.41743198 1.764093
1.2433 -0.42815399 1.7648391
1.2407 -0.43652803 1.764384
1.26917 -0.40250802 1.756243
1.26064 -0.41321999 1.7576261
1.24511 -0.42805499 1.7584289
1.23799 -0.43730301 1.757436
1.21626 -0.39517501 1.748777
1.23331 -0.394245 1.7485729
1.2726101 -0.396456 1.7503079
1.26495 -0.40951902 1.7506149
1.2494 -0.42469001 1.752189
1.24402 -0.43430197 1.751212
1.22557 -0.39318198 1.7460462
1.24965 -0.39213401 1.745629
1.27189 -0.39583698 1.7448931
1.2685601 -0.40874299 1.74459
1.24979 -0.42550999 1.745286
1.2376699 -0.436768 1.7443991
1.2401201 -0.38829699 1.7414141
1.26169 -0.38771901 1.7399899
1.28168 -0.39052701 1.7388391
1.2764801 -0.40101799 1.740446
1.25137 -0.42396599 1.738694
1.2455699 -0.433514 1.7380431
1.23703 -0.378512 1.732392
1.25518 -0.379509 1.734296
1.27368 -0.38206902 1.733855
1.28877 -0.38720101 1.734174
1.2745401 -0.40386701 1.7354901
1.24762 -0.42807999 1.7320071
1.2385299 -0.43688801 1.7315719
1.25218 -0.37265801 1.728999
1.26739 -0.37396598 1.728678
1.2810899 -0.377626 1.727411
1.2811 -0.39798501 1.7326199
1.24125 -0.43196899 1.723605
1.24277 -0.43563598 1.725629
1.2707499 -0.36259103 1.7232339
1.27736 -0.37009603 1.7233951
1.28698 -0.37306899 1.7219031
1.24229 -0.43052101 1.716684
1.2416999 -0.43574002 1.7174361
1.2831501 -0.36502302 1.7179281
1.2966599 -0.369445 1.718343
1.25491 -0.42047101 1.7121649
1.24158 -0.431292 1.7106979
1.2883999 -0.36291698 1.7129711
1.2021 -0.41594899 1.8892801
1.21639 -0.42617199 1.88939
1.2144001 -0.43716401 1.8879199
1.19726 -0.41838199 1.88293
1.21482 -0.42042899 1.8835101
1.2139601 -0.43073899 1.8834201
1.2194899 -0.43933499 1.88015
1.21144 -0.44871101 1.8806399
1.1986099 -0.41746601 1.8773199
1.2101899 -0.42061001 1.87676
1.2172 -0.43001598 1.8764801
1.22249 -0.43987501 1.8742999
1.2223101 -0.44763499 1.8747602
1.2221199 -0.453013 1.8747001
1.2032399 -0.42085898 1.8708501
1.21857 -0.42531201 1.8695199
1.2250199 -0.43661702 1.86835
1.22627 -0.44593799 1.8696001
1.22513 -0.45263803 1.86886
1.20025 -0.41673198 1.8647
1.2080001 -0.42102 1.8639599
1.22235 -0.428195 1.86206
1.22378 -0.43889198 1.86209
1.22694 -0.44618598 1.8637201
1.22272 -0.45360401 1.86151
1.20517 -0.41439497 1.8577701
1.21343 -0.42118001 1.85694
1.22367 -0.42829201 1.8558099
1.2258201 -0.43608201 1.8571701
1.2232599 -0.44653198 1.85703
1.2166899 -0.454972 1.85518
1.18922 -0.40746102 1.85033
1.19644 -0.41185102 1.85094
1.20786 -0.41778198 1.8510801
1.21877 -0.427136 1.8499
1.22317 -0.43738997 1.85181
1.21268 -0.449967 1.8509799
1.2018499 -0.45895901 1.8510001
1.1841 -0.41006199 1.8469299
1.2037101 -0.41197801 1.8455701
1.21275 -0.419442 1.8446001
1.21856 -0.428424 1.8431201
1.2189801 -0.438795 1.8449302
1.20669 -0.45088798 1.8461401
1.19987 -0.41364801 1.8398401
1.20392 -0.41881001 1.84001
1.2182599 -0.424934 1.83798
1.2183499 -0.43595001 1.8371701
1.2097499 -0.44639802 1.8395001
1.18929 -0.41831002 1.8340201
1.2038701 -0.421128 1.8334399
1.2205501 -0.428316 1.83147
1.21719 -0.437462 1.8314
1.21536 -0.443387 1.8316101
1.2038 -0.421601 1.8276601
1.22042 -0.425928 1.8248301
1.22017 -0.43661898 1.82569
1.21083 -0.44525102 1.82576
1.21029 -0.42213199 1.8206
1.2242401 -0.42489201 1.81716
1.22658 -0.43289298 1.81828
1.2173899 -0.4427 1.8198401
1.21135 -0.42138901 1.81373
1.2247699 -0.422672 1.8112601
1.22675 -0.430657 1.8115702
1.2203701 -0.440797 1.8117402
1.19019 -0.41694802 1.80565
1.20574 -0.419664 1.80667
1.22455 -0.423242 1.8058701
1.22612 -0.433112 1.8052301
1.2165101 -0.44529498 1.8030601
1.1810501 -0.485405 1.80041
1.18821 -0.48779899 1.8001801
1.1908001 -0.417045 1.8025202
1.21078 -0.41842201 1.8013201
1.22788 -0.42365003 1.7997
1.2208 -0.436501 1.7986901
1.21297 -0.44860598 1.7974601
1.2006199 -0.46266201 1.7971301
1.1929699 -0.47966802 1.7967401
1.18989 -0.48631901 1.79725
1.1971 -0.41631499 1.7985201
1.2184501 -0.41856202 1.79537
1.23226 -0.424934 1.79251
1.21939 -0.439953 1.79276
1.20786 -0.45424199 1.7923599
1.19548 -0.46990001 1.7918601
1.19581 -0.479063 1.7914701
1.19033 -0.486213 1.793
1.24002 -0.41557997 1.7868201
1.23797 -0.42338198 1.78576
1.22411 -0.43636101 1.78666
1.21443 -0.44907299 1.78737
1.2067701 -0.46229401 1.7857001
1.1985199 -0.475375 1.7860299
1.19408 -0.48346198 1.78725
1.2525901 -0.41141701 1.7805001
1.24415 -0.41972697 1.7804902
1.23028 -0.43332499 1.7802371
1.21717 -0.44912499 1.780943
1.20698 -0.46199 1.7802471
1.20398 -0.47052601 1.779969
1.19529 -0.480434 1.7809161
1.2629399 -0.40806702 1.777001
1.24491 -0.41870603 1.775684
1.23744 -0.42932901 1.7742391
1.2218 -0.44548199 1.7735629
1.2093199 -0.460639 1.775213
1.2032 -0.46974602 1.773935
1.2388999 -0.42488399 1.768217
1.2278299 -0.436176 1.767952
1.22296 -0.44589999 1.7676821
1.2123799 -0.45749298 1.7680981
1.1971099 -0.468808 1.7671241
1.23282 -0.42748401 1.7606131
1.23331 -0.432814 1.7625312
1.22039 -0.44579601 1.7621601
1.2096601 -0.45743698 1.7610741
1.22912 -0.42787498 1.7538699
1.22684 -0.435821 1.7556061
1.21665 -0.44860199 1.755145
1.20162 -0.458821 1.754751
1.22788 -0.42723 1.748808
1.23018 -0.432888 1.7480701
1.21962 -0.44514099 1.7488519
1.20675 -0.45560798 1.7495651
1.23307 -0.42599401 1.743793
1.23324 -0.43178502 1.7410871
1.22532 -0.44225299 1.7421451
1.21113 -0.45289502 1.743522
1.23467 -0.425477 1.7378269
1.2345901 -0.43031397 1.7355411
1.2292501 -0.440052 1.7350601
1.21496 -0.45108399 1.7369821
1.23268 -0.42583197 1.7318829
1.22983 -0.43268502 1.729736
1.22721 -0.44180501 1.7279221
1.21903 -0.44969299 1.7302749
1.22957 -0.426581 1.725276
1.22891 -0.43379799 1.7224921
1.2274801 -0.44286099 1.7221842
1.2197599 -0.45002103 1.7238141
1.28179 -0.35412499 1.7198181
1.22663 -0.42616001 1.717858
1.23273 -0.431124 1.7156501
1.22979 -0.44120201 1.716459
1.2228199 -0.44961798 1.7175931
1.23914 -0.41749501 1.7145171
1.2248501 -0.42631599 1.711338
1.23599 -0.42969102 1.7107691
1.22954 -0.44888002 1.710282
1.1818 -0.46382198 1.88642
1.17554 -0.45943901 1.8867301
1.16994 -0.45422298 1.8874301
1.17178 -0.44779 1.8861401
1.1928 -0.46336499 1.87981
1.1784301 -0.46269798 1.8807101
1.17305 -0.45466301 1.8813101
1.17112 -0.44826803 1.8797299
1.21903 -0.466748 1.8735001
1.2088701 -0.46505201 1.8742402
1.19265 -0.46437901 1.8748699
1.17942 -0.46012601 1.8750201
1.17381 -0.45146701 1.8744102
1.1755999 -0.443564 1.87494
1.22036 -0.47452599 1.86685
1.2153701 -0.47008702 1.86955
1.20683 -0.46645099 1.86983
1.18933 -0.46455202 1.86875
1.17768 -0.457995 1.8690801
1.1746601 -0.44939801 1.86858
1.1740201 -0.442175 1.86909
1.22694 -0.47240502 1.8623101
1.21623 -0.470359 1.86429
1.2000099 -0.46928701 1.8646001
1.19069 -0.46580601 1.8629199
1.18021 -0.46025798 1.8629501
1.1746399 -0.45227402 1.8641901
1.1719 -0.44266102 1.86314
1.1823601 -0.42725301 1.8632102
1.1462001 -0.576343 1.8523401
1.22579 -0.473773 1.85869
1.22394 -0.46784699 1.85831
1.20222 -0.46865502 1.85888
1.18589 -0.46551201 1.8579401
1.176 -0.46157902 1.8577
1.173 -0.45252299 1.85787
1.1747 -0.43832198 1.85754
1.17348 -0.431335 1.8586501
1.1709501 -0.42605999 1.85744
1.16152 -0.575903 1.84776
1.14635 -0.58099097 1.8493401
1.14999 -0.57202703 1.8481601
1.1533101 -0.564933 1.8482699
1.239 -0.46506402 1.8557299
1.23043 -0.463195 1.85464
1.20919 -0.46616298 1.8536301
1.18949 -0.46614799 1.8534399
1.17765 -0.46013802 1.8525101
1.17286 -0.45253798 1.8527
1.1721801 -0.44304901 1.8526199
1.1734201 -0.42983502 1.85263
1.17197 -0.42346999 1.8529299
1.15661 -0.57171702 1.8442199
1.1567299 -0.565813 1.8437701
1.15511 -0.55983698 1.84281
1.22446 -0.46053901 1.85168
1.1841999 -0.46514198 1.84721
1.17537 -0.460145 1.8463299
1.17263 -0.45219299 1.84804
1.173 -0.44027099 1.84694
1.1757801 -0.42736 1.8458301
1.17228 -0.42276099 1.8482101
1.1680599 -0.56256998 1.8394101
1.16037 -0.56124002 1.8392999
1.16154 -0.55195099 1.8376499
1.1638401 -0.54440802 1.83716
1.18024 -0.46488398 1.83987
1.1761 -0.46144 1.8414501
1.1731501 -0.45204899 1.8416699
1.17642 -0.43666199 1.84097
1.17902 -0.42500001 1.8408501
1.17741 -0.41981301 1.84296
1.16908 -0.55433398 1.8351401
1.16302 -0.55132502 1.83452
1.16277 -0.54307598 1.83284
1.16681 -0.53576899 1.83284
1.1797299 -0.46432301 1.8344101
1.17572 -0.46003699 1.8349099
1.1741101 -0.448814 1.8353601
1.1773 -0.43529597 1.8363501
1.1890399 -0.41838601 1.8380901
1.1839 -0.415782 1.8392199
1.1673 -0.54512 1.82996
1.16679 -0.53839999 1.8283701
1.16755 -0.53326899 1.82797
1.18101 -0.463707 1.8287101
1.17882 -0.45874101 1.8290601
1.1744 -0.453329 1.82921
1.17354 -0.444305 1.8295701
1.1903601 -0.52512097 1.8211
1.17519 -0.53094399 1.82315
1.17686 -0.525361 1.8226601
1.18159 -0.46571898 1.8216699
1.17834 -0.45908797 1.8231101
1.1741201 -0.45105302 1.82344
1.17468 -0.444215 1.8235401
1.1879799 -0.52043897 1.8177701
1.18293 -0.51825202 1.8171899
1.2014099 -0.46260399 1.8154601
1.18449 -0.46410301 1.8169399
1.17454 -0.46209702 1.81749
1.1741201 -0.45365298 1.8176001
1.17585 -0.44338101 1.8174601
1.18863 -0.51087999 1.8122602
1.20016 -0.49612498 1.81033
1.20643 -0.46467701 1.80994
1.1897399 -0.46526 1.8113102
1.1805999 -0.45871201 1.81172
1.1763301 -0.44865799 1.8116299
1.17751 -0.43966401 1.8104401
1.19637 -0.49516401 1.80547
1.2029901 -0.48055801 1.80586
1.2058001 -0.46442902 1.80651
1.18608 -0.465 1.8069501
1.17968 -0.46010101 1.80554
1.17558 -0.45218602 1.80598
1.17766 -0.43997601 1.8057201
1.1809 -0.43030101 1.8044701
1.19498 -0.49409401 1.8000301
1.19807 -0.48699901 1.7996001
1.21153 -0.46623501 1.8040701
1.1837001 -0.46493599 1.80168
1.17756 -0.457836 1.79978
1.17532 -0.44805402 1.8010901
1.17597 -0.43812197 1.7997501
1.18001 -0.42938501 1.7996601
1.1960601 -0.49126899 1.7946
1.19778 -0.48333901 1.7922299
1.20792 -0.47031799 1.79125
1.18232 -0.46514198 1.79362
1.17115 -0.46110803 1.79386
1.17198 -0.44968101 1.79538
1.1676201 -0.44348702 1.7949899
1.17559 -0.43246701 1.7943801
1.2009101 -0.48621398 1.7877201
1.19916 -0.48042402 1.7874
1.2006199 -0.47025099 1.7883801
1.18733 -0.46629602 1.78686
1.17348 -0.462107 1.7886401
1.16959 -0.45423999 1.79026
1.16856 -0.444572 1.7899499
1.1752601 -0.433404 1.78789
1.2052799 -0.48349702 1.781687
1.19962 -0.48176998 1.7832221
1.19935 -0.472114 1.782946
1.18818 -0.467767 1.781456
1.17758 -0.461934 1.7821661
1.16947 -0.45400199 1.7849621
1.1723599 -0.44202998 1.783426
1.18199 -0.42958599 1.7824551
1.20821 -0.47979698 1.777081
1.2003601 -0.47951001 1.7784289
1.19756 -0.47076303 1.7770981
1.18414 -0.46761 1.7767911
1.1786901 -0.460729 1.776358
1.1758 -0.450679 1.777941
1.1755999 -0.44151902 1.7775791
1.20084 -0.475034 1.773116
1.19429 -0.46847001 1.771698
1.1824299 -0.46580699 1.77209
1.18029 -0.456736 1.77119
1.1763099 -0.44900298 1.772558
1.1854399 -0.43793201 1.7716041
1.19725 -0.46616402 1.766796
1.1831501 -0.46484101 1.7666811
1.18292 -0.45602402 1.766084
1.17854 -0.450196 1.7665161
1.20285 -0.42328498 1.758327
1.18435 -0.46288601 1.7602811
1.18197 -0.45584098 1.761387
1.19024 -0.43901902 1.7576751
1.20455 -0.42088798 1.755128
1.18358 -0.46152902 1.752892
1.18523 -0.45209998 1.7541549
1.19054 -0.43865699 1.7528011
1.20373 -0.42153198 1.75103
1.2135501 -0.40869001 1.7505291
1.1797299 -0.464908 1.7478781
1.18051 -0.45799199 1.7479972
1.1905301 -0.43961897 1.747153
1.2045 -0.420311 1.7460462
1.20848 -0.41205201 1.7456501
1.18348 -0.46313703 1.7421249
1.18602 -0.45348498 1.7418649
1.19101 -0.44054499 1.7406081
1.20235 -0.423022 1.7408881
1.21206 -0.410211 1.7397619
1.19883 -0.46066299 1.734467
1.1859601 -0.46158502 1.7368771
1.18804 -0.451601 1.7359179
1.1956301 -0.43574601 1.735261
1.20271 -0.42345199 1.734787
1.19927 -0.46197301 1.729525
1.1897399 -0.46089599 1.730177
1.1889499 -0.44936502 1.73028
1.19801 -0.43404597 1.7301489
1.2089 -0.42234698 1.7286459
1.1968399 -0.46394199 1.7248139
1.18449 -0.46592098 1.724367
1.1846499 -0.45719299 1.7247821
1.19409 -0.44112203 1.724326
1.19363 -0.465298 1.718518
1.18391 -0.46446499 1.7197729
1.18479 -0.45548001 1.7189419
1.19093 -0.444756 1.7169521
1.1933 -0.46670699 1.712221
1.18589 -0.463485 1.7130749
1.1845 -0.45467499 1.7132721
1.19196 -0.44422501 1.710694
1.1915699 -0.467832 1.8875301
1.18943 -0.46394402 1.88591
1.18117 -0.45855799 1.8860201
1.1782 -0.44904998 1.8883901
1.17651 -0.44288298 1.8874099
1.1922799 -0.468283 1.88112
1.18574 -0.46452799 1.88132
1.1817601 -0.458345 1.8798901
1.17811 -0.45035198 1.8824099
1.18191 -0.44216499 1.88073
1.2025701 -0.46648201 1.87494
1.18911 -0.46496898 1.8756601
1.18057 -0.45964402 1.87438
1.1791301 -0.45024601 1.8758099
1.18398 -0.44055098 1.8748599
1.2041401 -0.47172502 1.87026
1.19893 -0.46860999 1.87009
1.1881 -0.46421 1.86926
1.17992 -0.45633 1.8697
1.18295 -0.44496399 1.8701199
1.1881 -0.43662399 1.8702999
1.15038 -0.577384 1.85804
1.20754 -0.469717 1.8660501
1.19529 -0.469455 1.86431
1.19028 -0.46434602 1.86443
1.18332 -0.45894799 1.86431
1.18037 -0.448376 1.8638901
1.18929 -0.43458301 1.86472
1.14213 -0.57992804 1.85427
1.15324 -0.571724 1.8548001
1.2027401 -0.47097301 1.8605901
1.19796 -0.468404 1.85966
1.1895 -0.46454602 1.8596301
1.1819201 -0.456242 1.8585
1.17851 -0.44834 1.85873
1.18411 -0.43615201 1.85857
1.18924 -0.425266 1.8586099
1.14442 -0.58205897 1.8502899
1.14345 -0.57824701 1.8503799
1.14571 -0.57234597 1.8497
1.1949199 -0.46735698 1.8544501
1.18548 -0.462587 1.8538101
1.18317 -0.45512199 1.8537101
1.17844 -0.44764802 1.8536099
1.18128 -0.43532699 1.8532501
1.18565 -0.425387 1.85388
1.19602 -0.41446 1.85429
1.14844 -0.57953 1.84563
1.14473 -0.576608 1.84646
1.15001 -0.56749296 1.8444601
1.1547 -0.56119704 1.84481
1.20178 -0.46347901 1.84716
1.1843901 -0.46479902 1.8480099
1.1794 -0.45664501 1.8488101
1.1772 -0.44755402 1.8481201
1.17488 -0.44075298 1.8491
1.181 -0.42892301 1.84883
1.18838 -0.41792098 1.8488101
1.1543499 -0.576864 1.8426901
1.15615 -0.56995499 1.8421302
1.15453 -0.563613 1.84056
1.15622 -0.55655301 1.83953
1.19837 -0.46493801 1.8420199
1.18985 -0.46352401 1.84184
1.18025 -0.45862201 1.8429501
1.17425 -0.45160198 1.8438901
1.1763099 -0.44018599 1.8439
1.1836799 -0.42587602 1.8435
1.19046 -0.415705 1.8433099
1.1591201 -0.55858004 1.83629
1.16381 -0.54964805 1.8347299
1.1673501 -0.54218501 1.8338501
1.20057 -0.46331501 1.8369401
1.1875701 -0.464412 1.83692
1.1846 -0.458213 1.8372601
1.1758699 -0.45057499 1.8384
1.17818 -0.43774199 1.8384202
1.1842099 -0.42542401 1.8392501
1.1997499 -0.41050598 1.8402499
1.17205 -0.54964399 1.8315399
1.16495 -0.54872501 1.8316001
1.1690201 -0.54016995 1.83043
1.17472 -0.53013301 1.8284601
1.19959 -0.463469 1.83155
1.18682 -0.46345299 1.8316501
1.18145 -0.45552501 1.8323902
1.17457 -0.44887799 1.8334301
1.1830001 -0.43705899 1.8339401
1.17609 -0.54014599 1.82737
1.17638 -0.53294998 1.8260502
1.1772599 -0.52565402 1.8242301
1.1785901 -0.51933897 1.8233801
1.19999 -0.46286401 1.82585
1.18496 -0.46387002 1.82567
1.1831 -0.457589 1.82716
1.17492 -0.45278001 1.82767
1.1791999 -0.52842098 1.8211402
1.18331 -0.519391 1.8196499
1.18027 -0.514395 1.81853
1.1968 -0.46446401 1.8195401
1.19021 -0.46249402 1.82121
1.18067 -0.45857298 1.82098
1.1794 -0.45210099 1.82093
1.19348 -0.51933104 1.81576
1.1794699 -0.52099204 1.8160001
1.1855999 -0.51077598 1.81422
1.18756 -0.50458503 1.8138901
1.20689 -0.46055302 1.8136901
1.18815 -0.46275398 1.8156301
1.17944 -0.45888901 1.81541
1.17562 -0.45376098 1.81451
1.19101 -0.512465 1.8111801
1.18381 -0.50907499 1.80969
1.18442 -0.50265098 1.80858
1.20601 -0.46287799 1.8087801
1.19302 -0.46309897 1.80959
1.18128 -0.45873401 1.8102601
1.17644 -0.450773 1.8081399
1.18107 -0.44283599 1.8090301
1.18539 -0.50498903 1.80481
1.1853 -0.49861598 1.8039501
1.19127 -0.487416 1.8029901
1.20524 -0.465857 1.8032901
1.18747 -0.463882 1.80511
1.18155 -0.45708099 1.8041201
1.17468 -0.44991797 1.8025
1.1775299 -0.441432 1.80371
1.19111 -0.49960098 1.79804
1.1912301 -0.49336103 1.79899
1.19318 -0.48110297 1.7985501
1.20468 -0.46663502 1.7986599
1.18784 -0.46525002 1.79953
1.17818 -0.45833501 1.7984101
1.17373 -0.45002899 1.79722
1.17383 -0.44170398 1.7984799
1.17916 -0.43349999 1.7988
1.19819 -0.495318 1.7933999
1.18891 -0.49508998 1.7941501
1.18938 -0.48541901 1.7931201
1.2006401 -0.46884301 1.7944
1.1825299 -0.466436 1.7938101
1.1757599 -0.45782003 1.7927099
1.16957 -0.451801 1.7932901
1.1712899 -0.44342202 1.7936
1.17617 -0.43428698 1.7934601
1.19225 -0.49092999 1.7891001
1.19025 -0.48374501 1.7866
1.1883 -0.47407398 1.78847
1.18205 -0.46518099 1.7885699
1.17757 -0.45861301 1.7867401
1.1747299 -0.44855499 1.7886
1.17317 -0.440191 1.78904
1.1760601 -0.43384898 1.78745
1.19226 -0.48740199 1.7823691
1.18819 -0.484317 1.782142
1.1889601 -0.47631499 1.7823361
1.18361 -0.4668 1.7828841
1.17514 -0.46102101 1.781882
1.17329 -0.452472 1.7827481
1.17582 -0.440815 1.7834961
1.18054 -0.43269798 1.7827591
1.19441 -0.48465401 1.777258
1.19014 -0.48142502 1.777699
1.18669 -0.47298402 1.777136
1.1799099 -0.46497101 1.777207
1.1756999 -0.45771998 1.778054
1.17336 -0.45036 1.7780651
1.1805 -0.43925899 1.7785439
1.19557 -0.47772202 1.772948
1.1861 -0.47564802 1.7729061
1.18417 -0.466515 1.7712331
1.17655 -0.45832002 1.772581
1.17558 -0.45013699 1.773314
1.1901799 -0.47111499 1.767566
1.1872699 -0.46460602 1.7651891
1.1817299 -0.45908797 1.7658991
1.17404 -0.45464697 1.766705
1.1914901 -0.46704102 1.7602772
1.18423 -0.46312001 1.76028
1.17879 -0.45708698 1.7605951
1.17343 -0.45398799 1.7608371
1.19542 -0.465491 1.754698
1.1888 -0.46340802 1.754776
1.18286 -0.45755401 1.754928
1.18023 -0.44881302 1.7545121
1.1992099 -0.42610499 1.7497909
1.21849 -0.40632197 1.74781
1.19442 -0.46522 1.750047
1.18648 -0.46238399 1.7490751
1.18151 -0.45518199 1.7502121
1.18419 -0.44391799 1.748498
1.1996 -0.42578098 1.7460462
1.2101799 -0.41104499 1.745368
1.22105 -0.39960203 1.7450202
1.19463 -0.46422902 1.744285
1.18523 -0.46366298 1.743425
1.1842099 -0.45452899 1.7442089
1.18547 -0.44164902 1.742667
1.2058799 -0.41982499 1.741431
1.20986 -0.41034698 1.741503
1.22405 -0.39849898 1.7411309
1.19333 -0.46453899 1.738035
1.1833 -0.46271402 1.7391571
1.18503 -0.45193803 1.7377679
1.1824501 -0.44413799 1.7382721
1.19881 -0.42744401 1.7370239
1.2092 -0.413017 1.736483
1.19305 -0.46491 1.7323111
1.18457 -0.46244702 1.732756
1.18224 -0.453758 1.73247
1.1863099 -0.44242099 1.7338769
1.2071 -0.42162201 1.731076
1.22553 -0.403642 1.7278171
1.18878 -0.46704799 1.7272571
1.1846 -0.46369302 1.727391
1.1811399 -0.45758203 1.72712
1.1820201 -0.44689801 1.7292001
1.22911 -0.40459999 1.723507
1.2487999 -0.38726699 1.71969
1.27238 -0.36198601 1.7169549
1.18985 -0.46669799 1.7217231
1.1834301 -0.46423802 1.7224301
1.17457 -0.46091098 1.7214
1.17961 -0.45199099 1.723002
1.24325 -0.39428198 1.716681
1.25898 -0.378921 1.7130982
1.27786 -0.357326 1.712052
1.18581 -0.46772 1.7165109
1.1785901 -0.46508399 1.717526
1.17229 -0.46186599 1.7166681
1.17356 -0.45558798 1.7168231
1.25142 -0.389691 1.7101071
1.17883 -0.46453097 1.7119589
1.17748 -0.45770499 1.7119931
1.17355 -0.454436 1.7108771
1.18736 -0.456146 1.8886402
1.18372 -0.45438999 1.8884399
1.24175 -0.45496699 1.88211
1.24288 -0.45062301 1.88237
1.19786 -0.45544398 1.8829001
1.1870301 -0.45403099 1.8833001
1.23061 -0.458022 1.87915
1.22288 -0.45578602 1.87918
1.19566 -0.45678601 1.8778701
1.18641 -0.45478198 1.87845
1.22042 -0.46119499 1.8749601
1.20549 -0.46026501 1.8734
1.19075 -0.45833302 1.8718899
1.18906 -0.453971 1.8739401
1.20456 -0.46541402 1.8679901
1.1992099 -0.46106097 1.86778
1.1898 -0.458168 1.8671401
1.18756 -0.45478499 1.8685901
1.1512101 -0.580172 1.8579001
1.2092199 -0.464416 1.86147
1.19993 -0.46217099 1.8627
1.19407 -0.45789298 1.86343
1.1876301 -0.454871 1.8629299
1.1520801 -0.57669997 1.8544
1.1544 -0.56876802 1.8526601
1.16684 -0.55880404 1.85209
1.21251 -0.46400502 1.8560001
1.20482 -0.46115699 1.8572
1.19354 -0.45781201 1.85817
1.18836 -0.45429599 1.85761
1.15663 -0.57245302 1.85103
1.15923 -0.56448799 1.8486099
1.15764 -0.55965 1.8483901
1.22473 -0.460136 1.8520401
1.20936 -0.46063802 1.8516101
1.19837 -0.45758203 1.8530099
1.1903701 -0.45440701 1.85229
1.1589299 -0.56747103 1.84613
1.15765 -0.56342798 1.8451101
1.1612899 -0.55712396 1.84469
1.16624 -0.548235 1.8429501
1.21583 -0.46290299 1.8474801
1.21534 -0.45818001 1.8464501
1.1972699 -0.45773602 1.8471701
1.1891 -0.45424098 1.8457299
1.16307 -0.55905604 1.84184
1.16368 -0.55271196 1.84056
1.1700701 -0.54396498 1.8387702
1.17809 -0.53425801 1.8376001
1.21435 -0.46220601 1.8417401
1.2103 -0.45798802 1.8424201
1.1929799 -0.45739102 1.84096
1.18629 -0.454519 1.84089
1.1719899 -0.54705697 1.8358099
1.1763099 -0.53822899 1.8345001
1.18225 -0.52862298 1.83367
1.19224 -0.52106398 1.8339101
1.20496 -0.46519902 1.83522
1.2044001 -0.460206 1.83729
1.19288 -0.45799801 1.8355801
1.1886001 -0.45368198 1.8359201
1.1831601 -0.54127997 1.8305401
1.1756999 -0.53862202 1.83039
1.17862 -0.53003502 1.82986
1.18646 -0.520392 1.8297101
1.1996601 -0.51331401 1.83138
1.2066101 -0.464757 1.8292801
1.19993 -0.46120998 1.83112
1.1895601 -0.45727903 1.8310001
1.18602 -0.453926 1.83125
1.1867 -0.53347301 1.82647
1.17884 -0.53048599 1.82612
1.18388 -0.51983601 1.82443
1.18361 -0.512317 1.8237702
1.21218 -0.463074 1.8242301
1.20592 -0.46040902 1.8252701
1.19321 -0.45760101 1.82581
1.18761 -0.45377702 1.8266799
1.1851799 -0.52436399 1.82146
1.1841301 -0.51646399 1.8192401
1.1840301 -0.50992799 1.8194901
1.19874 -0.49927601 1.81905
1.19846 -0.49386102 1.8179699
1.2174801 -0.46054101 1.8204001
1.21324 -0.45837399 1.82095
1.19969 -0.45698002 1.8206
1.18945 -0.45444098 1.8203601
1.18139 -0.51609403 1.8151001
1.1860601 -0.50821501 1.81468
1.18601 -0.50160998 1.81485
1.21202 -0.45640799 1.8164901
1.1949099 -0.45598599 1.8150601
1.18717 -0.45365101 1.8140399
1.18872 -0.510701 1.8103
1.1811299 -0.50930804 1.8106601
1.18609 -0.50036001 1.8092599
1.19357 -0.49260899 1.80913
1.2089 -0.45483002 1.8096499
1.19198 -0.455549 1.80948
1.18451 -0.45403302 1.8094602
1.1859 -0.50418901 1.80608
1.18771 -0.49748001 1.8044701
1.1917 -0.489575 1.80319
1.2107199 -0.45528197 1.8039
1.1960701 -0.455722 1.8042599
1.18717 -0.453545 1.8044701
1.20837 -0.491216 1.7966299
1.1914001 -0.49359402 1.7993
1.19655 -0.48379201 1.7977899
1.2086799 -0.470689 1.7973801
1.2108799 -0.45703498 1.79839
1.1920099 -0.456065 1.79914
1.18398 -0.45422101 1.7996302
1.2016701 -0.48831901 1.7930901
1.1991401 -0.48403901 1.79413
1.20473 -0.47261798 1.79283
1.21164 -0.46078202 1.79373
1.19549 -0.457313 1.79339
1.1889 -0.45313999 1.79477
1.2169 -0.481222 1.7866501
1.20535 -0.47957599 1.7884201
1.20175 -0.47145802 1.7877301
1.2064199 -0.46180698 1.78897
1.1944001 -0.45785701 1.7877499
1.18936 -0.45352599 1.78853
1.22262 -0.47793701 1.7820309
1.20971 -0.47762099 1.7829862
1.20342 -0.47283101 1.7838172
1.19907 -0.46390098 1.783013
1.18769 -0.45790401 1.783324
1.1847301 -0.45389199 1.783801
1.2166899 -0.47305501 1.7784381
1.20454 -0.470952 1.779091
1.19725 -0.46487302 1.7773739
1.1902699 -0.45873502 1.7775121
1.1833999 -0.45485002 1.779371
1.19696 -0.46979699 1.7736511
1.19348 -0.463516 1.773116
1.18853 -0.458177 1.7717481
1.18645 -0.45437402 1.773854
1.20004 -0.46561298 1.7673891
1.19144 -0.46319699 1.767984
1.18417 -0.459133 1.76711
1.18459 -0.45456201 1.768378
1.19111 -0.462648 1.7623361
1.18539 -0.459719 1.763126
1.18232 -0.45553002 1.762677
1.19366 -0.46011102 1.756554
1.18811 -0.457607 1.7569531
1.18503 -0.45413101 1.7570151
1.2322299 -0.40315399 1.7498519
1.22917 -0.39967901 1.749458
1.1965001 -0.45802298 1.7509689
1.1867501 -0.45745301 1.751615
1.1870099 -0.453275 1.751554
1.21665 -0.40868899 1.7481101
1.21548 -0.40443403 1.7471662
1.22063 -0.39774102 1.7469009
1.22063 -0.39280799 1.7464999
1.19753 -0.45748699 1.745543
1.1910601 -0.45573002 1.7459821
1.1877201 -0.45286998 1.7461841
1.2143 -0.40930599 1.7436991
1.20762 -0.407538 1.7440561
1.21479 -0.399979 1.743464
1.20079 -0.45622003 1.739949
1.1893699 -0.45626599 1.740802
1.18876 -0.45243302 1.7407941
1.2109799 -0.41039002 1.7391281
1.21237 -0.40549999 1.7391471
1.21969 -0.39718202 1.736634
1.19696 -0.457553 1.734935
1.19078 -0.45570201 1.7353799
1.18762 -0.45277199 1.7355661
1.21773 -0.40600899 1.7340399
1.22025 -0.40017501 1.7328751
1.23621 -0.38679901 1.7286561
1.1954399 -0.45820999 1.7298681
1.18522 -0.45789 1.730698
1.1858001 -0.453758 1.7303421
1.23988 -0.38942501 1.72539
1.2472 -0.380014 1.7234501
1.26529 -0.36270002 1.720719
1.19433 -0.45883998 1.7250381
1.1892099 -0.45656201 1.7254032
1.18528 -0.45343 1.724131
1.25665 -0.38091302 1.717063
1.25586 -0.37497199 1.717877
1.26858 -0.35969299 1.7157201
1.19188 -0.45930699 1.7206261
1.18593 -0.45671999 1.7194101
1.1845601 -0.45288301 1.7196591
1.27131 -0.37408403 1.7110131
1.25747 -0.37545601 1.7129021
1.26634 -0.364124 1.711391
1.18922 -0.46001202 1.7148551
1.18375 -0.45768398 1.7134689
1.18278 -0.45373198 1.715471
1.18012 -0.45417401 1.7102209
1.17881 -0.449451 1.8856201
1.17805 -0.44419202 1.8860699
1.17712 -0.437224 1.88491
1.17635 -0.43192601 1.8869799
1.18238 -0.45030299 1.87972
1.1790299 -0.44239798 1.8806601
1.17902 -0.436263 1.88094
1.17725 -0.43267798 1.88097
1.2093199 -0.46035099 1.8736501
1.2014199 -0.455827 1.8744701
1.1874601 -0.45199099 1.87448
1.18042 -0.44466099 1.8750701
1.1767601 -0.43744302 1.87676
1.17624 -0.432616 1.87515
1.23434 -0.46202499 1.8692501
1.21316 -0.460659 1.8702899
1.19956 -0.45602599 1.8705601
1.18575 -0.450526 1.8705001
1.17794 -0.44506401 1.8705301
1.17723 -0.43790901 1.8705701
1.17988 -0.43133 1.8704901
1.23555 -0.46174702 1.8661301
1.22198 -0.46107602 1.8665701
1.21097 -0.45678797 1.8662801
1.19003 -0.452773 1.8659101
1.18154 -0.44518298 1.86615
1.17917 -0.43779302 1.86482
1.1791101 -0.43124402 1.86518
1.14441 -0.57979798 1.8568801
1.1441101 -0.57340401 1.8563401
1.2190599 -0.45930499 1.86177
1.2015799 -0.45541698 1.86134
1.18724 -0.45064601 1.86178
1.1830601 -0.4436 1.8608
1.18083 -0.43479303 1.85957
1.18214 -0.42745498 1.85947
1.14763 -0.576428 1.85265
1.14583 -0.57175803 1.85331
1.14794 -0.56458998 1.8518201
1.16126 -0.55472398 1.8499701
1.22368 -0.45789501 1.85653
1.2106 -0.45440799 1.8567002
1.19022 -0.44996399 1.85718
1.18093 -0.443187 1.85561
1.1784201 -0.435644 1.8540399
1.18164 -0.42693803 1.8549701
1.19004 -0.41952401 1.8552301
1.1603299 -0.57840699 1.84895
1.15084 -0.57510602 1.8487601
1.15031 -0.56876802 1.84935
1.15563 -0.55918801 1.8473599
1.16089 -0.55107999 1.8462601
1.2385299 -0.45529202 1.8540801
1.2249299 -0.454402 1.8541
1.18489 -0.44926101 1.8515201
1.1800801 -0.44262999 1.85097
1.1770099 -0.437379 1.84958
1.17945 -0.42890701 1.8500301
1.18924 -0.419157 1.85037
1.1613899 -0.571679 1.8450501
1.15738 -0.56546998 1.84464
1.155 -0.55845904 1.8436301
1.15967 -0.55054498 1.84273
1.17317 -0.54101896 1.8419701
1.1858001 -0.44843602 1.84569
1.1802601 -0.44388101 1.8458501
1.1793801 -0.43536401 1.84535
1.18064 -0.42673698 1.84553
1.18945 -0.418569 1.8460201
1.1955301 -0.41228297 1.8474499
1.16795 -0.56277001 1.8410801
1.1586599 -0.55672902 1.84015
1.15888 -0.54930198 1.83909
1.16716 -0.540703 1.8380901
1.17855 -0.53139704 1.8371701
1.18671 -0.449411 1.8399899
1.18199 -0.44214001 1.8398401
1.17865 -0.43391898 1.8412399
1.18353 -0.42698202 1.8406799
1.16755 -0.55530703 1.83759
1.16405 -0.54679 1.8358802
1.1663201 -0.53867 1.8342801
1.16883 -0.53097498 1.8331399
1.1813201 -0.52238798 1.8326499
1.2265201 -0.45414501 1.8338901
1.2135 -0.451372 1.8345101
1.1903501 -0.44922101 1.8349
1.18389 -0.442469 1.8340801
1.1774 -0.43591702 1.83638
1.1845 -0.429189 1.8347
1.16857 -0.53533101 1.8300101
1.17278 -0.52789599 1.8286301
1.1752 -0.52151299 1.82867
1.18363 -0.51525599 1.8285401
1.2237999 -0.453886 1.8317801
1.20657 -0.45119599 1.8314301
1.18888 -0.448387 1.8307201
1.18066 -0.443014 1.82901
1.18051 -0.43572301 1.83095
1.18195 -0.43001598 1.8293701
1.17453 -0.53121495 1.82533
1.16809 -0.52891201 1.82547
1.17488 -0.52129298 1.8246001
1.17786 -0.51403099 1.82353
1.18452 -0.44867599 1.82645
1.17954 -0.44301498 1.82386
1.17814 -0.43599901 1.82535
1.18457 -0.42917597 1.8248901
1.17901 -0.52343202 1.82149
1.17791 -0.517079 1.8203501
1.18147 -0.509875 1.8183099
1.19051 -0.504857 1.81883
1.1793699 -0.44784901 1.82055
1.17467 -0.44381401 1.8186802
1.1766601 -0.43756598 1.8203101
1.18197 -0.43044201 1.82016
1.1810399 -0.51368403 1.8159201
1.1812201 -0.50751996 1.8137801
1.19365 -0.50202298 1.81451
1.17618 -0.44799998 1.8147101
1.17375 -0.44395 1.8145401
1.17572 -0.43701199 1.81485
1.18064 -0.43041098 1.8151801
1.1869999 -0.50465697 1.8094701
1.1863201 -0.50041503 1.8090601
1.1798301 -0.447492 1.8099
1.1758599 -0.443203 1.8097
1.1734101 -0.436811 1.8094602
1.1782299 -0.43094298 1.8106301
1.19726 -0.49947798 1.80425
1.1889399 -0.49776199 1.8046601
1.1953501 -0.48898202 1.8022602
1.2046601 -0.48081401 1.8008901
1.17856 -0.44811299 1.8050301
1.17679 -0.44322699 1.80347
1.17322 -0.438054 1.8052899
1.17611 -0.43182001 1.80507
1.19506 -0.49257401 1.7990201
1.20012 -0.484633 1.7976601
1.1984401 -0.479678 1.7978101
1.1810399 -0.44964099 1.7983
1.17618 -0.44334498 1.7986801
1.17529 -0.43675599 1.80005
1.1739399 -0.43203899 1.79994
1.20964 -0.48736599 1.7923599
1.20226 -0.484164 1.7933999
1.2004499 -0.47719502 1.7936
1.20839 -0.46777302 1.7931601
1.20146 -0.457331 1.79246
1.18194 -0.45234001 1.7928201
1.17742 -0.44545501 1.79491
1.1731 -0.43928701 1.79494
1.17422 -0.432742 1.79459
1.21571 -0.48478299 1.78751
1.20427 -0.48281202 1.78837
1.2023001 -0.47714901 1.7894101
1.20391 -0.46712101 1.7889801
1.19874 -0.457349 1.7882102
1.18492 -0.45172101 1.7878
1.1772 -0.445088 1.79039
1.17566 -0.43726102 1.7896701
1.1753399 -0.43185902 1.7884899
1.20679 -0.480142 1.7832321
1.20455 -0.47377801 1.784013
1.2014199 -0.46386397 1.783897
1.19489 -0.45696601 1.7842391
1.18528 -0.45245898 1.7833251
1.1796499 -0.443831 1.784266
1.17528 -0.43613201 1.784925
1.18198 -0.43005797 1.7830051
1.21294 -0.47639099 1.778011
1.20154 -0.473919 1.7785381
1.19713 -0.466663 1.7790232
1.1949099 -0.45791698 1.779972
1.18328 -0.45111698 1.778793
1.17901 -0.44381902 1.7795681
1.17977 -0.43638098 1.7797351
1.18905 -0.42868197 1.777668
1.2047 -0.47127998 1.7739199
1.19761 -0.46623099 1.773775
1.1921 -0.45868599 1.774891
1.18303 -0.45127702 1.7731171
1.18108 -0.443129 1.775267
1.1817501 -0.43542701 1.774408
1.19484 -0.42722198 1.773338
1.19936 -0.46373099 1.768121
1.19146 -0.45789397 1.7690109
1.18045 -0.45156801 1.768399
1.18115 -0.44302601 1.769587
1.1816601 -0.43600899 1.770063
1.20733 -0.45955798 1.7615271
1.19837 -0.456727 1.7630371
1.18326 -0.45323601 1.764508
1.17847 -0.44643798 1.7641281
1.1803 -0.43879199 1.7641821
1.21808 -0.45550001 1.7565271
1.20665 -0.45439899 1.7578561
1.18643 -0.451269 1.758696
1.18155 -0.442931 1.7585731
1.17945 -0.43808201 1.758551
1.24333 -0.40124902 1.7489231
1.20487 -0.45221099 1.7526081
1.18625 -0.45056498 1.7535862
1.18304 -0.44424197 1.7534399
1.18408 -0.434921 1.752496
1.22926 -0.40635601 1.747601
1.2343299 -0.40000302 1.7471111
1.2351201 -0.39561799 1.7466331
1.2153 -0.45058301 1.7442001
1.18919 -0.44848201 1.7482201
1.18389 -0.44022599 1.748212
1.19266 -0.42953399 1.7467581
1.21069 -0.41611499 1.7457941
1.22217 -0.40480599 1.745411
1.22944 -0.39725 1.7436332
1.2361 -0.45201698 1.7384931
1.2268699 -0.45108798 1.738595
1.1920201 -0.44924501 1.74146
1.18573 -0.44121301 1.743089
1.18814 -0.43238899 1.743516
1.20082 -0.42068699 1.742012
1.21875 -0.40611199 1.740605
1.23359 -0.39307597 1.736611
1.23844 -0.45148799 1.7345511
1.2167701 -0.45146599 1.7354021
1.19568 -0.44940299 1.736078
1.18514 -0.44294798 1.737185
1.18889 -0.43141201 1.738549
1.20548 -0.41679201 1.737464
1.2252899 -0.401721 1.7344631
1.24703 -0.38628501 1.73095
1.25834 -0.37512299 1.7284689
1.22665 -0.45261902 1.7307119
1.2078199 -0.45192102 1.7316141
1.18998 -0.44846699 1.73184
1.18137 -0.44324797 1.733199
1.18511 -0.43542099 1.733313
1.19744 -0.422584 1.733573
1.24965 -0.38793099 1.72765
1.2563701 -0.37994 1.7261081
1.26634 -0.36925399 1.723134
1.2810899 -0.35525298 1.72184
1.20417 -0.45264399 1.7258929
1.18765 -0.44846901 1.726854
1.184 -0.44210601 1.728997
1.18129 -0.43618098 1.7287631
1.26367 -0.37496299 1.7204682
1.27037 -0.36727199 1.7188621
1.27571 -0.35799599 1.7180802
1.21464 -0.45616099 1.719851
1.2071199 -0.45398498 1.7196679
1.18742 -0.45081502 1.721601
1.18177 -0.44295701 1.7235711
1.1786901 -0.43822899 1.723417
1.27579 -0.369003 1.7133831
1.2709 -0.364871 1.7140579
1.27934 -0.35258901 1.7130181
1.21409 -0.45665699 1.7154601
1.19802 -0.45522898 1.71538
1.18066 -0.45115399 1.71715
1.17747 -0.44577202 1.719039
1.17977 -0.43954498 1.7182251
1.21205 -0.45801201 1.710398
1.18426 -0.45188901 1.71156
1.17593 -0.44570702 1.7142199
1.1809 -0.43902197 1.711905
1.18346 -0.45286399 1.8878701
1.18231 -0.44892102 1.88817
1.1783299 -0.44210601 1.88828
1.17513 -0.433166 1.8881
1.17822 -0.42760101 1.88802
1.18285 -0.45256501 1.88311
1.1787 -0.447267 1.88375
1.1767401 -0.439724 1.88278
1.17485 -0.433092 1.88315
1.1743599 -0.428738 1.8831
1.18923 -0.45331299 1.8771701
1.18042 -0.447391 1.8780701
1.17961 -0.43988299 1.8782699
1.17627 -0.43332198 1.87858
1.17961 -0.427165 1.87765
1.19862 -0.45811403 1.87238
1.1834201 -0.45398101 1.87283
1.17916 -0.44798198 1.8731101
1.17785 -0.43978298 1.8732102
1.1786599 -0.43084401 1.87349
1.17882 -0.42636099 1.87348
1.19775 -0.45928299 1.8682201
1.1923001 -0.45524299 1.86826
1.18171 -0.44763801 1.8680701
1.17638 -0.43917501 1.86763
1.17691 -0.43206599 1.86841
1.17941 -0.42635798 1.8692999
1.19583 -0.458859 1.8636801
1.18671 -0.45392299 1.8632699
1.18125 -0.44701901 1.8625901
1.1771901 -0.44010699 1.8632699
1.17541 -0.43311799 1.8638201
1.1753 -0.42637402 1.86289
1.1453099 -0.57570302 1.85466
1.145 -0.56751502 1.8529501
1.19706 -0.45774502 1.85906
1.1877301 -0.455051 1.85922
1.18264 -0.44853601 1.85804
1.17819 -0.44118199 1.8588501
1.17451 -0.43213299 1.8583701
1.179 -0.422737 1.85763
1.1765 -0.418993 1.85783
1.14458 -0.58104903 1.8519701
1.14807 -0.57304102 1.8509601
1.14702 -0.56752998 1.85115
1.1489199 -0.560341 1.8493701
1.1853299 -0.45306998 1.85405
1.1781601 -0.44800597 1.8535101
1.17602 -0.44039798 1.8533901
1.17348 -0.431227 1.8529299
1.17708 -0.423677 1.8539599
1.18152 -0.41598099 1.8527302
1.19735 -0.40757599 1.8516901
1.15679 -0.57938898 1.8484501
1.14856 -0.57263398 1.8474001
1.14975 -0.56569499 1.8475701
1.15402 -0.557428 1.84534
1.15781 -0.55103803 1.84479
1.18375 -0.45229501 1.84776
1.17709 -0.44718102 1.8488901
1.17697 -0.44022802 1.8485901
1.17179 -0.43376702 1.84857
1.17714 -0.42366299 1.8490601
1.1866699 -0.414588 1.8480201
1.19218 -0.40851897 1.84823
1.15589 -0.57062799 1.84376
1.1544499 -0.56340998 1.84302
1.1560299 -0.55620599 1.84194
1.15899 -0.54922098 1.8411
1.16764 -0.54182899 1.8404001
1.18015 -0.45301601 1.84341
1.1821901 -0.448311 1.8435501
1.17607 -0.44000703 1.84358
1.1747899 -0.43038502 1.8445801
1.1793 -0.421675 1.8440601
1.18885 -0.41339803 1.8440701
1.1961499 -0.40808898 1.84429
1.16942 -0.561396 1.83919
1.16082 -0.554465 1.8383
1.1586499 -0.547566 1.83737
1.1658599 -0.539967 1.83646
1.17435 -0.53208196 1.83584
1.18339 -0.45192799 1.8394001
1.1799099 -0.44690499 1.8385401
1.17734 -0.43952098 1.8374001
1.17707 -0.43014801 1.83947
1.1830699 -0.420587 1.8400601
1.18726 -0.41493699 1.84024
1.16974 -0.55254102 1.8343899
1.1624501 -0.54557997 1.8334
1.16429 -0.53747797 1.83207
1.1650599 -0.53065801 1.8321301
1.17644 -0.52235901 1.83113
1.18318 -0.515836 1.83029
1.18295 -0.45105702 1.8338799
1.17922 -0.4461 1.8338501
1.17892 -0.439796 1.83227
1.17614 -0.43273899 1.8341501
1.17854 -0.42478698 1.83492
1.17413 -0.54374295 1.8294601
1.16135 -0.53752202 1.82847
1.16538 -0.53080601 1.8284799
1.16833 -0.52258998 1.82737
1.17116 -0.51601005 1.8269701
1.1834301 -0.45148301 1.82865
1.1805301 -0.446908 1.8288699
1.17882 -0.440189 1.82781
1.17788 -0.432318 1.8286
1.1798201 -0.42624599 1.8289599
1.17281 -0.534926 1.8246601
1.1675299 -0.52813303 1.82403
1.16601 -0.521272 1.8232502
1.16974 -0.515136 1.8228799
1.1784999 -0.50888097 1.82198
1.18082 -0.45130402 1.8234799
1.17707 -0.445434 1.82365
1.17469 -0.43855801 1.8242301
1.17418 -0.432713 1.82323
1.17715 -0.42713502 1.82362
1.1779 -0.52557999 1.81987
1.17093 -0.51886398 1.8191501
1.17378 -0.511186 1.8180901
1.17705 -0.50650102 1.8177701
1.18459 -0.451298 1.81824
1.17774 -0.44689202 1.8180001
1.1748999 -0.43865001 1.81929
1.17462 -0.43119702 1.8189101
1.17791 -0.42643398 1.8188101
1.18302 -0.51658702 1.81481
1.1779699 -0.51040298 1.81384
1.1808699 -0.50408101 1.8130701
1.1808 -0.45178002 1.8132501
1.17958 -0.44652998 1.81261
1.17418 -0.439989 1.81376
1.17328 -0.43290401 1.8148401
1.1766 -0.42703602 1.8141299
1.19064 -0.50747001 1.80988
1.18256 -0.50273603 1.8092599
1.18905 -0.49417499 1.8066601
1.19375 -0.48787299 1.8052601
1.18558 -0.45184299 1.8087399
1.17997 -0.44828799 1.80853
1.17584 -0.44089401 1.80811
1.17317 -0.43267101 1.80959
1.1760399 -0.42714 1.8091102
1.1888 -0.49829102 1.80477
1.1898 -0.49093601 1.80237
1.1910701 -0.48579898 1.8018401
1.1853 -0.45147899 1.8044299
1.17768 -0.44714999 1.8036801
1.17273 -0.44051498 1.8026401
1.1739399 -0.433642 1.8044
1.1727999 -0.42803901 1.8042401
1.1926301 -0.48985401 1.7989801
1.1917 -0.48325598 1.7972
1.19594 -0.47631699 1.79671
1.18275 -0.45122501 1.7987399
1.1757599 -0.4463 1.7992599
1.1751699 -0.44024199 1.7980901
1.17111 -0.43315601 1.79887
1.17597 -0.42734101 1.79892
1.19262 -0.48615199 1.79291
1.19049 -0.480645 1.79222
1.18976 -0.474374 1.79283
1.20157 -0.46575299 1.79233
1.1889399 -0.455672 1.7922299
1.17685 -0.447119 1.7941699
1.17114 -0.438629 1.79401
1.17015 -0.432419 1.7941101
1.17273 -0.42781299 1.79404
1.1985099 -0.484092 1.78778
1.1933399 -0.48021099 1.78791
1.19096 -0.473499 1.78826
1.19344 -0.46408999 1.7885801
1.18929 -0.45635799 1.7881799
1.1812301 -0.45019001 1.7887
1.17555 -0.441508 1.7890601
1.1713099 -0.432901 1.7890701
1.17378 -0.42755699 1.78904
1.19552 -0.47850701 1.783007
1.1950901 -0.47296399 1.783394
1.1896399 -0.46608001 1.784445
1.1894001 -0.45629501 1.7836881
1.17609 -0.44792402 1.7846249
1.17177 -0.43965301 1.783807
1.17099 -0.43277302 1.784187
1.17467 -0.42782298 1.7839371
1.20126 -0.475438 1.7780761
1.19549 -0.47133201 1.778517
1.19098 -0.46480998 1.779682
1.18802 -0.456642 1.7780859
1.17837 -0.447916 1.778954
1.17708 -0.43973801 1.779104
1.1746601 -0.43303201 1.7793939
1.17598 -0.427212 1.7780051
1.19831 -0.468907 1.7740041
1.19216 -0.46259898 1.7740161
1.18425 -0.453973 1.77387
1.17782 -0.44774899 1.774455
1.17665 -0.44030499 1.774682
1.17669 -0.43142101 1.7733731
1.1780601 -0.426319 1.773376
1.19503 -0.46084702 1.7683851
1.18515 -0.45499802 1.769032
1.17998 -0.44721401 1.7702842
1.17856 -0.43824199 1.768739
1.1772799 -0.43144101 1.768837
1.1781501 -0.42691699 1.7686779
1.20145 -0.45782799 1.762951
1.18812 -0.454622 1.7637249
1.18111 -0.44670701 1.764526
1.1753601 -0.43929198 1.7643161
1.17755 -0.43207401 1.764303
1.18325 -0.42548802 1.7627082
1.18531 -0.45408499 1.759613
1.18443 -0.44814098 1.7590441
1.17961 -0.439145 1.75903
1.1819 -0.42937198 1.7584399
1.1906199 -0.423002 1.757479
1.1860601 -0.45126301 1.7539982
1.17759 -0.44647899 1.7548441
1.1783999 -0.44049901 1.753479
1.18115 -0.43196201 1.7533749
1.19059 -0.42159098 1.752048
1.23009 -0.40160197 1.746998
1.2457399 -0.39511397 1.74603
1.18101 -0.45120499 1.7490871
1.1817601 -0.446282 1.7494501
1.17987 -0.43864399 1.7487451
1.18352 -0.42855203 1.7475619
1.1983 -0.41708198 1.746181
1.21536 -0.40683499 1.7456081
1.22718 -0.39923301 1.7450851
1.1807901 -0.450596 1.744123
1.17848 -0.44508898 1.744756
1.17984 -0.43705601 1.743299
1.18231 -0.428947 1.743163
1.18733 -0.420542 1.742417
1.2049299 -0.40911999 1.741551
1.21489 -0.40201598 1.7419101
1.26134 -0.37598401 1.7320191
1.18204 -0.45048901 1.7387359
1.17984 -0.44537801 1.738916
1.17636 -0.43849602 1.739018
1.18046 -0.429571 1.73871
1.18734 -0.42060298 1.738176
1.19795 -0.41190201 1.737285
1.21535 -0.40021098 1.7352749
1.25816 -0.37712699 1.7296631
1.26824 -0.371371 1.7288461
1.1789601 -0.45074698 1.733971
1.1786 -0.44603801 1.733999
1.1775399 -0.43867999 1.734163
1.17943 -0.43011001 1.7341909
1.18409 -0.421682 1.734213
1.20567 -0.40883499 1.7320571
1.22982 -0.39284098 1.7286301
1.2432901 -0.38374698 1.7282441
1.25538 -0.37299901 1.72603
1.18028 -0.45065701 1.728862
1.17857 -0.445779 1.7290231
1.18099 -0.43836603 1.728936
1.1792099 -0.43077201 1.7296871
1.1872699 -0.421776 1.728515
1.24621 -0.39202401 1.723985
1.25107 -0.38556302 1.722715
1.24702 -0.380923 1.7233901
1.2618901 -0.36864799 1.719834
1.2768199 -0.35636699 1.7190579
1.18094 -0.45035198 1.723855
1.17626 -0.446316 1.724545
1.1795 -0.438223 1.7241211
1.18065 -0.42918301 1.7245669
1.19117 -0.42300799 1.7220551
1.2587 -0.37506402 1.7168341
1.26235 -0.367742 1.715661
1.27361 -0.35652801 1.714156
1.17759 -0.45134202 1.718555
1.17995 -0.44589698 1.719846
1.18042 -0.43894199 1.717706
1.1836799 -0.42981601 1.7187101
1.1944699 -0.423246 1.7170911
1.2661 -0.36593699 1.711154
1.1804399 -0.452618 1.713616
1.1806099 -0.44729301 1.7140069
1.17826 -0.44060799 1.7130051
1.1820301 -0.43243301 1.713219
1.19559 -0.42411202 1.7118812
1.2447699 -0.44747001 1.88729
1.2521499 -0.45515597 1.88597
1.24667 -0.46307901 1.88767
1.2431999 -0.47043702 1.8866401
1.24384 -0.446785 1.88015
1.2509301 -0.45356202 1.8803101
1.25106 -0.46296102 1.88065
1.24639 -0.471412 1.8813601
1.23192 -0.47622898 1.8825601
1.23774 -0.44581798 1.8753201
1.2457399 -0.45160499 1.87475
1.2559201 -0.46175 1.87362
1.25459 -0.47119001 1.8747001
1.24789 -0.476814 1.87623
1.23642 -0.44540599 1.86948
1.25112 -0.45430499 1.86831
1.25972 -0.463633 1.86718
1.26012 -0.47056302 1.8686801
1.2553 -0.476603 1.8686501
1.22096 -0.434683 1.86244
1.22856 -0.44091401 1.86298
1.24561 -0.44974202 1.8627601
1.25401 -0.46005198 1.86228
1.2598001 -0.47047198 1.8623902
1.255 -0.47708598 1.86099
1.22489 -0.435509 1.8586501
1.23704 -0.44203401 1.85765
1.24673 -0.45137799 1.8569701
1.25723 -0.462239 1.8561599
1.2564499 -0.47168201 1.85584
1.2495099 -0.47748798 1.8557
1.23482 -0.43729901 1.85186
1.24317 -0.44414502 1.85207
1.25334 -0.45326 1.8505801
1.25476 -0.46366298 1.8502001
1.25445 -0.47187901 1.85039
1.2401201 -0.47731602 1.8529
1.1647201 -0.58124501 1.85238
1.1704 -0.58946997 1.8535299
1.23364 -0.43680301 1.84484
1.2445201 -0.44396001 1.84563
1.2528501 -0.45494401 1.84431
1.2544301 -0.46451598 1.84426
1.2583001 -0.47023103 1.84431
1.17404 -0.56958199 1.8458099
1.18027 -0.57733101 1.8467599
1.17381 -0.586348 1.84873
1.16845 -0.59615099 1.85027
1.2273899 -0.436667 1.84041
1.2392601 -0.44163701 1.8403602
1.24705 -0.44993401 1.8391
1.25359 -0.46043 1.83755
1.2545099 -0.46770599 1.8390801
1.18556 -0.566342 1.8407401
1.1857901 -0.573282 1.84104
1.17687 -0.58378601 1.8433701
1.1693699 -0.59413999 1.84512
1.24378 -0.44413102 1.83509
1.2515399 -0.45235401 1.8325601
1.25845 -0.46032399 1.8306601
1.2558999 -0.46663299 1.8316901
1.18968 -0.54535502 1.83189
1.1914901 -0.55368 1.83334
1.19006 -0.56448501 1.8360699
1.18761 -0.57305598 1.83675
1.17319 -0.58265096 1.8390201
1.25079 -0.447312 1.8282101
1.25772 -0.45408198 1.8259101
1.25921 -0.462145 1.8248199
1.2569799 -0.46756101 1.82555
1.19055 -0.53354198 1.8263
1.20135 -0.54147899 1.82706
1.19695 -0.54902399 1.8276601
1.18998 -0.56091499 1.8309799
1.18247 -0.57266402 1.83384
1.25898 -0.44810599 1.8212701
1.26021 -0.45458001 1.8190601
1.26129 -0.46225798 1.8192301
1.25901 -0.46745801 1.81951
1.20074 -0.52371603 1.8193401
1.2062 -0.53112596 1.82108
1.1997499 -0.53946501 1.82222
1.1963099 -0.54718 1.8226601
1.26436 -0.43716702 1.8104401
1.26448 -0.44581601 1.81379
1.26817 -0.451929 1.81251
1.2618001 -0.46124199 1.81322
1.2578399 -0.46733898 1.81366
1.20985 -0.52202702 1.81452
1.20451 -0.53061002 1.8167701
1.2020301 -0.537727 1.81656
1.1908001 -0.54337901 1.81701
1.27707 -0.42707902 1.8035699
1.28482 -0.434506 1.80451
1.27135 -0.443012 1.80731
1.26623 -0.452737 1.8071899
1.26203 -0.46125099 1.8064599
1.2583899 -0.46761799 1.8074499
1.18622 -0.48787898 1.80468
1.21154 -0.512905 1.8085699
1.21637 -0.51772499 1.8083501
1.20824 -0.52707696 1.8107102
1.19482 -0.534787 1.8119102
1.2950301 -0.4278 1.79887
1.28456 -0.43598402 1.8007699
1.26925 -0.444846 1.80214
1.2640799 -0.45434898 1.8007801
1.2571399 -0.463651 1.80142
1.2545099 -0.469152 1.80151
1.18975 -0.488318 1.8021001
1.19698 -0.49409199 1.8016901
1.2160701 -0.506975 1.80244
1.21373 -0.51734102 1.8046899
1.2105 -0.52453303 1.8058301
1.3030901 -0.421505 1.7935001
1.3038001 -0.42559898 1.7929502
1.2921699 -0.432735 1.79522
1.27091 -0.44288799 1.79526
1.26136 -0.45387599 1.7946401
1.25791 -0.462145 1.79607
1.25335 -0.47110403 1.79528
1.20323 -0.488096 1.7983999
1.21999 -0.49522001 1.79688
1.22614 -0.50341302 1.79636
1.21921 -0.51285499 1.7992599
1.31135 -0.41985402 1.7883099
1.30838 -0.424642 1.7886599
1.29584 -0.431407 1.7898101
1.25835 -0.44277999 1.78901
1.2588 -0.45076197 1.78944
1.25749 -0.46301997 1.7892599
1.2490699 -0.47517699 1.78934
1.23274 -0.485017 1.7920002
1.2308999 -0.49453998 1.7911999
1.2253 -0.50240499 1.7924701
1.3266799 -0.40931198 1.77942
1.32493 -0.416614 1.782334
1.3083999 -0.423507 1.784673
1.2749 -0.43603402 1.784814
1.25736 -0.44459 1.7847071
1.2552301 -0.453619 1.783679
1.25895 -0.46430099 1.781934
1.25805 -0.47425401 1.783607
1.2449501 -0.48480201 1.785221
1.2434 -0.493503 1.7859399
1.34269 -0.407781 1.774698
1.32678 -0.41278303 1.7776641
1.25494 -0.44689998 1.7785439
1.25763 -0.45620701 1.777464
1.25879 -0.46512902 1.776455
1.25867 -0.473746 1.777606
1.25585 -0.48202702 1.7792292
1.2480201 -0.488657 1.778983
1.3421401 -0.40120998 1.769756
1.3477901 -0.40539798 1.7702889
1.24629 -0.44679502 1.7707682
1.25374 -0.45379102 1.771728
1.25669 -0.46247301 1.7722299
1.2556 -0.47212699 1.7713921
1.25684 -0.48155499 1.7735801
1.24674 -0.48651299 1.7728131
1.2401 -0.44618699 1.7657131
1.24621 -0.45168999 1.7656891
1.25545 -0.46229401 1.765659
1.25793 -0.47233501 1.7659131
1.25472 -0.47910801 1.76686
1.23944 -0.44608101 1.760964
1.2496901 -0.45288602 1.759795
1.2548699 -0.461606 1.758738
1.25835 -0.471432 1.760272
1.2448699 -0.47748002 1.760254
1.25366 -0.42477798 1.7484921
1.25196 -0.43480399 1.750455
1.24366 -0.44475499 1.7542599
1.2540001 -0.45354697 1.753571
1.2586499 -0.46417198 1.7529792
1.2592 -0.47195703 1.754176
1.27538 -0.408382 1.742928
1.2646199 -0.416134 1.7445101
1.2635 -0.424263 1.745241
1.2543399 -0.432475 1.746325
1.25589 -0.44375598 1.7480191
1.26143 -0.455414 1.7477241
1.2653099 -0.46352798 1.7476761
1.26098 -0.46937302 1.7478681
1.2442299 -0.475032 1.7499111
1.27617 -0.404717 1.7385049
1.2723 -0.41253799 1.740272
1.26419 -0.42166999 1.7407559
1.26143 -0.431853 1.741325
