# .PCD v0.7 - Point Cloud Data file format
VERSION 0.7
FIELDS x y z
SIZE 4 4 4
TYPE F F F
COUNT 1 1 1
WIDTH 412
HEIGHT 1
VIEWPOINT 0 0 0 1 0 0 0
POINTS 412
DATA ascii
1.25993 -0.41192502 1.9646201
1.26062 -0.41127101 1.95716
1.2752401 -0.40565398 1.9662201
1.2822 -0.40006 1.96886
1.26438 -0.41064203 1.9520301
1.27391 -0.40495801 1.9565899
1.28724 -0.39981601 1.96561
1.26149 -0.41865399 1.94339
1.2694401 -0.41195801 1.9488699
1.27905 -0.40564999 1.95136
1.28499 -0.39731601 1.95304
1.30079 -0.39305499 1.9636401
1.2817799 -0.42082101 1.9514199
1.2767401 -0.41205898 1.9448401
1.28697 -0.40394798 1.9487201
1.2936 -0.39749599 1.9517401
1.29967 -0.39081401 1.9532601
1.28961 -0.41600299 1.95021
1.28983 -0.40616 1.9444799
1.29715 -0.39727199 1.94633
1.3026299 -0.38986 1.9475399
1.31796 -0.40601799 1.9509101
1.3089 -0.39988801 1.94586
1.3107001 -0.39168301 1.94666
1.3215801 -0.40059102 1.94698
1.31872 -0.39283001 1.94336
1.26202 -0.400731 1.95232
1.26545 -0.39952499 1.9473599
1.28074 -0.39698699 1.9572001
1.26051 -0.40755403 1.9416101
1.27 -0.40074298 1.9424499
1.28005 -0.394678 1.94858
1.2912899 -0.389467 1.9539
1.26472 -0.41955602 1.9405701
1.26799 -0.408988 1.93792
1.27332 -0.40178299 1.93778
1.2813801 -0.39603901 1.94151
1.29379 -0.38919699 1.94732
1.2786 -0.41198799 1.93896
1.28429 -0.40411702 1.93896
1.2935899 -0.39601699 1.94173
1.2997301 -0.38973498 1.9440701
1.30408 -0.38298401 1.9442101
1.2951699 -0.40747899 1.94059
1.29795 -0.39868698 1.9378799
1.3031501 -0.39013198 1.9393201
1.3169701 -0.38342702 1.9437399
1.3105701 -0.40385699 1.9435
1.3148301 -0.39259103 1.93987
1.2604699 -0.39908698 1.9450301
1.28245 -0.39663899 1.95789
1.2837199 -0.38931701 1.95567
1.25853 -0.406477 1.94086
1.26776 -0.401382 1.9450301
1.27472 -0.39443401 1.9453399
1.2890899 -0.39029598 1.95359
1.26306 -0.41057399 1.93727
1.26907 -0.40178502 1.9391
1.2776899 -0.395592 1.93945
1.28833 -0.388807 1.9432101
1.26165 -0.42311901 1.93715
1.26675 -0.415001 1.93602
1.27544 -0.40336299 1.93581
1.2861501 -0.39573601 1.93761
1.2973801 -0.39037499 1.93996
1.30318 -0.384058 1.9439801
1.31463 -0.37745601 1.9466799
1.29494 -0.39697301 1.93584
1.3059599 -0.391767 1.9375201
1.3099 -0.38506401 1.9397701
1.31727 -0.37736699 1.93871
1.3157899 -0.39548197 1.9385201
1.31644 -0.38532901 1.93379
1.2632099 -0.39840099 1.95166
1.25899 -0.39777601 1.94318
1.2722 -0.39304298 1.9486001
1.2815801 -0.389768 1.95145
1.2664499 -0.40039501 1.93944
1.2735801 -0.39442199 1.9437702
1.2793801 -0.38604599 1.94139
1.3086901 -0.381605 1.9507201
1.26522 -0.408777 1.9361099
1.27086 -0.40173098 1.9353601
1.2807201 -0.39555302 1.9386001
1.2863699 -0.38602698 1.93751
1.29739 -0.37940702 1.9393201
1.3068601 -0.372309 1.94059
1.2737401 -0.41573101 1.9397701
1.27764 -0.40451699 1.9347299
1.28685 -0.39631099 1.93336
1.2942799 -0.387954 1.93442
1.30716 -0.38175401 1.93792
1.31152 -0.37494799 1.93922
1.29612 -0.40365601 1.9376601
1.30038 -0.39218602 1.93222
1.30909 -0.38352001 1.9317501
1.31778 -0.38732702 1.9316101
1.26473 -0.400038 1.95758
1.25898 -0.397131 1.94784
1.2705001 -0.39017898 1.94918
1.2873 -0.38721699 1.95507
1.2578601 -0.39855099 1.94055
1.27036 -0.39127499 1.9421401
1.28186 -0.38353801 1.9447101
1.29207 -0.37810099 1.9466699
1.30039 -0.375433 1.9494901
1.26404 -0.39818299 1.9339
1.27334 -0.389734 1.9327899
1.28239 -0.38396701 1.9365
1.29038 -0.37711897 1.93836
1.2958299 -0.37250197 1.9397101
1.2717199 -0.40208501 1.9324601
1.27644 -0.39317402 1.92893
1.2843699 -0.38516301 1.9290299
1.29058 -0.37845299 1.9307801
1.3000101 -0.37627497 1.93396
1.28737 -0.40151799 1.9335501
1.29599 -0.39326501 1.9325501
1.3000799 -0.38384998 1.9301699
1.3084199 -0.38104698 1.93107
1.3099 -0.389137 1.9314101
1.3182001 -0.387234 1.9337702
1.30638 -0.37378299 1.94315
1.3139501 -0.37546298 1.9377999
1.2965801 -0.37786901 1.94168
1.3061099 -0.37944698 1.9356601
1.30995 -0.38543701 1.93485
1.31171 -0.39345199 1.9344299
1.2753199 -0.384262 1.94692
1.2968401 -0.38493401 1.9348199
1.30268 -0.39290199 1.9322701
1.3042901 -0.39972302 1.93142
1.28128 -0.386749 1.9355301
1.29102 -0.39188498 1.93216
1.29159 -0.40085301 1.93353
1.29171 -0.40782502 1.9354401
1.26331 -0.39219299 1.93887
1.27912 -0.39693803 1.9332299
1.2829801 -0.40340197 1.93258
1.25385 -0.39507198 1.9349201
1.26745 -0.39915797 1.9315399
1.31124 -0.37744099 1.9392101
1.3175501 -0.37756598 1.9367599
1.30709 -0.38848302 1.94633
1.30197 -0.38129601 1.9365
1.30945 -0.38139099 1.9349201
1.28704 -0.38795799 1.9389501
1.29638 -0.38773602 1.9363
1.27179 -0.39206001 1.9399201
1.2838401 -0.39257598 1.9356601
1.2607399 -0.39599898 1.9402601
1.2686599 -0.399739 1.93725
1.2582901 -0.399739 1.9350101
1.26373 -0.40314099 1.93268
1.2943 -0.38842899 1.9499
1.3036301 -0.38778499 1.9415801
1.29348 -0.38955399 1.9453
1.29897 -0.38997799 1.9406301
1.28567 -0.39238998 1.94416
1.29495 -0.39112201 1.9364301
1.27387 -0.39697102 1.94304
1.2871499 -0.39488602 1.9350201
1.25776 -0.40034199 1.9452301
1.27161 -0.40061101 1.9387201
1.2606601 -0.40377399 1.93714
1.2608399 -0.38005298 1.94699
1.27913 -0.374589 1.9481601
1.29242 -0.36808601 1.94858
1.2471399 -0.37999803 1.9430802
1.26501 -0.37487 1.94429
1.2843699 -0.369654 1.9452301
1.2951199 -0.36134702 1.9450202
1.3049099 -0.354601 1.9450301
1.2527 -0.378977 1.9392301
1.27455 -0.37507802 1.94038
1.28886 -0.36761701 1.94029
1.29436 -0.35959998 1.9408901
1.30612 -0.35407799 1.94104
1.26156 -0.37881601 1.93582
1.2808099 -0.37520999 1.9361099
1.29619 -0.36995998 1.9358001
1.2992599 -0.35976899 1.9368701
1.3075501 -0.35288799 1.93685
1.27863 -0.38286799 1.9338299
1.2997099 -0.37926102 1.93399
1.3071001 -0.37337399 1.93376
1.3111099 -0.365363 1.93408
1.25782 -0.37711498 1.94724
1.27557 -0.37353402 1.94789
1.2878101 -0.369151 1.9478301
1.2465 -0.37561798 1.94393
1.26132 -0.37174401 1.94427
1.2742 -0.36549199 1.9442401
1.28774 -0.35826698 1.9434301
1.3013901 -0.35150701 1.9431
1.24611 -0.375256 1.9396001
1.2688099 -0.37126899 1.9402301
1.2819099 -0.36410001 1.94059
1.2917501 -0.35756698 1.9399301
1.30065 -0.35153702 1.9399899
1.25412 -0.37498599 1.9364401
1.26583 -0.37028 1.9369299
1.2756 -0.36508599 1.9374701
1.28685 -0.35882401 1.9373599
1.3030499 -0.35286 1.93622
1.2610199 -0.37733898 1.94768
1.27917 -0.37372601 1.9485102
1.2943801 -0.36884898 1.9493099
1.2458999 -0.37460998 1.9439999
1.26349 -0.37059298 1.94388
1.27918 -0.36508998 1.94498
1.30279 -0.364595 1.94655
1.2499 -0.37458 1.93942
1.26161 -0.36949298 1.93884
1.27597 -0.36685503 1.93995
1.29397 -0.36377102 1.94091
1.25863 -0.37451303 1.93559
1.2721801 -0.371133 1.93584
1.28602 -0.36793998 1.9359201
1.30334 -0.36418998 1.9362301
1.28364 -0.374791 1.9334301
1.30489 -0.37398499 1.93361
1.26328 -0.37938598 1.9495001
1.27402 -0.37398997 1.94972
1.28597 -0.37151501 1.94945
1.24933 -0.37530601 1.9450202
1.26278 -0.37085202 1.94638
1.2721801 -0.365421 1.9458001
1.28505 -0.36068001 1.94524
1.30265 -0.35382199 1.9454199
1.24877 -0.37546003 1.93936
1.26184 -0.37007901 1.94107
1.27649 -0.36482102 1.94085
1.28922 -0.359182 1.94056
1.3027699 -0.35533601 1.9401401
1.25661 -0.37572202 1.93567
1.26808 -0.36900902 1.93636
1.28102 -0.364972 1.9360299
1.29585 -0.36104098 1.9358001
1.30725 -0.35382402 1.93564
1.2543499 -0.39281899 1.9327701
1.2606601 -0.38986301 1.93292
1.28306 -0.37674701 1.9336301
1.2930901 -0.36956599 1.9331601
1.30689 -0.36483601 1.9328301
1.26199 -0.39395401 1.9510901
1.2728601 -0.38881999 1.9521
1.28619 -0.38642102 1.95272
1.29268 -0.376636 1.9515702
1.26134 -0.38321602 1.9475701
1.27344 -0.37749699 1.9486301
1.27757 -0.36728299 1.94612
1.29344 -0.36361501 1.94699
1.2547699 -0.38150799 1.94085
1.26557 -0.373079 1.94289
1.27373 -0.36668801 1.9406799
1.28396 -0.360874 1.94095
1.30278 -0.35932499 1.94171
1.25755 -0.381421 1.9347501
1.2652301 -0.372973 1.9367501
1.2775199 -0.36685398 1.9360299
1.2939399 -0.363208 1.9360601
1.3070799 -0.35579699 1.93564
1.25413 -0.392005 1.9317402
1.2640001 -0.38558999 1.93181
1.2735 -0.37787399 1.93265
1.28482 -0.36796299 1.9326001
1.30279 -0.36538899 1.93253
1.31927 -0.38929299 1.9481101
1.32047 -0.390286 1.9433
1.29085 -0.40011397 1.9486301
1.2631199 -0.40990201 1.9531399
1.31506 -0.39189702 1.9388299
1.3025999 -0.400695 1.9411999
1.27868 -0.409495 1.94462
1.3186901 -0.38422 1.93625
1.3064799 -0.391707 1.9370599
1.29905 -0.40097499 1.93709
1.2859399 -0.40897501 1.9386401
1.26966 -0.41890702 1.93929
1.26279 -0.40852699 1.9332001
1.27272 -0.41234401 1.93405
1.26662 -0.42011002 1.9340701
1.26298 -0.421848 1.9296899
1.3099 -0.39666697 1.9484601
1.3230901 -0.39283901 1.9429001
1.3147501 -0.40028098 1.9436001
1.26562 -0.41195703 1.94912
1.31306 -0.394678 1.9396601
1.3030601 -0.40170398 1.9410101
1.2845199 -0.40924001 1.9424601
1.2627101 -0.41817299 1.9461402
1.31284 -0.386253 1.93705
1.3006799 -0.39484701 1.93744
1.29703 -0.40227199 1.9377899
1.2797899 -0.409706 1.9376901
1.26987 -0.41801202 1.93922
1.2833999 -0.40234402 1.93547
1.27064 -0.41091499 1.9343899
1.2704901 -0.41803101 1.93409
1.31329 -0.39921397 1.94903
1.3165401 -0.39943001 1.9455301
1.2937399 -0.40407199 1.9479501
1.31705 -0.39784598 1.94104
1.30014 -0.404282 1.94278
1.2810899 -0.41033798 1.9449
1.3161701 -0.39131001 1.9379001
1.3033501 -0.40089297 1.93819
1.29097 -0.40728199 1.93909
1.2742701 -0.41359001 1.93929
1.2624199 -0.42121497 1.9400601
1.2769899 -0.40696999 1.93554
1.2704901 -0.414397 1.93391
1.26432 -0.420082 1.9352001
1.31564 -0.402603 1.9492999
1.29993 -0.40633401 1.95096
1.32495 -0.40339199 1.94486
1.30849 -0.40850103 1.94675
1.2867799 -0.41259399 1.94918
1.3274699 -0.40166801 1.93978
1.3133701 -0.40773898 1.94125
1.2953999 -0.41309601 1.94327
1.27637 -0.41984403 1.9453601
1.3152699 -0.40230399 1.93672
1.3000901 -0.40835097 1.9370401
1.2851801 -0.413957 1.93927
1.27591 -0.420728 1.9389999
1.29623 -0.39738202 1.9351699
1.28071 -0.40290502 1.9348001
1.2762101 -0.41212299 1.93472
1.2649 -0.421123 1.9350301
1.2635 -0.40648898 1.93257
1.2617401 -0.418607 1.9306799
1.3241299 -0.39470601 1.9498801
1.3083 -0.39983898 1.9516799
1.2972701 -0.40458697 1.9526401
1.32468 -0.4039 1.9456
1.30591 -0.40820098 1.9481
1.2880901 -0.409933 1.94938
1.3264 -0.40456298 1.9398301
1.3111099 -0.40818402 1.94218
1.2948599 -0.41438201 1.9433999
1.2862101 -0.421857 1.9439501
1.31828 -0.40329602 1.9363999
1.3027699 -0.40902698 1.9375
1.28901 -0.415672 1.9375501
1.28271 -0.42186901 1.94004
1.26372 -0.42721999 1.9417001
1.3192999 -0.39271501 1.93347
1.30107 -0.39855999 1.93469
1.2858701 -0.40644699 1.93414
1.2771499 -0.41380799 1.93341
1.27461 -0.42182702 1.9351699
1.26443 -0.40940899 1.9305301
1.26227 -0.419386 1.92972
1.29091 -0.36011299 1.99274
1.28844 -0.36315799 1.9869901
1.27948 -0.36941898 1.9929199
1.2817501 -0.36541501 1.98401
1.27794 -0.37175599 1.9857401
1.2662101 -0.37767202 1.99485
1.2669101 -0.36763 1.98815
1.2695401 -0.37226102 1.9856501
1.2648799 -0.37966701 1.98681
1.26158 -0.37585601 1.98168
1.25843 -0.38203999 1.9822
1.2595301 -0.38599098 1.9834501
1.27753 -0.374098 1.97082
1.30133 -0.367044 1.95155
1.28373 -0.37251201 1.96302
1.2611799 -0.37748599 1.9804502
1.28593 -0.37325901 1.95632
1.26257 -0.37946901 1.9711401
1.3091201 -0.36790198 1.9472001
1.2751499 -0.37418899 1.9696201
1.3063201 -0.36317199 1.9470199
1.3006799 -0.36918098 1.94715
1.28547 -0.374497 1.9563401
1.26487 -0.378544 1.97281
1.28881 -0.369362 1.9506
1.2807201 -0.37617803 1.9519299
1.2640799 -0.37932801 1.9662601
1.27235 -0.37481299 1.9528601
1.26624 -0.380173 1.9557
1.3108701 -0.370381 1.94313
1.29965 -0.37423801 1.94916
1.3015199 -0.358208 1.9498901
1.3032001 -0.36857799 1.94319
1.2976199 -0.37559798 1.94344
1.2857001 -0.38148603 1.94675
1.2849801 -0.376353 1.94327
1.27542 -0.382164 1.9463102
1.2659 -0.38642702 1.95139
1.26992 -0.37445801 1.9450101
1.27291 -0.38113898 1.94164
1.26056 -0.38569501 1.9487201
1.2677701 -0.375258 1.93957
1.25659 -0.37792701 1.94584
1.30388 -0.376452 1.94744
1.3004899 -0.36727601 1.95047
1.3005 -0.37909001 1.9428601
1.2897 -0.38393798 1.9462301
1.29128 -0.378961 1.9429001
1.2794499 -0.38464001 1.94479
1.26218 -0.38762403 1.9585299
1.2818401 -0.38115102 1.93862
1.27746 -0.38602403 1.9377899
1.26436 -0.38927701 1.9457901
1.2638099 -0.38271302 1.94095
1.258 -0.387954 1.9421
1.2502301 -0.37964901 1.9411999
1.2530301 -0.38863301 1.9363
