# .PCD v0.7 - Point Cloud Data file format
VERSION 0.7
FIELDS x y z
SIZE 4 4 4
TYPE F F F
COUNT 1 1 1
WIDTH 63
HEIGHT 1
VIEWPOINT 0 0 0 1 0 0 0
POINTS 63
DATA ascii
1.16317 -0.36985502 1.228364
1.16983 -0.36834702 1.2248131
1.15239 -0.37782902 1.2264791
1.15207 -0.376459 1.220844
1.15627 -0.36965501 1.219938
1.15627 -0.363994 1.2214661
1.15549 -0.376908 1.2168441
1.16741 -0.369268 1.219182
1.15587 -0.37254798 1.2259281
1.15346 -0.37427601 1.219611
1.1534801 -0.37851602 1.227156
1.1529 -0.37032601 1.2233901
1.15345 -0.377489 1.219319
1.15799 -0.37340099 1.2180431
1.17882 -0.36623099 1.228757
1.1700701 -0.36294499 1.224941
1.18118 -0.36449599 1.226256
1.17138 -0.368218 1.223955
1.15396 -0.36040199 1.2198651
1.15589 -0.36910802 1.212258
1.1560501 -0.36101502 1.213284
1.1622599 -0.35837701 1.210341
1.15738 -0.368251 1.205941
1.15925 -0.363516 1.204854
1.16009 -0.37212503 1.196853
1.1576999 -0.36763901 1.2223361
1.1558 -0.370186 1.2164121
1.15676 -0.36817798 1.2111101
1.15854 -0.36093497 1.21272
1.16847 -0.36116099 1.207181
1.1599 -0.37337399 1.2028461
1.15698 -0.36437699 1.206634
1.15582 -0.36518699 1.220844
1.1592801 -0.36746201 1.212913
1.15856 -0.36207402 1.2144741
1.1613201 -0.37040001 1.206221
1.1544499 -0.367598 1.224009
1.15639 -0.36912102 1.219959
1.15758 -0.37084901 1.2141521
1.16346 -0.36170602 1.2203981
1.16012 -0.36706799 1.215014
1.16734 -0.36711103 1.211203
1.16187 -0.36334598 1.2239051
1.16904 -0.36558202 1.224961
1.1655201 -0.36828801 1.218245
1.16168 -0.36838999 1.2168961
1.1633 -0.367681 1.2211841
1.16461 -0.37147301 1.225457
1.16117 -0.37418202 1.225407
1.16923 -0.37038699 1.230074
1.1617401 -0.37162998 1.226788
1.16933 -0.35765302 1.222205
1.16958 -0.36592302 1.216964
1.18791 -0.362708 1.2310561
1.18748 -0.363657 1.22975
1.1783999 -0.36223701 1.2276241
1.1826 -0.362077 1.2224079
1.19286 -0.35987401 1.2205701
1.1813099 -0.361651 1.2280351
1.1839499 -0.36329499 1.2227581
1.17864 -0.357535 1.2226081
1.18304 -0.35960302 1.2178711
1.1934301 -0.35961601 1.215549
