# .PCD v0.7 - Point Cloud Data file format
VERSION 0.7
FIELDS x y z
SIZE 4 4 4
TYPE F F F
COUNT 1 1 1
WIDTH 1402
HEIGHT 1
VIEWPOINT 0 0 0 1 0 0 0
POINTS 1402
DATA ascii
1.06805 -0.23040001 2.3785901
1.07686 -0.232118 2.3857102
1.0739399 -0.228571 2.3793702
1.08544 -0.226565 2.3922203
1.09206 -0.23129101 2.3965101
1.09146 -0.30724701 2.3483498
1.09867 -0.29999101 2.3520901
1.10864 -0.29274201 2.3596499
1.10006 -0.317314 2.3492801
1.1012 -0.307872 2.34637
1.10568 -0.300661 2.3496301
1.10674 -0.29323301 2.3474801
1.10602 -0.315014 2.3448999
1.11147 -0.30861601 2.34536
1.1114299 -0.30090201 2.3447502
1.1244999 -0.31202701 2.3511002
1.11944 -0.30490601 2.3434303
1.13353 -0.31300801 2.3494401
1.0500599 -0.22179899 2.35762
1.0565 -0.231178 2.3621399
1.05107 -0.22559601 2.3547001
1.06155 -0.22607499 2.36796
1.06524 -0.235421 2.3658402
1.06177 -0.23001699 2.3626101
1.0711 -0.229359 2.3701901
1.0803701 -0.241032 2.37976
1.0759101 -0.23503599 2.3710799
1.09303 -0.23409201 2.3859501
1.08292 -0.241052 2.3761702
1.08859 -0.237536 2.3779199
1.10618 -0.23657699 2.39043
1.09668 -0.294411 2.3447502
1.1066201 -0.28814501 2.3511801
1.09724 -0.30162001 2.3401
1.0992 -0.293928 2.3393302
1.1044899 -0.287267 2.3402801
1.10067 -0.31084001 2.3370502
1.10436 -0.30325601 2.3366401
1.10464 -0.29546499 2.3365302
1.10875 -0.32421601 2.3446898
1.1103801 -0.31670099 2.3394201
1.11131 -0.307468 2.33495
1.1116 -0.298264 2.33305
1.1155601 -0.31775901 2.3350501
1.1207 -0.312143 2.33534
1.1274099 -0.314861 2.33253
1.08883 -0.23742701 2.3856001
1.0825701 -0.234956 2.36993
1.09773 -0.237242 2.3875201
1.10138 -0.24280001 2.3858099
1.10502 -0.293172 2.36256
1.11325 -0.28677499 2.3675601
1.1004901 -0.29384199 2.3499
1.1099 -0.28721002 2.3568399
1.09426 -0.30175102 2.33639
1.1007299 -0.29589599 2.3385401
1.10738 -0.28732401 2.3418701
1.0998 -0.303749 2.33236
1.10343 -0.296424 2.3304501
1.1086 -0.31939101 2.34181
1.1112599 -0.311427 2.3374701
1.11061 -0.29993299 2.3294799
1.1163601 -0.31733701 2.3417099
1.0980999 -0.23719101 2.3963101
1.09232 -0.23462699 2.3828602
1.10323 -0.23480301 2.39271
1.09781 -0.238013 2.3828299
1.08164 -0.29614499 2.33689
1.09524 -0.292052 2.34568
1.10458 -0.287967 2.35151
1.0804499 -0.29939401 2.33112
1.0910701 -0.293704 2.3360603
1.1007299 -0.28642401 2.33917
1.0872799 -0.29950002 2.3278399
1.09956 -0.29524902 2.3328702
1.1040599 -0.285842 2.33044
1.09516 -0.30425501 2.3273699
1.10595 -0.29907101 2.3286002
1.11849 -0.311683 2.33411
1.11263 -0.30407 2.3278701
0.98604602 -0.20470199 2.2755802
1.00807 -0.20878701 2.29638
1.0534301 -0.221166 2.3466299
1.07428 -0.22578 2.37045
1.09343 -0.22811399 2.3912899
0.985475 -0.20642099 2.26809
1.00541 -0.209216 2.2876999
1.0367299 -0.21768101 2.3210199
1.06463 -0.223396 2.3523102
1.0890599 -0.228615 2.3799601
1.1054901 -0.229046 2.3972502
0.98196405 -0.21039601 2.2590499
0.99789804 -0.212118 2.2741101
1.01711 -0.214771 2.2932
1.04046 -0.22065501 2.3180301
1.0604399 -0.22422199 2.3401301
1.08736 -0.23069799 2.3696201
0.99166101 -0.221211 2.26863
0.99818999 -0.21927601 2.27298
1.00959 -0.217953 2.2825401
1.02429 -0.219497 2.2967801
1.05971 -0.22884701 2.3365099
1.07261 -0.23021299 2.34988
1.09962 -0.28931701 2.3565302
1.11057 -0.282886 2.3627403
1.0842299 -0.29573601 2.3398299
1.09121 -0.28769299 2.3415301
1.10063 -0.28083 2.3431702
1.08811 -0.29797599 2.3347101
1.09577 -0.29045999 2.3350899
1.10356 -0.28302699 2.3364902
1.0930001 -0.301615 2.3309
1.10333 -0.296119 2.3302898
1.10198 -0.31941 2.3404
1.10308 -0.307677 2.33109
1.11064 -0.301359 2.3293099
1.12293 -0.19945699 2.3839402
1.1125 -0.20442601 2.3817999
1.12158 -0.20730101 2.3748801
1.1063401 -0.203693 2.3703899
1.11225 -0.21100001 2.3728201
1.09241 -0.19601299 2.3637099
1.09613 -0.20236 2.3644202
1.10147 -0.20985501 2.3661098
1.10648 -0.217411 2.3687701
1.08966 -0.197584 2.3589902
1.0932801 -0.20348302 2.3559
1.09675 -0.21124701 2.3603702
1.08766 -0.19719701 2.3477802
1.09009 -0.201865 2.34181
1.0913 -0.21006 2.34957
1.0691301 -0.195023 2.3431101
1.08236 -0.19643801 2.3357401
1.08065 -0.203907 2.3369501
1.08843 -0.20782499 2.3363602
1.07314 -0.19670999 2.3289802
1.07433 -0.20507799 2.3322001
1.07762 -0.21043301 2.3337798
1.05597 -0.18126801 2.3194799
1.06185 -0.18787901 2.3217802
1.06335 -0.195273 2.3233099
1.07041 -0.202509 2.3219299
1.10071 -0.282125 2.3178601
1.0523 -0.181042 2.3124399
1.05585 -0.18783399 2.31688
1.0602601 -0.19591101 2.3141401
1.0594699 -0.204675 2.3145401
1.0863401 -0.29047501 2.31953
1.09601 -0.28994802 2.31391
1.05358 -0.18003799 2.29848
1.05352 -0.18797199 2.30655
1.05558 -0.197762 2.30494
1.05401 -0.206028 2.3062899
1.07812 -0.29449302 2.3149199
1.08381 -0.29727599 2.3138502
1.05599 -0.17877799 2.2850001
1.0514801 -0.18898399 2.2948103
1.0519 -0.19913799 2.2976301
1.05198 -0.20482402 2.2981
1.05752 -0.184863 2.2781899
1.05691 -0.19321501 2.28234
1.06064 -0.18378599 2.26876
1.09806 -0.20517401 2.3949599
1.1101999 -0.208417 2.3851101
1.10313 -0.20247 2.3803101
1.1042199 -0.20896299 2.3785
1.11142 -0.21683399 2.3798599
1.10109 -0.202241 2.3697202
1.10197 -0.207333 2.3652401
1.10315 -0.21645701 2.3740702
1.0972899 -0.20133699 2.3583899
1.09653 -0.20663799 2.35656
1.0993 -0.21279101 2.35798
1.08779 -0.200403 2.3506
1.0930101 -0.206901 2.3479199
1.08745 -0.216086 2.35777
1.07099 -0.18378401 2.3419299
1.07236 -0.19223301 2.3466601
1.0797499 -0.200408 2.3435199
1.0880899 -0.20703699 2.3410902
1.06451 -0.185839 2.3403502
1.06901 -0.19271798 2.3400698
1.07307 -0.19912 2.3354199
1.0779099 -0.2061 2.3341601
1.0611399 -0.18554501 2.3304901
1.06459 -0.19273099 2.3297
1.0704499 -0.20092501 2.3279502
1.07058 -0.207092 2.3264999
1.05589 -0.18656901 2.3215899
1.05879 -0.193955 2.3198502
1.06347 -0.20199499 2.3222699
1.06355 -0.20809901 2.32125
1.04521 -0.18914801 2.3194799
1.05531 -0.19231701 2.31003
1.0563301 -0.20236701 2.3122602
1.04734 -0.18873501 2.3056703
1.0501699 -0.19699499 2.3050699
1.05022 -0.20587 2.30668
1.0521801 -0.21092501 2.3055899
1.04575 -0.18861601 2.2994001
1.04625 -0.19617599 2.3012302
1.0477901 -0.20565201 2.3021898
1.04278 -0.21490601 2.3090701
1.1154599 -0.19828101 2.38832
1.10325 -0.19851901 2.3860502
1.11401 -0.20476401 2.3800201
1.10107 -0.190735 2.3720801
1.10158 -0.19863001 2.3776503
1.1097 -0.207286 2.3684399
1.1125901 -0.21972601 2.3698301
1.0959201 -0.19061001 2.36518
1.10018 -0.19710301 2.3633401
1.1029 -0.20769301 2.3593302
1.10691 -0.21696199 2.3624601
1.10429 -0.22587 2.36654
1.0935 -0.190862 2.3536401
1.0963501 -0.199425 2.3522401
1.09928 -0.209442 2.3508499
1.09893 -0.21896701 2.3582299
1.0963 -0.226291 2.35883
1.0856 -0.19166401 2.3482902
1.0883499 -0.198171 2.3457901
1.09384 -0.207297 2.3456702
1.09176 -0.21896099 2.35128
1.08882 -0.22682801 2.3547201
1.0777301 -0.193832 2.3440499
1.0838799 -0.19883101 2.3346601
1.08619 -0.2087 2.3416202
1.08035 -0.220063 2.35129
1.07469 -0.19434799 2.3316698
1.0777401 -0.199441 2.32951
1.0799 -0.20681199 2.33126
1.09869 -0.27436399 2.32165
1.06862 -0.19486099 2.32516
1.07156 -0.20000499 2.3236599
1.07269 -0.205614 2.3193798
1.09389 -0.28104201 2.3206
1.09986 -0.28321999 2.3148103
1.06591 -0.19559 2.31565
1.06621 -0.20177099 2.3134201
1.06319 -0.20879999 2.3150899
1.0853 -0.285063 2.3174
1.08847 -0.28786501 2.31475
1.05846 -0.19774701 2.3076
1.0576 -0.20438601 2.30936
1.05828 -0.209737 2.3098199
1.07149 -0.29061499 2.3229501
1.07432 -0.29380199 2.32183
1.05352 -0.19767599 2.30094
1.05467 -0.20266099 2.30126
1.05449 -0.208857 2.3043702
1.07188 -0.294267 2.3173501
1.04853 -0.19908701 2.29972
1.04934 -0.20402201 2.3007801
1.1100299 -0.20996 2.3757598
1.11393 -0.216602 2.37096
1.1053901 -0.20362499 2.3656602
1.10479 -0.21011801 2.3669202
1.10904 -0.218346 2.36711
1.10165 -0.225971 2.3767998
1.0989701 -0.202672 2.35811
1.1009101 -0.208106 2.3559501
1.10243 -0.216034 2.3616202
1.09308 -0.20149201 2.3515799
1.09584 -0.206173 2.34849
1.09506 -0.212925 2.35042
1.09122 -0.201822 2.3410501
1.09182 -0.207504 2.3388901
1.08451 -0.214715 2.34513
1.0811 -0.20367901 2.3360801
1.08096 -0.21019399 2.3380301
1.07907 -0.21475799 2.3369699
1.07585 -0.20028 2.3237901
1.07517 -0.208049 2.3292999
1.06718 -0.215381 2.33796
1.1013 -0.27719 2.30954
1.0610299 -0.19566099 2.3272901
1.06595 -0.20065399 2.32271
1.06923 -0.20687401 2.3201401
1.08242 -0.28332299 2.3187399
1.0942 -0.28547502 2.30603
1.05787 -0.19441999 2.31849
1.06002 -0.20009701 2.3135102
1.06229 -0.20650999 2.31374
1.07648 -0.28589001 2.31159
1.08262 -0.29068398 2.30547
1.0922 -0.29251301 2.2993798
1.0360399 -0.18726999 2.3208599
1.04944 -0.19218701 2.3106
1.05527 -0.198374 2.30252
1.05625 -0.20565701 2.3072801
1.0446601 -0.186359 2.3052802
1.0465 -0.19246 2.3036001
1.05088 -0.19870199 2.2972698
1.05204 -0.205185 2.2983003
1.04668 -0.193345 2.2966201
1.04873 -0.200417 2.29387
1.04884 -0.20659901 2.2946501
1.12115 -0.191036 2.4025202
1.1203099 -0.19060498 2.3936601
1.1221299 -0.19746901 2.3937101
1.1134501 -0.19072001 2.38993
1.11299 -0.197468 2.3911898
1.10593 -0.190979 2.38448
1.1104599 -0.197309 2.3803799
1.11395 -0.207609 2.37219
1.10273 -0.191392 2.37393
1.10698 -0.198829 2.36973
1.11072 -0.20726199 2.3610001
1.11169 -0.21726801 2.3650501
1.1036 -0.190458 2.3583403
1.10197 -0.19754601 2.3606
1.1040599 -0.207138 2.35499
1.10704 -0.21847901 2.3559799
1.1029 -0.228476 2.35923
1.11245 -0.232384 2.349
1.09548 -0.191816 2.3545699
1.09946 -0.199083 2.3463299
1.0992299 -0.21133199 2.3492401
1.09873 -0.222339 2.3530099
1.09443 -0.229196 2.3561499
1.08874 -0.19277799 2.3451998
1.0930001 -0.198221 2.34008
1.0930001 -0.207453 2.3413198
1.0880799 -0.221219 2.3498502
1.0837001 -0.229689 2.3519201
1.0772001 -0.192864 2.34462
1.0851001 -0.199238 2.33534
1.08433 -0.212115 2.3378899
1.07666 -0.22376101 2.3475299
1.06742 -0.231142 2.35865
1.07166 -0.193269 2.33815
1.0774601 -0.19890301 2.3269601
1.0796601 -0.20812701 2.3295901
1.07568 -0.218868 2.33444
1.07081 -0.22784701 2.3426299
1.06926 -0.193113 2.3265901
1.0709 -0.19841999 2.3210199
1.07294 -0.20807 2.32215
1.06854 -0.21804 2.3278701
1.06432 -0.193451 2.31867
1.06733 -0.199993 2.3128703
1.0665699 -0.20948601 2.3144801
1.05961 -0.217132 2.3234398
1.06098 -0.19446501 2.30777
1.05986 -0.201097 2.3057699
1.06126 -0.208554 2.3079801
1.05295 -0.194785 2.3000698
1.0575 -0.19942302 2.29475
1.05523 -0.205566 2.2984099
1.04849 -0.19456899 2.2933402
1.05005 -0.19957899 2.2918999
1.0509601 -0.204643 2.2914498
1.05141 -0.194254 2.2824399
1.05042 -0.19926399 2.2837501
1.05038 -0.204262 2.2843499
1.1141601 -0.21130301 2.37815
1.1035399 -0.20918199 2.3669801
1.1091501 -0.21441001 2.36552
1.09655 -0.20716499 2.3577402
1.09451 -0.21099702 2.3527403
1.08333 -0.20332399 2.34605
1.0875499 -0.294779 2.3475699
1.06433 -0.201639 2.3329401
1.0605201 -0.198293 2.3311002
1.0693099 -0.29795998 2.3385501
1.07381 -0.29195899 2.3387101
1.08547 -0.28609699 2.3419399
1.1041 -0.27956399 2.3487799
1.04717 -0.19768801 2.3189499
1.05388 -0.19674 2.3236599
1.0680699 -0.298329 2.33413
1.07742 -0.29137698 2.33599
1.08796 -0.28630501 2.33934
1.09804 -0.28054199 2.3428602
1.03513 -0.19548799 2.3078601
1.04418 -0.195168 2.3138399
1.07224 -0.29746401 2.3293798
1.0839 -0.29061899 2.3338199
1.09453 -0.28586799 2.33814
1.09945 -0.280909 2.33868
1.10531 -0.27462602 2.3408201
1.0257701 -0.194041 2.2983701
1.0328701 -0.193183 2.3031602
1.07786 -0.29993701 2.3265302
1.08342 -0.29324901 2.3294299
1.10052 -0.28779301 2.3354902
1.1066101 -0.280233 2.3374398
1.01933 -0.19256701 2.2909601
1.0211799 -0.190863 2.2919602
1.09614 -0.295863 2.3311498
1.01121 -0.191184 2.2825899
1.01867 -0.19049999 2.2860401
0.99655294 -0.18896499 2.27021
1.0028 -0.18747601 2.27443
0.98764801 -0.18764201 2.2612
0.99106103 -0.18600401 2.2635102
1.1144201 -0.248022 2.2927401
1.06335 -0.29499 2.3364201
1.07076 -0.28999501 2.3385301
1.08051 -0.28455698 2.34095
1.09043 -0.277435 2.3431001
1.10431 -0.273487 2.3479102
1.06417 -0.29397199 2.3335299
1.0759799 -0.28920799 2.3377099
1.0847 -0.28367501 2.3389902
1.0922101 -0.27753299 2.3406
1.0987899 -0.27188298 2.3425901
1.11174 -0.23049299 2.3425601
1.09904 -0.221315 2.3346601
1.06419 -0.295349 2.3287201
1.07838 -0.29029101 2.3343399
1.0883499 -0.285855 2.3368599
1.09176 -0.27976999 2.3367901
1.09894 -0.27349898 2.3383999
1.10768 -0.230152 2.3346701
1.1102901 -0.225683 2.3364098
1.07485 -0.29339099 2.329
1.09156 -0.286093 2.33406
1.09813 -0.277843 2.33377
1.10366 -0.22996099 2.32758
1.10765 -0.226088 2.3301599
1.0742199 -0.30339301 2.32622
1.10404 -0.236762 2.32427
1.08811 -0.224253 2.31587
1.07355 -0.22236499 2.3053901
1.0624501 -0.21535701 2.2983201
1.0476201 -0.21281999 2.2886498
1.03627 -0.20668 2.2815301
1.0297799 -0.206414 2.27616
1.0141001 -0.198897 2.2680001
1.0985399 -0.248281 2.30357
1.01851 -0.20273 2.2681298
1.00688 -0.196238 2.2624803
1.09593 -0.22015499 2.3737202
1.1061699 -0.220245 2.37764
1.09633 -0.22059 2.3687201
1.1097599 -0.221017 2.3730099
1.09781 -0.221251 2.3624701
1.0945801 -0.224447 2.35602
1.10402 -0.22469901 2.3599398
1.1071299 -0.226446 2.35516
1.10461 -0.228972 2.3467002
1.06301 -0.29000199 2.3349802
1.0707 -0.28504601 2.3369501
1.0759101 -0.27910298 2.33745
1.08744 -0.27399701 2.3408899
1.10076 -0.26841298 2.3455002
1.08973 -0.230588 2.3350899
1.10869 -0.23114599 2.3433199
1.06046 -0.29230699 2.3313
1.0713 -0.28588 2.33371
1.08533 -0.28041101 2.3378701
1.0937101 -0.274452 2.3403399
1.0993299 -0.269532 2.3408003
1.10123 -0.26064399 2.3408701
1.09699 -0.247133 2.3360801
1.09421 -0.233869 2.3320801
1.11386 -0.231947 2.33969
1.0646601 -0.292878 2.32814
1.07512 -0.28953302 2.3301902
1.08251 -0.28308499 2.33215
1.09472 -0.27599999 2.33534
1.09734 -0.26630101 2.33535
1.09632 -0.25609699 2.3324201
1.08989 -0.24247801 2.3269601
1.08812 -0.233218 2.3239999
1.10637 -0.23313899 2.33128
1.06858 -0.29411101 2.32477
1.08454 -0.29252398 2.3299601
1.09632 -0.28658599 2.33268
1.10455 -0.27974501 2.33336
1.09958 -0.267288 2.33042
1.09118 -0.25158301 2.3238199
1.0828 -0.23757601 2.3181
1.0914 -0.233071 2.3210402
1.11494 -0.235604 2.3292301
1.07109 -0.30434901 2.32446
1.0829799 -0.29964399 2.3278298
1.09637 -0.29764798 2.3321803
1.09321 -0.25588101 2.3204901
1.08568 -0.242483 2.3145301
1.08936 -0.234815 2.3150101
1.0831 -0.244725 2.3080401
1.0878501 -0.24030599 2.3097601
1.10517 -0.239658 2.31495
1.07239 -0.239474 2.29635
1.09096 -0.24127899 2.30477
1.07095 -0.239876 2.2910399
1.08144 -0.24093001 2.2948699
1.0802799 -0.243615 2.2900698
1.10109 -0.24722901 2.2966502
1.09733 -0.25087401 2.2901502
1.10271 -0.255813 2.2866201
1.11364 -0.25562099 2.2899101
1.1022 -0.22607799 2.3952999
1.09435 -0.224186 2.3860199
1.10024 -0.221021 2.3886802
1.08676 -0.220643 2.3773
1.09219 -0.21864501 2.3789902
1.10832 -0.21885799 2.3853102
1.0878 -0.220743 2.37184
1.09551 -0.217831 2.3739402
1.08332 -0.2186 2.3635399
1.09271 -0.21873501 2.3668499
1.11048 -0.22013001 2.37339
1.08323 -0.21870799 2.3573401
1.10241 -0.222335 2.3647299
1.08429 -0.22613899 2.3517199
1.08275 -0.22047399 2.3513
1.0960801 -0.22234301 2.35659
1.0905 -0.224602 2.3503501
1.10893 -0.22809701 2.35586
1.09435 -0.27780101 2.3497901
1.09356 -0.26179799 2.3461199
1.10314 -0.229903 2.3492098
1.06426 -0.292824 2.3384399
1.06846 -0.28462201 2.3384101
1.0796601 -0.278391 2.3419502
1.0856301 -0.27266002 2.3425798
1.08903 -0.26545399 2.3430099
1.0868 -0.256542 2.3397501
1.06489 -0.232308 2.3239701
1.1110901 -0.234541 2.3449202
1.06564 -0.283941 2.33336
1.0790401 -0.28036401 2.33794
1.0844899 -0.27236998 2.3370299
1.08903 -0.265048 2.3391101
1.07656 -0.246315 2.3292
1.06511 -0.230684 2.3206201
1.1105599 -0.23647301 2.3386898
1.07225 -0.28493899 2.33109
1.0815101 -0.27893499 2.33301
1.08486 -0.27259701 2.3328102
1.0877301 -0.26695099 2.33323
1.06504 -0.23307301 2.3171499
1.07002 -0.23147899 2.31845
1.06943 -0.288618 2.32564
1.0820301 -0.28356799 2.3295801
1.08727 -0.27557698 2.3304701
1.08705 -0.26962999 2.32901
1.06329 -0.231336 2.31004
1.07758 -0.23334 2.3159702
1.10633 -0.240493 2.3250399
1.0696 -0.29884398 2.3234301
1.0796701 -0.294287 2.3269501
1.08559 -0.27579901 2.3267503
1.05349 -0.229617 2.3020902
1.06885 -0.234863 2.30848
1.08143 -0.23638001 2.3119001
1.07578 -0.238234 2.3063002
1.09813 -0.244426 2.3122201
1.09247 -0.24726 2.3066201
1.10721 -0.24978901 2.3097
1.1039 -0.254282 2.30463
1.09881 -0.259083 2.2927802
1.10393 -0.217952 2.3919101
1.09566 -0.21434799 2.3819799
1.1069 -0.215883 2.38814
1.08675 -0.21162 2.3710501
1.10479 -0.214687 2.38117
1.0696399 -0.219331 2.3605402
1.0751799 -0.215914 2.3619502
1.08105 -0.21029601 2.36393
1.1052899 -0.21625 2.37375
1.06356 -0.21630301 2.3542902
1.06282 -0.21030001 2.3517501
1.08103 -0.21236999 2.35906
1.10563 -0.21866399 2.3671899
1.05716 -0.21377599 2.34533
1.06124 -0.208901 2.3457301
1.09383 -0.21834299 2.3587501
1.0374401 -0.206847 2.33057
1.04531 -0.20684299 2.33406
1.05062 -0.20556802 2.3353701
1.043 -0.213974 2.3277402
1.03974 -0.20590401 2.3265901
1.05382 -0.21076299 2.3312302
1.07818 -0.28990498 2.34588
1.07647 -0.27472201 2.3414903
1.0866799 -0.27385101 2.34445
1.0441999 -0.21691699 2.32371
1.04897 -0.214525 2.32496
1.07693 -0.224491 2.3334799
1.0603 -0.29460099 2.3371301
1.06796 -0.290369 2.3401699
1.0736699 -0.283535 2.33934
1.07766 -0.27406901 2.33792
1.0775 -0.262573 2.3361001
1.0617601 -0.23429701 2.3273599
1.06839 -0.2306 2.32743
1.1044101 -0.238864 2.3378899
1.06673 -0.290539 2.3346
1.0711399 -0.28351602 2.33393
1.07854 -0.279412 2.3346801
1.0803399 -0.26750901 2.3325698
1.07084 -0.24437 2.3255601
1.08531 -0.240077 2.3275101
1.10396 -0.24163601 2.3313501
1.11246 -0.236532 2.33461
1.07223 -0.28636602 2.3294101
1.0796499 -0.27794701 2.32939
1.07959 -0.262631 2.32651
1.07809 -0.24524799 2.3219399
1.09407 -0.244808 2.3254402
1.1035501 -0.24252 2.3256702
1.06832 -0.29560801 2.3239498
1.08267 -0.29371101 2.32863
1.08629 -0.281827 2.3284702
1.07147 -0.246208 2.3177803
1.09999 -0.248603 2.3223102
1.07283 -0.301355 2.3220098
1.10548 -0.25931701 2.3111701
1.09215 -0.192913 2.4203401
1.1037999 -0.19625999 2.4177701
1.09471 -0.19219299 2.4144502
1.10527 -0.196061 2.4101
1.0960701 -0.19148999 2.4053102
1.10291 -0.198533 2.4025102
1.11173 -0.20713399 2.39907
1.08338 -0.195191 2.4017599
1.0957 -0.197034 2.39745
1.1056501 -0.20544201 2.39346
1.08957 -0.19283301 2.39113
1.09446 -0.19927201 2.39059
1.1030201 -0.205586 2.38624
1.0762401 -0.19853202 2.38784
1.09284 -0.19964199 2.38238
1.10401 -0.20774598 2.38012
1.11417 -0.21722299 2.3763502
1.08226 -0.195236 2.37659
1.0881701 -0.200225 2.3748102
1.0968599 -0.20698699 2.37572
1.07679 -0.19611999 2.37081
1.0798401 -0.200753 2.36921
1.0888 -0.20462699 2.3689699
1.07462 -0.19629999 2.3645201
1.0764 -0.201115 2.3621099
1.07771 -0.206605 2.3628602
1.07232 -0.19746 2.3577302
1.07221 -0.202801 2.3565099
1.06385 -0.21209101 2.3598299
1.06849 -0.19852899 2.3510602
1.06568 -0.203951 2.35039
1.06312 -0.19827299 2.34357
1.05978 -0.20316099 2.3418601
1.0545 -0.199228 2.3358002
1.0561 -0.20306101 2.33426
1.04471 -0.19541599 2.3292501
1.04965 -0.199356 2.3296099
1.05373 -0.202793 2.32868
1.10246 -0.25744301 2.3173101
1.03861 -0.19420299 2.3230002
1.04379 -0.19850099 2.3243201
1.0485801 -0.20218299 2.32408
1.10614 -0.256513 2.30844
1.0379599 -0.192257 2.3155801
1.0381199 -0.197576 2.31757
1.1058999 -0.25622901 2.30178
1.1077 -0.263733 2.30091
1.0294 -0.192623 2.3092999
1.02828 -0.19902 2.31126
1.09346 -0.26324499 2.3010602
1.1006401 -0.26738399 2.2980499
1.01677 -0.19022 2.30494
1.02235 -0.192699 2.3029902
1.02765 -0.19635099 2.3027802
1.1002201 -0.27440599 2.29496
1.0154001 -0.18821698 2.2976501
1.01947 -0.192819 2.2983599
1.01419 -0.200262 2.30021
1.00875 -0.186112 2.2890301
1.01527 -0.191432 2.2919202
1.0058999 -0.179851 2.2825899
1.0081401 -0.183503 2.2823
1.0072 -0.189246 2.2832401
1.00012 -0.18410999 2.2774999
0.99876803 -0.19088301 2.2757101
0.99121803 -0.186005 2.27075
0.99479502 -0.19275899 2.2682002
0.98783499 -0.18781799 2.26318
0.979559 -0.198742 2.2664301
0.98735803 -0.193235 2.2579699
1.10978 -0.196356 2.42378
1.09963 -0.19926901 2.42171
1.10079 -0.198869 2.4144201
1.11011 -0.20186001 2.40922
1.10203 -0.19981399 2.4049802
1.11352 -0.203393 2.4017599
1.09189 -0.20188101 2.3993301
1.10991 -0.20478901 2.3945501
1.0897499 -0.20132601 2.3927701
1.0995899 -0.204539 2.38978
1.1113 -0.21248502 2.38539
1.0924 -0.20084199 2.3845098
1.10054 -0.205926 2.3825102
1.1035299 -0.21375099 2.3801301
1.09004 -0.201221 2.37725
1.0929 -0.20771798 2.3774803
1.09929 -0.216647 2.37521
1.0836101 -0.20293801 2.3718798
1.0867801 -0.209354 2.3722901
1.0775499 -0.21824801 2.3754799
1.07783 -0.202162 2.3650601
1.07862 -0.207766 2.3663101
1.05441 -0.2005 2.3611999
1.06977 -0.20132601 2.35831
1.06599 -0.20856 2.36148
1.05679 -0.198377 2.355
1.06059 -0.202565 2.3545902
1.0641 -0.20682101 2.3534899
1.04668 -0.200803 2.3514903
1.05682 -0.202951 2.3487501
1.05722 -0.20834999 2.34725
1.05088 -0.199074 2.34216
1.0476899 -0.20636 2.34482
1.04546 -0.212029 2.34512
1.04223 -0.199441 2.33529
1.0489601 -0.203363 2.3367901
1.03773 -0.19819401 2.32882
1.0391001 -0.202462 2.3290601
1.01977 -0.19547199 2.3236098
1.03452 -0.19663499 2.32145
1.0317401 -0.202704 2.3217099
1.0274199 -0.192141 2.3156703
1.0289299 -0.197945 2.31655
1.02614 -0.20344801 2.31564
1.0203199 -0.191873 2.3102601
1.0239199 -0.19684401 2.3099999
1.01933 -0.20378201 2.3108802
1.01554 -0.19120899 2.3030999
1.02099 -0.19528601 2.30197
0.99825102 -0.186141 2.29809
1.01273 -0.189669 2.2955201
1.01613 -0.19459 2.2950699
0.98921698 -0.18201299 2.29233
1.00489 -0.18651399 2.2892902
1.0098701 -0.193426 2.2883899
0.98694801 -0.175338 2.2867999
0.99425697 -0.18062401 2.2845001
1.00307 -0.188178 2.2820599
1.00852 -0.19433799 2.27948
0.99215204 -0.17450701 2.27667
0.99647105 -0.182348 2.2760699
1.00325 -0.18995501 2.27424
0.99730301 -0.19850402 2.27601
0.99305296 -0.18004 2.2689402
0.99834394 -0.18800502 2.26898
0.99596602 -0.196289 2.2690899
0.99196297 -0.18752399 2.2625899
0.99347901 -0.19467801 2.2615201
1.10156 -0.20429599 2.4135001
1.10794 -0.20321 2.4062202
1.11365 -0.208638 2.3964002
1.11113 -0.209418 2.3889802
1.10704 -0.210068 2.3815799
1.09558 -0.204284 2.3790302
1.09914 -0.20828699 2.3769202
1.10753 -0.216821 2.3742502
1.08961 -0.20374 2.3747799
1.0932801 -0.209714 2.3724301
1.0977501 -0.219281 2.3703501
1.0555999 -0.198467 2.3737202
1.08065 -0.20274 2.36884
1.0849401 -0.210858 2.3689699
1.08079 -0.21737301 2.3700299
1.0519 -0.19556101 2.3693702
1.06375 -0.200094 2.36654
1.07522 -0.207404 2.3642502
1.05778 -0.184637 2.3583002
1.05049 -0.193938 2.3634799
1.06578 -0.19972201 2.3583601
1.06875 -0.206609 2.3562701
1.04975 -0.18736 2.3561599
1.0546499 -0.193937 2.3537202
1.06402 -0.201112 2.35164
1.06393 -0.20674999 2.34958
1.05293 -0.18672399 2.3465099
1.0498101 -0.193785 2.3482502
1.05857 -0.200206 2.3457
1.05839 -0.207542 2.3433099
1.05023 -0.18635599 2.3382401
1.0521801 -0.193018 2.3408201
1.05317 -0.20210899 2.3391001
1.0494599 -0.210495 2.3387101
1.0490201 -0.186562 2.3317401
1.04735 -0.19440599 2.33318
1.05091 -0.203592 2.33266
1.03969 -0.212283 2.3348401
1.0421901 -0.18917699 2.3277402
1.04049 -0.19575399 2.3277302
1.04265 -0.203437 2.3278399
1.0376999 -0.211532 2.32919
1.03731 -0.196343 2.3206
1.04203 -0.202638 2.32074
1.0260501 -0.19233601 2.31534
1.03047 -0.195804 2.3134601
1.03308 -0.20129801 2.31394
1.02413 -0.192186 2.30845
1.0303299 -0.19591101 2.3076401
1.02609 -0.201729 2.30757
1.0204 -0.19154699 2.3007598
1.02376 -0.19655199 2.3029001
1.0221601 -0.201241 2.30251
1.0157701 -0.190211 2.2936001
1.01853 -0.195308 2.2965899
1.0116401 -0.18942699 2.28755
1.01257 -0.19350299 2.2878101
1.00578 -0.18878901 2.2814999
1.00288 -0.19363099 2.2809501
0.98908997 -0.18683201 2.27931
0.99722505 -0.18949801 2.2762001
0.99671203 -0.194474 2.2745502
0.99120903 -0.185247 2.2717199
0.98949403 -0.19093399 2.27087
0.983778 -0.19754601 2.2713199
0.984056 -0.19631 2.2655098
1.10202 -0.200387 2.4181702
1.10163 -0.193997 2.4119799
1.0997 -0.20052601 2.4144001
1.11253 -0.205098 2.4098001
1.09216 -0.202005 2.4117301
1.11272 -0.206248 2.4035199
1.11287 -0.20673099 2.39553
1.10734 -0.20893601 2.38936
1.07199 -0.19134001 2.38901
1.07098 -0.196648 2.3897102
1.1056401 -0.20743099 2.3817902
1.11459 -0.21581699 2.3771398
1.07821 -0.19104999 2.3829501
1.07977 -0.19789101 2.3829699
1.09944 -0.20746 2.3770902
1.1056199 -0.21671499 2.3726301
1.07276 -0.19171301 2.3794298
1.0766001 -0.197577 2.37637
1.08863 -0.206312 2.37327
1.0932801 -0.21593399 2.3689902
1.07225 -0.19238301 2.3706799
1.0794001 -0.19982901 2.3687301
1.0852799 -0.20889699 2.3675699
1.08788 -0.21649 2.3648801
1.11357 -0.22439399 2.3560102
1.07048 -0.191753 2.3633001
1.0724 -0.198255 2.36273
1.08102 -0.20769699 2.36236
1.08176 -0.21584499 2.36081
1.06495 -0.19316201 2.3575602
1.06726 -0.19897801 2.3575399
1.07337 -0.20650299 2.3568101
1.07568 -0.213402 2.3557699
1.05935 -0.19344001 2.3505402
1.06451 -0.19966699 2.3515899
1.07016 -0.20638099 2.35116
1.04002 -0.195648 2.3508899
1.05405 -0.198869 2.3457301
1.06198 -0.20449801 2.34603
1.04371 -0.19520001 2.3430898
1.04826 -0.19954 2.3389401
1.054 -0.20397499 2.33991
1.04155 -0.19573799 2.3359799
1.0467 -0.199671 2.3322299
1.0477101 -0.20455799 2.3330402
1.04058 -0.19542101 2.3279102
1.04405 -0.20012501 2.32758
1.04329 -0.204501 2.3275499
1.03766 -0.19494399 2.3209701
1.0405101 -0.199065 2.3210101
1.03611 -0.19404301 2.3134601
1.0362101 -0.197808 2.3141699
1.0275 -0.19422199 2.3067598
1.0333 -0.197662 2.3078701
1.0174199 -0.193643 2.30073
1.02658 -0.19696599 2.3014901
1.01142 -0.18857001 2.2953501
1.0130301 -0.192967 2.2964301
1.01344 -0.197505 2.29686
1.0028501 -0.188223 2.2910602
1.00836 -0.192844 2.29199
1.0013601 -0.198801 2.29195
0.9993 -0.18787001 2.2854002
0.999879 -0.193523 2.2862899
0.987993 -0.201502 2.2890399
0.99698997 -0.18807501 2.2789402
0.98995596 -0.19531401 2.2829101
0.980762 -0.203357 2.2869799
0.99261498 -0.18688899 2.2707598
0.99511302 -0.19151801 2.2731202
0.98775202 -0.18635401 2.2637701
0.98989898 -0.189961 2.26595
1.08753 -0.20386401 2.39393
1.10185 -0.20838699 2.3891101
1.0872 -0.203576 2.38958
1.0947499 -0.20758499 2.3856602
1.0999199 -0.21279199 2.3843701
1.08921 -0.20376199 2.38153
1.0933599 -0.20845801 2.3806901
1.0892299 -0.21358499 2.3803799
1.0807099 -0.20419902 2.3760002
1.08575 -0.208979 2.37676
1.07892 -0.21426399 2.3766401
1.0773799 -0.20408601 2.36921
1.07775 -0.209224 2.3720801
1.06875 -0.215124 2.37392
1.07136 -0.20279801 2.3635299
1.0742401 -0.208497 2.36605
1.0601699 -0.215896 2.3728299
1.07513 -0.201608 2.35516
1.072 -0.20601802 2.3570199
1.06479 -0.202107 2.3517301
1.06425 -0.205534 2.3524802
1.06011 -0.20203899 2.34447
1.0619 -0.20577401 2.34619
1.04975 -0.20235001 2.34077
1.0534999 -0.20563699 2.3400602
1.0464801 -0.201103 2.3336599
1.05049 -0.204882 2.3332
1.03597 -0.195638 2.3292801
1.04073 -0.20000701 2.3287601
1.04164 -0.204567 2.3286099
1.02983 -0.19485599 2.3250201
1.03643 -0.199306 2.3235602
1.03465 -0.204643 2.3223801
1.02808 -0.195067 2.3186002
1.03415 -0.20015401 2.31726
1.02894 -0.20502199 2.3169501
1.0244401 -0.19401801 2.3109
1.02855 -0.199431 2.31216
1.02018 -0.204109 2.3136802
1.01989 -0.193368 2.3057001
1.02404 -0.19736601 2.3051102
1.0224401 -0.19259301 2.2980402
1.01969 -0.196564 2.29671
1.01913 -0.19203 2.28988
1.0136 -0.195932 2.29125
1.01013 -0.191616 2.28492
1.01143 -0.19526501 2.28426
1.00113 -0.189197 2.27984
1.00015 -0.19452 2.2787101
0.99353403 -0.188942 2.27507
0.99107695 -0.19492202 2.2737
0.98504603 -0.187199 2.26896
0.987652 -0.19466101 2.2679901
0.98305202 -0.193986 2.2615499
1.1056199 -0.228733 2.3855402
1.10773 -0.220268 2.38974
1.10308 -0.229228 2.3795002
1.09838 -0.226412 2.37853
1.1064299 -0.21357 2.38642
1.10358 -0.22666201 2.3757699
1.09433 -0.227973 2.3722699
1.0899299 -0.22586501 2.37111
1.0852101 -0.235237 2.3641601
1.10966 -0.221109 2.3874199
1.10806 -0.30059099 2.3267701
1.1087 -0.295872 2.3233001
1.1018699 -0.29996002 2.3071601
1.0914299 -0.30683202 2.2976401
1.1063501 -0.30969 2.2992201
1.09332 -0.310381 2.2948401
1.10314 -0.21975 2.38766
1.10706 -0.21217801 2.39117
1.09645 -0.21811099 2.38275
1.1095999 -0.212658 2.3879402
1.1144201 -0.205172 2.3931601
1.11035 -0.20736401 2.385
1.13308 -0.194085 2.3857801
1.14212 -0.18864 2.3871
1.07073 -0.204814 2.3313
1.05717 -0.211383 2.3222799
1.05322 -0.208166 2.32078
1.05261 -0.201387 2.3209901
1.06524 -0.20605899 2.3224301
1.04817 -0.20943001 2.3150399
1.04485 -0.20558901 2.31496
1.03469 -0.20365401 2.3096802
1.05879 -0.209933 2.3156202
1.05424 -0.20628999 2.3141
1.04176 -0.205117 2.3096499
1.03127 -0.20194201 2.3038299
1.04029 -0.19290701 2.3094501
1.07371 -0.19881099 2.3207002
1.03511 -0.20490101 2.30141
1.02891 -0.20074101 2.2982399
1.02393 -0.198562 2.2971399
1.0364701 -0.20082599 2.2974501
1.02832 -0.20116301 2.2944
1.02257 -0.19705099 2.2915301
1.02757 -0.189496 2.2950799
1.02223 -0.201213 2.2873502
1.01377 -0.198717 2.28245
1.01231 -0.19448401 2.2826998
1.00842 -0.200849 2.2762799
1.00177 -0.19792101 2.2725799
1.00652 -0.18960199 2.27582
1.00149 -0.201796 2.26724
0.99654603 -0.19937201 2.2656202
0.99105698 -0.19646999 2.2636499
1.00029 -0.18773599 2.2706299
1.0034 -0.200102 2.2631299
0.995538 -0.19960199 2.2604401
0.98587698 -0.19739799 2.2558801
0.99748302 -0.20244199 2.25646
0.99385905 -0.198057 2.2543399
1.00456 -0.19697201 2.25578
1.00086 -0.194033 2.2537899
0.99866098 -0.19075899 2.2509501
1.11417 -0.19953199 2.3954101
1.1109101 -0.203262 2.3905098
1.10876 -0.200167 2.38992
1.13195 -0.195673 2.3794
1.136 -0.19157301 2.3824999
1.1164399 -0.19973201 2.3666201
1.11414 -0.19749399 2.3656101
1.11088 -0.200487 2.3597801
1.0870301 -0.20341499 2.3455701
1.08003 -0.28945699 2.3227801
1.05892 -0.210016 2.3264499
1.05927 -0.20620599 2.3267503
1.04425 -0.20468301 2.31809
1.09014 -0.288113 2.32388
1.06137 -0.20756799 2.32477
1.04471 -0.20878799 2.3158898
1.0396299 -0.204769 2.3129699
1.0347 -0.200957 2.3101199
1.03663 -0.20972499 2.3071399
1.03474 -0.20539899 2.3062899
1.0293 -0.200707 2.3037701
1.03291 -0.195555 2.3064401
1.09508 -0.286484 2.3110101
1.03614 -0.20857401 2.3023598
1.03669 -0.204135 2.3018398
1.02923 -0.201307 2.2994201
1.02395 -0.197724 2.2975399
1.09455 -0.28795499 2.30673
1.0389 -0.20684999 2.2994502
1.0361 -0.20224001 2.2980001
1.02516 -0.199966 2.2934999
1.0183899 -0.19641501 2.2888601
1.09751 -0.28777 2.30371
1.04998 -0.198806 2.3023598
1.0199 -0.19957599 2.2867002
1.01616 -0.194608 2.2830999
1.01844 -0.18948001 2.2848301
1.09874 -0.29133999 2.2999601
1.01632 -0.19741301 2.2802801
1.00749 -0.196596 2.27564
1.00739 -0.19168699 2.2755201
1.02083 -0.183792 2.2839301
1.0041699 -0.19561501 2.2705801
0.99347097 -0.193905 2.2643201
0.99305606 -0.18915801 2.2641299
0.986287 -0.19605801 2.2569602
0.98395401 -0.19561701 2.25085
1.11244 -0.22224399 2.3678501
1.10848 -0.22140899 2.3651502
1.1042299 -0.22017799 2.36059
1.11093 -0.22676 2.35952
1.09152 -0.21752301 2.3582699
1.10198 -0.224479 2.3561201
1.10524 -0.23138501 2.3541901
1.09907 -0.31744102 2.34811
1.0882801 -0.217443 2.3528202
1.08673 -0.22305501 2.3534303
1.0827 -0.229458 2.35339
1.11736 -0.316493 2.3382902
1.10226 -0.32261199 2.34255
1.0803 -0.216208 2.3487399
1.084 -0.22275899 2.3471
1.0782599 -0.228228 2.34867
1.08981 -0.23651899 2.3436401
1.1146901 -0.317554 2.3334799
1.07101 -0.21441099 2.3445501
1.07735 -0.22180201 2.3424599
1.07318 -0.22797801 2.3430002
1.10943 -0.31893101 2.3270903
1.07284 -0.21557699 2.3358099
1.0717601 -0.222012 2.3361199
1.06985 -0.227515 2.3362398
1.06427 -0.21310499 2.3299499
1.0697 -0.21971701 2.3298299
1.06345 -0.224195 2.3308899
1.0557599 -0.211588 2.3259101
1.06086 -0.218071 2.32465
1.05699 -0.22378701 2.3238699
1.05408 -0.212396 2.31885
1.05074 -0.21802799 2.3197601
1.0482399 -0.22305501 2.31989
1.04171 -0.209562 2.3139901
1.04836 -0.21637301 2.31359
1.04237 -0.221167 2.3147602
1.0376899 -0.20907401 2.3082001
1.0399899 -0.214948 2.3076501
1.0333101 -0.21944501 2.3098001
1.03161 -0.20835699 2.3028202
1.03583 -0.214616 2.3012202
1.0288301 -0.21875 2.3034201
1.0299801 -0.20822001 2.29547
1.0276799 -0.213533 2.2961001
1.03107 -0.21958201 2.2952201
1.02391 -0.207019 2.2893898
1.02407 -0.213029 2.28844
1.02159 -0.21813101 2.2912099
1.0258 -0.20692 2.28109
1.0231199 -0.211862 2.2817903
1.02265 -0.21771401 2.28176
1.01991 -0.20710899 2.2751801
1.02001 -0.21284799 2.2759302
1.0171 -0.218004 2.27461
1.00819 -0.204934 2.2695098
1.01298 -0.211918 2.2699499
1.00542 -0.21597601 2.27121
0.999448 -0.202281 2.2643301
1.00972 -0.20970699 2.2632902
1.0046 -0.214681 2.2639999
0.99713999 -0.20224199 2.25827
1.00006 -0.208253 2.2581501
0.99432099 -0.21336001 2.25755
0.99077904 -0.20205601 2.25279
0.99436206 -0.20893499 2.2518899
0.98499 -0.21271999 2.2521501
0.98212302 -0.200581 2.24704
0.98426801 -0.206901 2.24616
0.97479498 -0.210742 2.2483301
0.976744 -0.211178 2.2405002
1.10018 -0.217043 2.3640301
1.10498 -0.222828 2.36113
1.11499 -0.30975902 2.3465798
1.09857 -0.21595101 2.3580101
1.09654 -0.21998601 2.3587899
1.1026599 -0.22671801 2.3560801
1.11608 -0.31123501 2.3418398
1.1046 -0.312278 2.34688
1.08284 -0.211496 2.3565302
1.09655 -0.220424 2.3526299
1.0901799 -0.224324 2.3522699
1.11155 -0.311387 2.33725
1.1094 -0.31551099 2.3387499
1.0753399 -0.209611 2.3543
1.08713 -0.219347 2.34777
1.09013 -0.22532301 2.3454401
1.1123 -0.31214002 2.3307002
1.10628 -0.31706601 2.33216
1.0845701 -0.221294 2.3384101
1.08271 -0.22425899 2.3415799
1.10868 -0.31244799 2.3248301
1.07706 -0.21987399 2.33249
1.08181 -0.224769 2.33322
1.1091 -0.31215599 2.3167901
1.07388 -0.21981199 2.3266201
1.0718399 -0.22278999 2.32762
1.11247 -0.31284001 2.31072
1.06473 -0.21692801 2.3224802
1.0641 -0.22052799 2.32249
1.1138301 -0.31315801 2.3071899
1.06137 -0.216847 2.31616
1.05934 -0.219882 2.3162
1.05505 -0.214983 2.31111
1.05274 -0.218556 2.30937
1.05045 -0.21459499 2.3035002
1.0533999 -0.21888599 2.3023102
1.04539 -0.213396 2.29603
1.04813 -0.217877 2.29758
1.03941 -0.21127199 2.28967
1.04107 -0.215468 2.29159
1.0304 -0.209492 2.2856202
1.0329599 -0.21388701 2.28508
1.02683 -0.208736 2.2792199
1.02732 -0.212486 2.2793899
1.0157399 -0.20719901 2.2730601
1.0190001 -0.21174601 2.2745903
1.00673 -0.20601802 2.2670701
1.00985 -0.21079399 2.2679102
0.99833 -0.20398501 2.26196
1.0026799 -0.20997499 2.2623701
0.99010396 -0.21131901 2.2666502
0.99179703 -0.20195101 2.25653
0.99906999 -0.208763 2.2569299
0.98684305 -0.210334 2.2614901
0.98600996 -0.200517 2.2498701
0.99196506 -0.20663601 2.2520199
0.98733002 -0.20513201 2.2430701
1.1162 -0.21927999 2.3610401
1.12061 -0.30105102 2.3475602
1.10464 -0.21618401 2.3573599
1.11376 -0.2227 2.35622
1.1207299 -0.309414 2.3424599
1.10413 -0.313209 2.3468101
1.0968699 -0.214816 2.3518
1.09692 -0.21882799 2.35341
1.10885 -0.31027099 2.3409798
1.09999 -0.31479499 2.3431602
1.08933 -0.212448 2.3468599
1.09105 -0.218135 2.34747
1.09869 -0.22596201 2.3445001
1.11194 -0.309104 2.33323
1.08606 -0.21097799 2.3406701
1.0865101 -0.21648701 2.3422101
1.08471 -0.22150801 2.3417599
1.1020401 -0.31215099 2.3286898
1.07573 -0.20731001 2.33811
1.08244 -0.21551999 2.3356702
1.08559 -0.223252 2.3314402
1.0792401 -0.20975401 2.33004
1.08003 -0.21678801 2.3273199
1.08991 -0.22698 2.3214099
1.0750901 -0.209654 2.3216698
1.07996 -0.218473 2.3190601
1.0888 -0.22753701 2.3155601
1.07051 -0.20703 2.31531
1.06892 -0.21279101 2.31462
1.07584 -0.22211599 2.3138399
1.06669 -0.20610501 2.3094001
1.06115 -0.21090099 2.30775
1.0645601 -0.21796399 2.3091602
1.0580001 -0.20412701 2.3037798
1.0549099 -0.209702 2.30124
1.05488 -0.216813 2.3020902
1.0516 -0.202213 2.29673
1.0471801 -0.20697001 2.2973599
1.0478901 -0.215477 2.2964301
1.04812 -0.224361 2.29477
1.04259 -0.19885099 2.29178
1.04459 -0.207197 2.29056
1.04141 -0.21720101 2.29056
1.0300499 -0.220364 2.2935801
1.0405899 -0.198571 2.2842999
1.04263 -0.206135 2.2832
1.03711 -0.21324199 2.2845502
1.03466 -0.22184201 2.2844
1.0353199 -0.196905 2.2778602
1.03212 -0.20341 2.27864
1.03036 -0.21338101 2.27932
1.0188099 -0.216308 2.28
1.02736 -0.194729 2.27228
1.02517 -0.20084299 2.27315
1.02136 -0.209296 2.2737501
1.01085 -0.214369 2.2737303
1.01316 -0.190257 2.2670503
1.01571 -0.19855699 2.2690601
1.00967 -0.20725 2.2676699
1.00533 -0.21330799 2.2683201
1.0035701 -0.186786 2.2608001
1.0093 -0.19779101 2.2614601
1.00641 -0.20654801 2.2613001
1.00599 -0.213568 2.2607801
0.99990499 -0.193179 2.2553601
1.00046 -0.204257 2.2559202
0.99731499 -0.21071501 2.2556
0.99683499 -0.20146601 2.2495999
0.99191302 -0.208451 2.2493701
0.99008101 -0.201253 2.2442503
0.98220801 -0.205642 2.2425501
1.11724 -0.30719501 2.34637
1.11743 -0.31096399 2.3400202
1.1062599 -0.31310099 2.336
1.10885 -0.31213498 2.32844
1.1024801 -0.312264 2.32268
1.10281 -0.31033799 2.31587
1.1214499 -0.30588999 2.34602
1.1021 -0.30692199 2.35009
1.1106 -0.31467399 2.34039
1.11373 -0.30844501 2.33483
1.10385 -0.317049 2.3340302
1.11449 -0.31026199 2.3264999
1.1042401 -0.31801099 2.3278799
1.1116201 -0.307933 2.31902
1.1009899 -0.306113 2.3147602
1.1378 -0.18104601 2.4008801
1.13652 -0.182037 2.39447
1.11139 -0.209949 2.3589499
1.1043299 -0.20673099 2.3531001
1.11867 -0.211915 2.3601902
1.10737 -0.209473 2.3496499
1.10335 -0.20654301 2.3473001
1.1145201 -0.208046 2.3529902
1.10755 -0.20470899 2.34816
1.0857 -0.19584998 2.34217
1.07599 -0.193132 2.3318501
1.1222 -0.203591 2.37273
1.08599 -0.202856 2.3310401
1.08012 -0.19822901 2.32814
1.0753 -0.19277701 2.32534
1.0771 -0.18176599 2.3341501
1.08227 -0.169165 2.34723
1.0759701 -0.166627 2.34181
1.12488 -0.20699801 2.3673599
1.10568 -0.20479 2.34495
1.08884 -0.201702 2.3283601
1.07888 -0.19790001 2.3202701
1.07683 -0.190745 2.3222899
1.07892 -0.179401 2.3329301
1.08144 -0.16950701 2.34216
1.07807 -0.165429 2.3404901
1.1163 -0.20382001 2.3521099
1.0968599 -0.20246401 2.3305199
1.08714 -0.196584 2.3241203
1.0994101 -0.293257 2.3429699
1.0094301 -0.158288 2.2925901
1.09585 -0.295158 2.3294699
1.09747 -0.290995 2.3346
1.02089 -0.191989 2.2693601
1.01561 -0.18795 2.2660501
1.02758 -0.168561 2.2956703
1.02671 -0.16016199 2.3036201
1.0155101 -0.158411 2.2931602
1.09644 -0.297373 2.3194101
1.09877 -0.29200199 2.3253298
1.03207 -0.193893 2.27439
1.02368 -0.189659 2.2692902
1.01785 -0.18590799 2.2652099
1.02556 -0.175925 2.28109
1.0308499 -0.16445601 2.29737
1.0276899 -0.15704601 2.3020501
1.02369 -0.153631 2.3001902
1.0923899 -0.30751699 2.3002403
1.10111 -0.30135098 2.3132
1.10596 -0.294177 2.3213301
1.07806 -0.197543 2.31794
1.05585 -0.195005 2.29492
1.04048 -0.19298701 2.2778502
1.03039 -0.189137 2.2697001
1.02415 -0.18367501 2.2678399
1.03101 -0.17463499 2.2825601
1.10402 -0.30425102 2.3085198
1.12405 -0.201002 2.37198
1.0989499 -0.199341 2.3374701
1.08841 -0.19776601 2.3248999
1.06934 -0.194823 2.3051801
1.0507599 -0.19253401 2.2856202
1.04062 -0.187921 2.27651
1.0335 -0.182024 2.2732
1.1242 -0.201096 2.3655801
1.10774 -0.19885401 2.3444602
1.10391 -0.19474702 2.3404
1.12801 -0.19676599 2.3806601
1.1287301 -0.20398501 2.3689201
1.12248 -0.20872 2.36728
1.1294999 -0.194094 2.3833401
1.12114 -0.19520001 2.3860502
1.09954 -0.308887 2.3253701
1.10253 -0.31631398 2.2994001
1.09956 -0.32141498 2.2946
1.1243 -0.205248 2.3714499
1.10821 -0.291224 2.3523998
1.11684 -0.200406 2.3661301
1.1190799 -0.20678 2.3589599
1.10897 -0.29852 2.33582
1.10726 -0.189961 2.3655801
1.11299 -0.19847602 2.355
1.11524 -0.205254 2.3505599
1.10544 -0.30181801 2.3241
1.10339 -0.188244 2.3561099
1.10554 -0.194618 2.3513401
1.10738 -0.20244199 2.3458002
1.1028 -0.30326501 2.3130002
1.0933 -0.183788 2.3546
1.1007 -0.19441999 2.34308
1.09999 -0.202658 2.33622
1.1002899 -0.30539802 2.30405
1.09313 -0.192458 2.3382401
1.0906 -0.19983801 2.3334799
1.09558 -0.20903799 2.32494
1.0859101 -0.192945 2.3285601
1.08478 -0.19934 2.32639
1.08103 -0.203124 2.3279502
1.07874 -0.191201 2.3243499
1.07736 -0.19704701 2.3229699
1.07244 -0.20214599 2.3216202
1.0743901 -0.19105801 2.3200901
1.07038 -0.196805 2.3187702
1.06697 -0.20134199 2.31829
1.06476 -0.20117901 2.3148801
1.13539 -0.20153099 2.3647699
1.12582 -0.19577101 2.3615501
1.13059 -0.20304199 2.3587101
1.0997 -0.30276 2.33816
1.1178601 -0.19239001 2.35765
1.1205001 -0.198403 2.35339
1.0999299 -0.305866 2.32605
1.1134601 -0.191635 2.34833
1.1126699 -0.19562401 2.34729
1.10385 -0.29948401 2.3129902
1.09683 -0.30439401 2.3185601
1.10227 -0.189034 2.3450501
1.10778 -0.19699301 2.33656
1.09926 -0.196688 2.3292501
1.10435 -0.20430401 2.3219299
1.08859 -0.19537202 2.3222001
1.0895801 -0.20084 2.32131
1.07723 -0.19079901 2.3216102
1.07901 -0.19810399 2.3164098
1.0847 -0.20708799 2.3090501
1.0735199 -0.19016701 2.3122699
1.0732399 -0.196775 2.3096399
1.0722799 -0.202381 2.3083003
1.0683 -0.188673 2.3050699
1.06908 -0.195509 2.3013799
1.06582 -0.199921 2.3025601
1.06635 -0.18857402 2.29759
1.0664099 -0.19459 2.2938299
1.06512 -0.19958201 2.2941201
1.0708699 -0.197558 2.2834601
