# .PCD v0.7 - Point Cloud Data file format
VERSION 0.7
FIELDS x y z
SIZE 4 4 4
TYPE F F F
COUNT 1 1 1
WIDTH 418
HEIGHT 1
VIEWPOINT 0 0 0 1 0 0 0
POINTS 418
DATA ascii
1.16055 -0.533351 1.6287781
1.1718299 -0.53797603 1.6318851
1.17581 -0.54037499 1.626884
1.1886799 -0.54716098 1.6289041
1.1234699 -0.48980999 1.6866909
1.12893 -0.48171502 1.6855741
1.11373 -0.488015 1.6787381
1.1241601 -0.48835602 1.6833631
1.21043 -0.53622001 1.6202261
1.20174 -0.54806703 1.628382
1.21166 -0.53507596 1.613837
1.2147599 -0.53990299 1.613346
1.21222 -0.53698397 1.616986
1.20233 -0.54692799 1.6275909
1.2073001 -0.53761101 1.6301141
1.2101001 -0.538068 1.6215421
1.2087899 -0.54035997 1.617855
1.20253 -0.54933798 1.6233029
1.2072899 -0.543217 1.6245722
1.21322 -0.54259402 1.6151379
1.12858 -0.48068002 1.6734451
1.12427 -0.47233501 1.6762991
1.11701 -0.47671601 1.671746
1.12025 -0.47225103 1.6723331
1.1106501 -0.48144001 1.6668781
1.1133699 -0.47659901 1.6682431
1.11682 -0.473409 1.6675071
1.1078399 -0.49170399 1.659104
1.1051899 -0.48322701 1.6623629
1.11394 -0.48033601 1.6623551
1.1301399 -0.48078799 1.65836
1.1064299 -0.49441701 1.6549749
1.11072 -0.48839402 1.6566172
1.12909 -0.486936 1.6536691
1.10692 -0.50295299 1.649577
1.11507 -0.49967498 1.649516
1.13071 -0.49695399 1.64746
1.10034 -0.50740504 1.646015
1.11005 -0.50652498 1.644667
1.1273301 -0.50540698 1.6420112
1.1218699 -0.54037303 1.631701
1.11545 -0.53126502 1.6340522
1.1055 -0.515212 1.63932
1.11876 -0.51185602 1.637747
1.1402301 -0.51168704 1.6339309
1.1087101 -0.53406501 1.631248
1.1013501 -0.52328199 1.6342529
1.11192 -0.518668 1.6332339
1.12688 -0.51577497 1.6307611
1.1478601 -0.51533002 1.6269369
1.08934 -0.53130603 1.6296761
1.09481 -0.52736598 1.630127
1.1079299 -0.525392 1.6288921
1.11498 -0.520356 1.627393
1.13544 -0.51968598 1.6234689
1.15443 -0.51823002 1.619758
1.0865 -0.52741301 1.6263791
1.1018901 -0.52515799 1.624588
1.12625 -0.52583003 1.619454
1.14458 -0.52386004 1.615957
1.1525 -0.51968199 1.614295
1.09219 -0.53025103 1.620181
1.1122899 -0.52950001 1.616994
1.14448 -0.53329897 1.6095511
1.15047 -0.52561003 1.6103461
1.15915 -0.52236599 1.60847
1.1104599 -0.53912199 1.61035
1.14402 -0.54520696 1.6026199
1.15222 -0.53861099 1.6028301
1.1546299 -0.528732 1.605227
1.16274 -0.52429402 1.6041681
1.1017801 -0.54460996 1.606369
1.1375099 -0.552342 1.599048
1.12603 -0.47827703 1.676649
1.12158 -0.46799499 1.6792129
1.1249 -0.486673 1.671301
1.11672 -0.47522202 1.6742182
1.12402 -0.470965 1.674086
1.1113501 -0.480014 1.6701831
1.11598 -0.47677398 1.669409
1.12231 -0.47248799 1.668504
1.1025701 -0.48738399 1.6626489
1.10633 -0.48139098 1.664535
1.11441 -0.47750899 1.663697
1.09903 -0.496535 1.6568741
1.09578 -0.486352 1.6596011
1.10842 -0.48438799 1.658667
1.13143 -0.48652899 1.6548309
1.0903 -0.50181597 1.6521801
1.09218 -0.495442 1.653879
1.10267 -0.49173599 1.653555
1.12054 -0.49200901 1.651011
1.07996 -0.498117 1.6500189
1.0866101 -0.49590099 1.6496561
1.12749 -0.50193298 1.6443121
1.08103 -0.509579 1.642756
1.08262 -0.50292301 1.6440649
1.0982801 -0.505615 1.6407791
1.14386 -0.51305401 1.6337219
1.07055 -0.51344502 1.63837
1.07626 -0.50917798 1.639187
1.09786 -0.512263 1.635802
1.12152 -0.51451302 1.631708
1.14002 -0.51596701 1.6280341
1.15166 -0.51239604 1.627599
1.07528 -0.51233298 1.6342081
1.12358 -0.52235001 1.6261051
1.1368099 -0.52249199 1.623093
1.14649 -0.51856798 1.6221061
1.1528701 -0.51379198 1.6218469
1.0756199 -0.51749098 1.628648
1.14245 -0.53404403 1.6144141
1.14403 -0.5248 1.616418
1.14943 -0.51931399 1.616818
1.15694 -0.51902097 1.6139721
1.1497899 -0.531515 1.609212
1.15135 -0.522744 1.61103
1.15845 -0.52176797 1.6084399
1.1564 -0.528795 1.6049371
1.12264 -0.47587201 1.680593
1.12076 -0.46656299 1.6829089
1.1147599 -0.472083 1.6776831
1.12182 -0.46801898 1.67811
1.10984 -0.48395199 1.6694242
1.1068599 -0.47378102 1.67198
1.11474 -0.469643 1.673172
1.12178 -0.46421298 1.67488
1.10018 -0.48812401 1.6645809
1.0959201 -0.47638902 1.6677771
1.10532 -0.473968 1.668216
1.11482 -0.471699 1.668837
1.09049 -0.49359402 1.6595761
1.09096 -0.48477501 1.661654
1.09979 -0.48015201 1.6633071
1.11265 -0.48137701 1.662396
1.08456 -0.49992099 1.6549201
1.07767 -0.48735297 1.6577749
1.08673 -0.48630401 1.6568351
1.09914 -0.484115 1.6570761
1.07472 -0.493292 1.6535131
1.08558 -0.49472901 1.6515191
1.0975 -0.49292701 1.6506391
1.13072 -0.50266701 1.644129
1.08719 -0.50991201 1.6430581
1.08841 -0.50481701 1.645238
1.09813 -0.50405902 1.643317
1.12966 -0.51460397 1.63642
1.15114 -0.51626402 1.633606
1.1038899 -0.51634699 1.636922
1.1235399 -0.52213597 1.6319971
1.1440899 -0.52473301 1.6277411
1.1542 -0.52036399 1.6276699
1.12106 -0.52868497 1.6270419
1.1396 -0.53433001 1.62211
1.1481199 -0.53039396 1.6206061
1.15387 -0.52242398 1.6223301
1.1414399 -0.54644102 1.6145231
1.14582 -0.53889799 1.6141549
1.14931 -0.529109 1.6164169
1.15034 -0.52160597 1.616655
1.13604 -0.55414701 1.607234
1.1474099 -0.529863 1.6108692
1.14983 -0.52493197 1.609032
1.1496199 -0.53288102 1.6041641
1.14754 -0.52439201 1.6042571
1.15176 -0.53502101 1.599527
1.11575 -0.477121 1.679178
1.11683 -0.46948001 1.6810299
1.1249601 -0.46504799 1.6821271
1.11099 -0.47510502 1.67585
1.11343 -0.46996602 1.676855
1.11774 -0.46551999 1.6771801
1.12525 -0.462201 1.6779389
1.10621 -0.48828098 1.666586
1.10464 -0.47750199 1.6692761
1.11237 -0.47146598 1.6723831
1.11774 -0.46809399 1.6726792
1.0919499 -0.48923802 1.663045
1.09524 -0.48281699 1.6642101
1.0986199 -0.47732103 1.66483
1.10867 -0.47403899 1.666851
1.0808101 -0.49409401 1.6568991
1.0844799 -0.48537999 1.660123
1.09179 -0.483372 1.6600729
1.10715 -0.48633498 1.6593851
1.07125 -0.50125599 1.6517041
1.06923 -0.49048501 1.6537011
1.08375 -0.490886 1.654325
1.08955 -0.48524398 1.6556131
1.16048 -0.51941502 1.638934
1.06468 -0.49709302 1.6492112
1.07693 -0.49929902 1.648433
1.0844899 -0.49521899 1.6492401
1.14781 -0.52360499 1.6338352
1.1560501 -0.52157098 1.63406
1.0671 -0.503636 1.6437579
1.07541 -0.50178003 1.6439221
1.14719 -0.53754401 1.6261331
1.15165 -0.52825099 1.628436
1.15724 -0.52081198 1.629855
1.14235 -0.545515 1.620905
1.14871 -0.545344 1.6197181
1.1505799 -0.53447104 1.6214471
1.15724 -0.52287102 1.6227499
1.1512899 -0.53180403 1.6153171
1.15572 -0.52319902 1.6164911
1.1503501 -0.53181303 1.610073
1.15649 -0.52600598 1.6104339
1.15201 -0.534908 1.6051309
1.1599 -0.52982199 1.6046411
1.10594 -0.481702 1.675746
1.1138999 -0.480382 1.675747
1.11915 -0.471715 1.6778121
1.10461 -0.48126301 1.672675
1.1099501 -0.47761101 1.6724679
1.11703 -0.47209203 1.6729212
1.10403 -0.48103401 1.6688631
1.11367 -0.48308602 1.665998
1.12603 -0.48196098 1.6654861
1.10867 -0.48495302 1.663259
1.12422 -0.49193099 1.6580051
1.1368001 -0.51252002 1.6481431
1.1407 -0.509013 1.647794
1.1471499 -0.52292001 1.640442
1.15724 -0.52301604 1.637912
1.15254 -0.52807897 1.632778
1.1568 -0.52313799 1.6308639
1.1519899 -0.52747399 1.6256491
1.15625 -0.52245998 1.6239511
1.15017 -0.52615899 1.617715
1.15827 -0.52315402 1.6170111
1.1454799 -0.52396196 1.6118991
1.15206 -0.52273703 1.611137
1.16597 -0.52548599 1.609804
1.14776 -0.52563202 1.606443
1.15583 -0.526043 1.6047659
1.15399 -0.53022301 1.601283
1.16501 -0.52198702 1.5999969
1.1710299 -0.53446203 1.635383
1.1755 -0.54181498 1.631296
1.17878 -0.537449 1.6273199
1.1833 -0.53214502 1.621909
1.15985 -0.52377599 1.6146271
1.1584899 -0.52528501 1.609895
1.1765699 -0.53605902 1.634174
1.1853299 -0.53365999 1.630095
1.18469 -0.53485799 1.6228311
1.15162 -0.52186799 1.61366
1.1636599 -0.52337503 1.6160159
1.18365 -0.53434598 1.6169242
1.15913 -0.52591699 1.610345
1.1749901 -0.52896601 1.612056
1.18011 -0.53834301 1.6112931
1.1854 -0.54033297 1.6322991
1.18007 -0.53471297 1.6343429
1.17643 -0.53783399 1.630223
1.17612 -0.53046 1.6266589
1.1794 -0.534738 1.633918
1.17555 -0.53198397 1.632442
1.17203 -0.53438097 1.629095
1.18454 -0.53236997 1.6334821
1.17831 -0.54062402 1.631201
1.18042 -0.53332102 1.6318451
1.17507 -0.53798902 1.6290091
1.11787 -0.495933 1.635733
1.1305001 -0.48824 1.6352301
1.10838 -0.499818 1.6322521
1.1202201 -0.49300399 1.631584
1.1042299 -0.50111699 1.6290671
1.1092 -0.49720201 1.628231
1.10342 -0.50178599 1.626261
1.11368 -0.49540699 1.6238102
1.1008201 -0.50254399 1.6243051
1.18197 -0.531057 1.6352279
1.18013 -0.542207 1.6304212
1.17518 -0.53586 1.6316581
1.1743599 -0.53414899 1.627975
1.17317 -0.52929002 1.623702
1.17073 -0.52954102 1.616593
1.1713901 -0.52798802 1.6124082
1.1830601 -0.54109502 1.6297669
1.1769999 -0.53451002 1.6319821
1.13527 -0.49615201 1.64125
1.12005 -0.49286997 1.6429361
1.17115 -0.53632599 1.6280621
1.1361799 -0.50299096 1.637151
1.1134501 -0.49862999 1.6404001
1.10978 -0.495381 1.6408881
1.1693699 -0.52961999 1.62494
1.10412 -0.50453401 1.6376081
1.10146 -0.50097299 1.6386091
1.17363 -0.52662599 1.619679
1.0958 -0.50972003 1.6343601
1.086 -0.507963 1.6360941
1.07863 -0.51272899 1.63328
1.0772899 -0.51124501 1.6319242
1.16088 -0.53130299 1.6121961
1.15864 -0.52672899 1.613647
1.15236 -0.53746104 1.608446
1.15522 -0.53255999 1.608549
1.15309 -0.53780699 1.6047009
1.14653 -0.53344101 1.604643
1.15448 -0.53779501 1.6004971
1.1417 -0.53361499 1.6023281
1.14133 -0.53353697 1.6005419
1.20953 -0.538553 1.6425672
1.2189801 -0.53815198 1.6405749
1.215 -0.54652601 1.6390052
1.22405 -0.53805399 1.636338
1.22885 -0.53790402 1.6315061
1.211 -0.53575099 1.638569
1.19941 -0.54349601 1.6366889
1.21726 -0.53693998 1.6336551
1.2096701 -0.54644501 1.6330332
1.21614 -0.53760397 1.6290561
1.21529 -0.546763 1.629042
1.14192 -0.50906104 1.6676321
1.13223 -0.511374 1.6605082
1.13458 -0.506814 1.6571829
1.12723 -0.516204 1.65382
1.11043 -0.5201 1.6515881
1.12681 -0.51846296 1.649935
1.1095999 -0.52352798 1.6469541
1.10198 -0.52921301 1.645178
1.23621 -0.53215003 1.6463619
1.1164399 -0.52741301 1.6436261
1.10405 -0.53197896 1.641579
1.09477 -0.53534901 1.6405771
1.2345999 -0.53338999 1.641511
1.22133 -0.540389 1.640017
1.11444 -0.53466803 1.639675
1.10585 -0.53806299 1.6386881
1.2292 -0.534805 1.63492
1.1378701 -0.51007903 1.660056
1.12649 -0.51517797 1.658842
1.1436499 -0.50685 1.6574811
1.13433 -0.51163399 1.6554559
1.12391 -0.51792401 1.653636
1.11397 -0.52354503 1.6525202
1.13085 -0.51445299 1.650702
1.12085 -0.52158201 1.6477191
1.1129 -0.52684897 1.6473041
1.10179 -0.52992898 1.64671
1.12445 -0.52391303 1.644279
1.1115 -0.52902901 1.642035
1.10103 -0.534208 1.640687
1.23235 -0.53471297 1.641708
1.12363 -0.53301203 1.639774
1.10007 -0.53693199 1.636241
1.0867701 -0.54132801 1.633854
1.22883 -0.540205 1.635766
1.0876 -0.54288101 1.6309531
1.2243199 -0.53884703 1.629891
1.2187001 -0.539092 1.624416
1.21165 -0.548917 1.61755
1.14218 -0.506989 1.6668249
1.13399 -0.51149702 1.6653991
1.13439 -0.50887501 1.6605
1.1292601 -0.515706 1.6585741
1.1426101 -0.50702304 1.655753
1.13508 -0.50930804 1.6557381
1.12712 -0.51589102 1.653802
1.10849 -0.52053702 1.650108
1.13008 -0.51252902 1.6496711
1.1203099 -0.51997602 1.646844
1.10413 -0.52487397 1.6442441
1.09417 -0.52936602 1.6430731
1.22508 -0.53755599 1.6432229
1.12871 -0.52437901 1.6434451
1.10816 -0.52675402 1.640393
1.09708 -0.53386503 1.638674
1.08169 -0.53814602 1.6363989
1.22262 -0.54070401 1.638657
1.1166201 -0.52979302 1.637771
1.09711 -0.53479302 1.63485
1.08381 -0.54200196 1.632399
1.22347 -0.54430598 1.633616
1.08579 -0.54368097 1.629474
1.22192 -0.54432499 1.6271811
1.2089801 -0.54158401 1.6205789
1.20046 -0.55071902 1.6299789
1.20608 -0.53706199 1.6363361
1.07845 -0.52257502 1.6313119
1.10636 -0.50726599 1.647699
1.11567 -0.50279301 1.655565
1.0843 -0.51962698 1.624837
1.0994999 -0.51067299 1.6382821
1.1087101 -0.50291997 1.6457682
1.08427 -0.52464199 1.6211929
1.09191 -0.51792502 1.625878
1.10438 -0.51044899 1.6355121
1.11147 -0.50301099 1.6430081
1.12913 -0.49247101 1.654911
1.1112599 -0.51455998 1.636803
1.12275 -0.50667197 1.6441681
1.1228 -0.50048 1.645496
1.1321499 -0.50617701 1.648284
1.20488 -0.54630101 1.6360321
1.20427 -0.53956103 1.635475
1.2106099 -0.54490501 1.6359491
1.21999 -0.534594 1.6254431
1.21689 -0.54478902 1.6268301
1.22531 -0.53804404 1.614382
1.19513 -0.53889 1.652342
1.21023 -0.54210603 1.6346539
1.20105 -0.54507703 1.6434951
1.22273 -0.53439701 1.6194811
1.22509 -0.54472303 1.6156039
1.20111 -0.53562498 1.646969
1.2085 -0.53717303 1.6370652
1.20207 -0.54415601 1.6394451
1.21747 -0.53794599 1.62341
1.21052 -0.54632801 1.627422
1.20357 -0.55077499 1.631878
1.2238801 -0.54035598 1.611568
1.22111 -0.54277301 1.6201581
1.2217 -0.54174703 1.611889
1.22214 -0.535083 1.6123661
