# .PCD v0.7 - Point Cloud Data file format
VERSION 0.7
FIELDS x y z
SIZE 4 4 4
TYPE F F F
COUNT 1 1 1
WIDTH 705
HEIGHT 1
VIEWPOINT 0 0 0 1 0 0 0
POINTS 705
DATA ascii
1.13782 -0.56479901 1.507103
1.13643 -0.55766499 1.5046581
1.14091 -0.55144501 1.505592
1.1421701 -0.546206 1.505033
1.12172 -0.57319301 1.4941009
1.12637 -0.56153798 1.496456
1.1305799 -0.556005 1.498224
1.13425 -0.55052102 1.498679
1.13937 -0.546009 1.500375
1.12428 -0.56575602 1.490664
1.13051 -0.55684298 1.494398
1.13476 -0.55057502 1.495352
1.1454 -0.54884201 1.500788
1.12262 -0.56735498 1.4850531
1.13018 -0.55932498 1.490052
1.12292 -0.57817799 1.482227
1.1515599 -0.52814204 1.510614
1.16023 -0.52851599 1.5134991
1.16313 -0.51981902 1.51162
1.1559501 -0.524324 1.5070211
1.16326 -0.52135199 1.5073849
1.16487 -0.52991199 1.5073432
1.17314 -0.52705801 1.5088741
1.16254 -0.52674198 1.5016642
1.16128 -0.52805597 1.5194271
1.17027 -0.52362704 1.521255
1.14071 -0.54018503 1.5088741
1.1455799 -0.53585702 1.5098001
1.15176 -0.52674699 1.511237
1.16036 -0.52194697 1.513358
1.13554 -0.53599095 1.5016049
1.13904 -0.53115702 1.5018381
1.14922 -0.52830702 1.5055701
1.16189 -0.52253604 1.508613
1.13692 -0.53878897 1.497068
1.13929 -0.53293401 1.496619
1.14912 -0.53014201 1.4997799
1.1946399 -0.53633201 1.518116
1.20033 -0.53621203 1.520303
1.13438 -0.53651899 1.4897591
1.13851 -0.53406399 1.4897641
1.13474 -0.53783697 1.4852551
1.1295301 -0.527188 1.4798011
1.17496 -0.534073 1.4806021
1.1583 -0.56230497 1.4933419
1.17406 -0.53568 1.47841
1.1710399 -0.547701 1.4816171
1.15956 -0.57433498 1.492153
1.1750801 -0.53635603 1.474848
1.16114 -0.55948299 1.482649
1.1543801 -0.57692504 1.4857601
1.15536 -0.58941501 1.492532
1.15537 -0.56727099 1.4767931
1.1557701 -0.583498 1.480795
1.17562 -0.529562 1.4964081
1.1765599 -0.53033799 1.4893811
1.17694 -0.53150201 1.4823281
1.17462 -0.54391199 1.4828601
1.17216 -0.53814602 1.4780262
1.1734999 -0.54830199 1.4775411
1.16335 -0.57033801 1.4851421
1.16391 -0.54667699 1.4749122
1.16476 -0.55554301 1.475767
1.15889 -0.575041 1.4792709
1.1559401 -0.55445898 1.4732471
1.15355 -0.565633 1.4746311
1.15557 -0.57676703 1.474313
1.15141 -0.55976796 1.4707351
1.17758 -0.52565897 1.5010151
1.17993 -0.53159302 1.482666
1.17056 -0.54625803 1.488531
1.18029 -0.52899098 1.476685
1.17835 -0.54178399 1.4777859
1.17424 -0.55726999 1.4799662
1.1784101 -0.530958 1.4704601
1.1693901 -0.55146402 1.475304
1.16945 -0.56408501 1.477547
1.15845 -0.58324003 1.486622
1.17291 -0.53596997 1.4660361
1.15896 -0.55767798 1.473681
1.15792 -0.57125902 1.477568
1.1555899 -0.58798003 1.480973
1.1523 -0.55613303 1.471835
1.14957 -0.567114 1.4742529
1.1758599 -0.52624696 1.488508
1.17601 -0.53457403 1.488981
1.1749099 -0.52568501 1.4822299
1.17419 -0.53728098 1.4841831
1.1711 -0.54853803 1.4858569
1.17588 -0.524418 1.473461
1.17445 -0.53541696 1.4775422
1.1735901 -0.54699403 1.4783059
1.16873 -0.56287104 1.4817411
1.17475 -0.523359 1.4659179
1.17039 -0.53802103 1.471804
1.16611 -0.554636 1.475494
1.1630599 -0.57047403 1.478721
1.15635 -0.58840197 1.4837821
1.1624199 -0.52178198 1.465561
1.16786 -0.53034401 1.464179
1.1647 -0.54566699 1.4685891
1.16256 -0.55911398 1.4704471
1.15678 -0.57510799 1.4747521
1.1537 -0.58837003 1.4769281
1.1577101 -0.51736802 1.4629951
1.1584899 -0.52360702 1.463603
1.1532199 -0.55298901 1.4695401
1.1518 -0.56686199 1.4707861
1.1650901 -0.55466199 1.459326
1.17741 -0.532538 1.4876322
1.16659 -0.52476299 1.4888572
1.1737 -0.52749699 1.4856131
1.16968 -0.538903 1.484993
1.16739 -0.54900396 1.486425
1.1687 -0.53270799 1.481568
1.16882 -0.54051101 1.4792449
1.17414 -0.547189 1.476658
1.17373 -0.56071901 1.476392
1.1725 -0.57517701 1.478103
1.1652501 -0.53818101 1.47589
1.16905 -0.54363602 1.4735
1.16818 -0.55387199 1.4733959
1.1692801 -0.56501698 1.472543
1.17093 -0.57448101 1.4748931
1.15678 -0.59444302 1.486174
1.1663201 -0.547786 1.467695
1.16381 -0.55858701 1.4690491
1.1633899 -0.56794 1.4705051
1.16493 -0.57770801 1.4719821
1.1494401 -0.55530298 1.4700741
1.15615 -0.55988002 1.46718
1.16092 -0.56863397 1.466731
1.1612101 -0.55775297 1.459913
1.15486 -0.570535 1.465261
1.15668 -0.51531702 1.503708
1.14887 -0.53278601 1.4979481
1.1419001 -0.522461 1.5016211
1.14635 -0.51220101 1.503328
1.14802 -0.503344 1.5051972
1.13543 -0.550735 1.4929481
1.13273 -0.53991598 1.4961489
1.13495 -0.52814096 1.4986691
1.14238 -0.52047902 1.4986459
1.1439199 -0.51137298 1.4993851
1.14947 -0.504152 1.5002911
1.11788 -0.56417501 1.490995
1.12036 -0.55284804 1.4928269
1.12489 -0.54378504 1.4941721
1.12863 -0.53521502 1.4949831
1.13219 -0.527798 1.495073
1.13578 -0.521213 1.4962091
1.14468 -0.51510501 1.4943221
1.1471701 -0.50608397 1.49589
1.11485 -0.55937499 1.489899
1.11612 -0.55184197 1.4908631
1.12297 -0.54674 1.4894531
1.12737 -0.53882402 1.4906671
1.13061 -0.53145403 1.490593
1.13621 -0.52290797 1.491495
1.1487499 -0.51680303 1.4897439
1.1546299 -0.50884897 1.490242
1.11332 -0.56147403 1.4859341
1.11631 -0.55276698 1.487064
1.12094 -0.54639304 1.485625
1.12639 -0.53911501 1.486136
1.1333001 -0.53316396 1.485937
1.12151 -0.57742399 1.4776061
1.11935 -0.56736201 1.480056
1.11745 -0.55381 1.4831061
1.1226799 -0.54443097 1.4829669
1.13291 -0.54074597 1.4812801
1.15749 -0.52092701 1.503299
1.1540799 -0.511217 1.5054071
1.1476799 -0.539841 1.4973252
1.13972 -0.52744204 1.5013421
1.14375 -0.51670897 1.5035571
1.1444499 -0.50757802 1.504727
1.1342601 -0.55925798 1.490859
1.1349 -0.54888999 1.4935501
1.13371 -0.53430599 1.4978451
1.13868 -0.52525401 1.4982269
1.1396099 -0.51349699 1.5012201
1.14412 -0.50619102 1.5003079
1.13115 -0.58319598 1.4840511
1.12511 -0.56442297 1.48873
1.12411 -0.55104601 1.4916501
1.12713 -0.54097003 1.4942832
1.13271 -0.53408796 1.4935919
1.13563 -0.52611303 1.4931301
1.14263 -0.51759499 1.4939661
1.1477101 -0.50774699 1.4933081
1.12304 -0.57263398 1.4839571
1.1221299 -0.56035 1.486608
1.12251 -0.55108702 1.486684
1.1255699 -0.541408 1.4897
1.1317199 -0.53425097 1.4883621
1.14052 -0.527578 1.487449
1.1489 -0.519216 1.4872531
1.15615 -0.513641 1.486472
1.1251 -0.57735097 1.4782801
1.1214499 -0.56134701 1.4818271
1.12135 -0.55098099 1.4829071
1.12624 -0.54351598 1.483761
1.13642 -0.53696603 1.4828629
1.15159 -0.53355998 1.4806439
1.15913 -0.51583403 1.4831672
1.12992 -0.57064801 1.475011
1.1258999 -0.55444002 1.4787359
1.1313601 -0.54594499 1.4791
1.15297 -0.52354401 1.5046029
1.1511799 -0.51722097 1.5063519
1.13588 -0.53134298 1.500596
1.13982 -0.522219 1.503505
1.14038 -0.51553297 1.505764
1.1276799 -0.53853899 1.496477
1.12657 -0.52777302 1.4992709
1.1354901 -0.52404302 1.500011
1.1376899 -0.51766402 1.5014911
1.12386 -0.56703097 1.4875721
1.11958 -0.54876399 1.491994
1.12077 -0.53606802 1.4945129
1.12481 -0.52790403 1.496358
1.1275901 -0.52052802 1.4986371
1.1265301 -0.51162899 1.501055
1.12072 -0.56416202 1.485458
1.11775 -0.548298 1.4883471
1.12097 -0.54033297 1.4895231
1.1230201 -0.52915198 1.4934992
1.1241601 -0.58063596 1.47728
1.11857 -0.56173003 1.4822861
1.11428 -0.547288 1.4856039
1.12155 -0.55582601 1.4797701
1.1517501 -0.51087302 1.4978031
1.17308 -0.56107402 1.4596061
1.15631 -0.51953501 1.456226
1.16274 -0.52695596 1.456161
1.16905 -0.53816396 1.4562
1.17457 -0.55221599 1.4564471
1.16888 -0.527134 1.4536541
1.17453 -0.53893799 1.454107
1.17625 -0.548549 1.4531391
1.16826 -0.52549702 1.4498199
1.1737 -0.53736699 1.4506271
1.18019 -0.54701304 1.4513229
1.1629 -0.51931 1.4464231
1.1378601 -0.52491599 1.500921
1.12099 -0.54544497 1.4958141
1.15238 -0.51427698 1.5010431
1.13561 -0.53299201 1.495751
1.11845 -0.556068 1.4897161
1.15616 -0.51121801 1.4962029
1.13223 -0.53722697 1.4888171
1.1168801 -0.55832601 1.48232
1.11838 -0.55135202 1.479573
1.12011 -0.55897498 1.4777912
1.1161599 -0.56851202 1.4767832
1.11666 -0.570337 1.472894
1.1712999 -0.54476297 1.4588031
1.16892 -0.55891901 1.457404
1.15592 -0.51179296 1.455109
1.16284 -0.51992804 1.455636
1.16861 -0.53276402 1.455828
1.1696601 -0.54576099 1.4550711
1.16986 -0.55798 1.4535251
1.1653 -0.52209997 1.4526061
1.16925 -0.53337401 1.451862
1.16975 -0.54633301 1.451017
1.16921 -0.55679202 1.4495511
1.17065 -0.53029901 1.4487162
1.17329 -0.54098302 1.448608
1.1602401 -0.565346 1.4447421
1.1481 -0.50901598 1.502417
1.13808 -0.524279 1.499456
1.12836 -0.53925002 1.496289
1.1199 -0.55296499 1.4934092
1.14759 -0.51786798 1.4980261
1.138 -0.53278196 1.495079
1.1253901 -0.54946703 1.491044
1.15306 -0.51383996 1.4937701
1.14448 -0.52743196 1.4921001
1.1327 -0.54323798 1.487818
1.11896 -0.56260401 1.4826971
1.14424 -0.52760899 1.486709
1.12581 -0.551714 1.480664
1.12102 -0.56331199 1.477746
1.14993 -0.50449598 1.4840579
1.14281 -0.51692003 1.4830141
1.11579 -0.56763697 1.47331
1.1557599 -0.55059302 1.4568131
1.1640899 -0.55941898 1.4575131
1.16399 -0.57125002 1.4571151
1.15848 -0.52604902 1.454478
1.15661 -0.5399 1.454415
1.1607499 -0.54856402 1.454545
1.165 -0.55826199 1.453517
1.1656801 -0.518305 1.4524701
1.16664 -0.53376597 1.4524139
1.16661 -0.54709202 1.4515691
1.16813 -0.55551499 1.449968
1.16717 -0.52012002 1.449035
1.16925 -0.53225601 1.4491271
1.16749 -0.54547101 1.448187
1.16563 -0.55894601 1.446424
1.1586599 -0.52973998 1.4963751
1.16213 -0.52065498 1.4962091
1.14448 -0.540869 1.496374
1.15651 -0.52653998 1.4947641
1.14406 -0.548325 1.49227
1.14273 -0.54400504 1.493278
1.1423401 -0.540021 1.4935901
1.13269 -0.571495 1.491362
1.1324099 -0.56033003 1.490889
1.1382 -0.54844797 1.4908731
1.14299 -0.54167801 1.4887109
1.12517 -0.57493901 1.4900839
1.12853 -0.56384397 1.4877541
1.1328399 -0.55431598 1.48772
1.1210999 -0.57058799 1.4863909
1.1273201 -0.56083798 1.4843221
1.16531 -0.52690399 1.4971601
1.1576999 -0.524813 1.4994631
1.15431 -0.53263301 1.4975351
1.15799 -0.52563399 1.496459
1.16049 -0.51698601 1.495887
1.15137 -0.544195 1.4918829
1.15101 -0.53725398 1.4939401
1.1578 -0.52722198 1.492303
1.1484799 -0.55605501 1.488112
1.13965 -0.55340999 1.4912702
1.14934 -0.53998798 1.490386
1.16521 -0.52378702 1.4839331
1.1331099 -0.56477702 1.4896381
1.13322 -0.55906898 1.48932
1.1474401 -0.54477602 1.4862621
1.12886 -0.56780702 1.487339
1.12896 -0.56211299 1.4864291
1.12414 -0.57150602 1.484163
1.12183 -0.56783795 1.482859
1.11985 -0.57002699 1.4791751
1.14069 -0.553976 1.4896411
1.14059 -0.55035001 1.4894571
1.1383001 -0.57059801 1.486774
1.1306 -0.56647098 1.4889581
1.1345201 -0.55750901 1.488737
1.13703 -0.55236197 1.4879421
1.12449 -0.57715696 1.488812
1.12836 -0.56711102 1.4863831
1.1335601 -0.55884999 1.485504
1.13512 -0.55384898 1.484858
1.12711 -0.56958401 1.4828689
1.12713 -0.56253397 1.483303
1.1346099 -0.55543798 1.4809781
1.12413 -0.57242197 1.47918
1.12929 -0.56355 1.478126
1.13257 -0.567563 1.473372
1.13394 -0.56200904 1.47307
1.1492801 -0.52227998 1.5017511
1.15497 -0.51760399 1.499846
1.1519799 -0.52356899 1.4968581
1.15597 -0.51870704 1.4958301
1.15431 -0.52595598 1.4907119
1.15457 -0.52076799 1.491702
1.15081 -0.531385 1.4876519
1.15929 -0.52578199 1.4854311
1.17568 -0.52716702 1.4753231
1.1630501 -0.52221698 1.499259
1.1621 -0.51637697 1.4995301
1.15196 -0.53084397 1.497854
1.1566501 -0.52387404 1.498226
1.1567299 -0.51863998 1.497443
1.14887 -0.54132003 1.4933951
1.14323 -0.53538001 1.495922
1.15272 -0.52657902 1.495447
1.15259 -0.520742 1.494596
1.13919 -0.56041002 1.4903281
1.13889 -0.55431002 1.491343
1.13843 -0.54471898 1.493253
1.14201 -0.53787601 1.4921771
1.1495401 -0.52907801 1.4914089
1.1538401 -0.52012599 1.491102
1.1279 -0.564565 1.491388
1.13274 -0.55977404 1.4896359
1.13553 -0.55218601 1.49028
1.1407701 -0.544644 1.4885761
1.14842 -0.53659499 1.486248
1.15732 -0.52908599 1.48452
1.1269699 -0.56528598 1.487703
1.13222 -0.56078702 1.484581
1.13563 -0.55268002 1.485695
1.14485 -0.54384798 1.483175
1.1703399 -0.53506899 1.4736661
1.12723 -0.56756097 1.4811291
1.1353199 -0.56101203 1.479004
1.13502 -0.55515301 1.480859
1.14285 -0.54747099 1.4795419
1.20126 -0.53070801 1.456883
1.12887 -0.57046103 1.475453
1.13212 -0.56299096 1.4764279
1.14431 -0.55480599 1.473327
1.18138 -0.54263598 1.4597839
1.14565 -0.56266898 1.468845
1.15582 -0.55324197 1.466331
1.18792 -0.52993697 1.5001581
1.17423 -0.54196399 1.497807
1.1627201 -0.55324399 1.495662
1.14732 -0.56275201 1.4930691
1.14149 -0.568847 1.4921771
1.18147 -0.53846198 1.4958261
1.1717299 -0.54999197 1.493762
1.1618299 -0.56157297 1.492056
1.15775 -0.57041097 1.4913831
1.15922 -0.58308899 1.4888611
1.15328 -0.59567297 1.487398
1.19013 -0.529347 1.4938861
1.1857901 -0.536883 1.492884
1.17741 -0.54712999 1.490683
1.16485 -0.560256 1.48694
1.16338 -0.572905 1.4871249
1.16513 -0.58267999 1.4865531
1.1573 -0.59167498 1.484498
1.17273 -0.54065496 1.48709
1.1676 -0.55203605 1.484691
1.15888 -0.563591 1.4810462
1.1618 -0.57260901 1.481445
1.15958 -0.58311296 1.481634
1.1583 -0.58353102 1.4774561
1.19493 -0.53962898 1.4624499
1.1916001 -0.54984498 1.4618231
1.19261 -0.560251 1.4614861
1.1921901 -0.53618401 1.4584241
1.19523 -0.54960704 1.4588981
1.19481 -0.55995601 1.4588391
1.19552 -0.53995901 1.454567
1.1983399 -0.55041099 1.4546131
1.1943099 -0.56071496 1.4544251
1.19326 -0.536111 1.4507151
1.19181 -0.54692 1.450258
1.19717 -0.55731899 1.451452
1.17667 -0.53434396 1.501438
1.18761 -0.53387499 1.500921
1.1758599 -0.54409099 1.4970471
1.1715599 -0.55772597 1.4952521
1.16625 -0.56645101 1.493853
1.18319 -0.53451401 1.4957541
1.17795 -0.54472804 1.4933029
1.1709 -0.55599999 1.4914402
1.1697299 -0.56558901 1.491985
1.16485 -0.57516104 1.4895722
1.1588 -0.58855498 1.4864661
1.17996 -0.53572899 1.4908279
1.17067 -0.54914904 1.4877969
1.16641 -0.55932099 1.485853
1.16645 -0.56753701 1.486868
1.15977 -0.57937998 1.483606
1.15497 -0.58874696 1.4826061
1.1607599 -0.55875301 1.4818771
1.15997 -0.56998801 1.4807839
1.15734 -0.579615 1.4789901
1.1519899 -0.58868402 1.4780689
1.17213 -0.53490001 1.5012491
1.1791999 -0.53538001 1.4991831
1.17581 -0.54669702 1.497739
1.1643 -0.559641 1.494795
1.15688 -0.569453 1.4935431
1.18529 -0.529926 1.49606
1.17811 -0.54020303 1.4940451
1.1660199 -0.55153102 1.4914551
1.16085 -0.56160301 1.4904251
1.16285 -0.569906 1.491837
1.1607 -0.58208102 1.491237
1.17979 -0.528633 1.4911361
1.17626 -0.53955001 1.490011
1.16926 -0.550695 1.4878861
1.16177 -0.56103003 1.485849
1.15749 -0.57182199 1.4858441
1.16232 -0.58282101 1.4868051
1.15739 -0.59213698 1.4864191
1.15117 -0.56023997 1.479514
1.15666 -0.57081199 1.480106
1.1524299 -0.58232701 1.4801362
1.15152 -0.59371001 1.480162
1.17776 -0.52980399 1.5058271
1.1672699 -0.535842 1.5044391
1.18499 -0.52964199 1.5034021
1.1791101 -0.53937501 1.503212
1.17519 -0.54646802 1.5024941
1.1731 -0.55480897 1.500713
1.18059 -0.53911096 1.497787
1.1756099 -0.55011499 1.4977059
1.17795 -0.56157601 1.496745
1.18848 -0.53016204 1.493441
1.1826 -0.53791499 1.492619
1.1736699 -0.54921103 1.490741
1.1705201 -0.56109697 1.4907651
1.1724401 -0.573789 1.491181
1.16824 -0.58469397 1.490334
1.1598899 -0.589764 1.4876901
1.17619 -0.52935398 1.488327
1.17064 -0.53985602 1.486601
1.16511 -0.55063599 1.4843841
1.1635 -0.55983603 1.484001
1.16146 -0.57094103 1.484167
1.1633 -0.58268601 1.485716
1.15386 -0.58886796 1.48218
1.15012 -0.59502798 1.4804291
1.1494 -0.55689996 1.477836
1.1582199 -0.57040602 1.4785761
1.15571 -0.58105701 1.478587
1.18556 -0.532637 1.459541
1.18808 -0.54576403 1.461756
1.18027 -0.55371797 1.4613971
1.1612899 -0.57463598 1.4617779
1.18808 -0.52963799 1.4565899
1.18639 -0.54249299 1.457024
1.1846399 -0.55438799 1.459008
1.18794 -0.534208 1.4523902
1.19056 -0.54584998 1.453184
1.18718 -0.55502397 1.454452
1.19001 -0.53318399 1.4499459
1.18617 -0.54197496 1.4490939
1.18713 -0.55492699 1.4500951
1.1739601 -0.52695704 1.505438
1.1851799 -0.53096098 1.5036211
1.18171 -0.53724802 1.503636
1.18759 -0.53426701 1.4990741
1.18435 -0.54423898 1.49888
1.1806901 -0.57806402 1.4975061
1.18234 -0.53403199 1.4929792
1.18376 -0.54804701 1.493152
1.18739 -0.561643 1.495571
1.18551 -0.57318199 1.4954141
1.17071 -0.57810098 1.491308
1.17434 -0.52802598 1.4874691
1.17282 -0.54027903 1.487689
1.17329 -0.55647397 1.4875312
1.17108 -0.56969398 1.48718
1.1666501 -0.57966202 1.485164
1.16658 -0.58588904 1.4862632
1.15924 -0.56686199 1.4795821
1.1598201 -0.57728899 1.4789
1.15754 -0.58525503 1.4788101
1.1439099 -0.59521097 1.4895641
1.14346 -0.58932096 1.4905912
1.1618299 -0.58342803 1.4956561
1.16019 -0.57961601 1.495641
1.15644 -0.57529098 1.493965
1.1681 -0.57817101 1.4942402
1.16513 -0.57541198 1.4938589
1.16328 -0.56881303 1.4915961
1.1717299 -0.56036204 1.49903
1.16802 -0.57085204 1.4899051
1.16372 -0.566019 1.4860462
1.16977 -0.55903101 1.492048
1.16285 -0.56523699 1.481649
1.1735801 -0.552953 1.488076
1.17677 -0.55515897 1.4861841
1.1724401 -0.55019796 1.483353
1.19391 -0.54139704 1.452233
1.1951001 -0.54113698 1.4496301
1.19042 -0.53787798 1.4475549
1.1956 -0.52951199 1.450878
1.18593 -0.53969598 1.440457
1.18618 -0.53363496 1.442395
1.1886799 -0.53615397 1.4375391
1.19103 -0.52945304 1.4409311
1.19758 -0.53088099 1.4391251
1.1641001 -0.57250804 1.494761
1.15206 -0.57837099 1.4849091
1.1570801 -0.56840402 1.4874991
1.18457 -0.54625899 1.5048881
1.1566401 -0.582739 1.484284
1.1623501 -0.57394403 1.486908
1.16765 -0.56483299 1.4898541
1.1747299 -0.55248296 1.49546
1.18716 -0.53870398 1.5048599
1.16871 -0.56926703 1.486412
1.16926 -0.56160098 1.4852591
1.17354 -0.55322397 1.48912
1.18049 -0.54155099 1.495592
1.18777 -0.52964097 1.503005
1.18116 -0.55734998 1.4892691
1.17196 -0.55389303 1.483394
1.1783299 -0.54295397 1.487865
1.1760501 -0.53313202 1.4887869
1.16931 -0.52538896 1.483095
1.1835099 -0.54841304 1.4872491
1.18557 -0.539653 1.488501
1.1693901 -0.534338 1.479127
1.1584899 -0.527183 1.4717129
1.15898 -0.51963001 1.472556
1.1643699 -0.53238398 1.4726471
1.14836 -0.57197201 1.485139
1.1619 -0.56124502 1.492534
1.15635 -0.56295401 1.4856039
1.17712 -0.54927999 1.497952
1.19388 -0.53472304 1.5090221
1.1521701 -0.57699698 1.478826
1.16387 -0.56631899 1.485527
1.1729599 -0.55598199 1.4908071
1.1788 -0.54699302 1.4943111
1.19124 -0.53721803 1.5032251
1.17039 -0.56610799 1.486214
1.17094 -0.55757898 1.485563
1.17943 -0.54782003 1.4905081
1.1838601 -0.53966802 1.493965
1.1847301 -0.54734099 1.490677
1.18609 -0.53805196 1.4914111
1.14015 -0.58873701 1.490169
1.15326 -0.56791902 1.489635
1.1589 -0.56058496 1.4926971
1.14996 -0.56179297 1.484213
1.15996 -0.55379099 1.489149
1.17924 -0.54107702 1.499824
1.15467 -0.56089199 1.482446
1.16878 -0.55020303 1.490261
1.18339 -0.54028201 1.4980801
1.1920301 -0.53156698 1.5044659
1.15263 -0.57535195 1.478353
1.16181 -0.56625301 1.483314
1.16666 -0.55685502 1.486235
1.1783 -0.54724902 1.4924551
1.1812999 -0.53840601 1.4931961
1.1835999 -0.53267598 1.4947881
1.18495 -0.531178 1.49149
1.17573 -0.569947 1.4925079
1.17836 -0.58081299 1.491064
1.18704 -0.53346002 1.4820291
1.17194 -0.54642898 1.491137
1.16737 -0.56054503 1.4938282
1.17529 -0.56991696 1.488955
1.18154 -0.535999 1.4783239
1.17451 -0.54583502 1.483076
1.1717401 -0.558963 1.4856921
1.18065 -0.57029998 1.4802082
1.18223 -0.53527904 1.4736741
1.1753 -0.54472804 1.4773129
1.1695 -0.55529898 1.480361
1.17404 -0.56788802 1.4774741
1.1689601 -0.54796904 1.477066
1.16977 -0.55979002 1.475798
1.18689 -0.53184599 1.4902481
1.18143 -0.53891104 1.4923252
1.1916001 -0.53115797 1.481261
1.1863301 -0.541152 1.4835651
1.18452 -0.54987597 1.482561
1.18819 -0.53998101 1.4761349
1.1812999 -0.54999197 1.4789031
1.17504 -0.56172699 1.4801221
1.17064 -0.574669 1.4825481
1.19055 -0.53488898 1.469767
1.18206 -0.544379 1.473884
1.17574 -0.55352098 1.47584
1.17313 -0.56270999 1.4762511
1.17214 -0.54594702 1.475441
1.16965 -0.55548698 1.475484
1.1803299 -0.56469202 1.469245
1.1701699 -0.52794397 1.5149069
1.1763999 -0.53041601 1.5060201
1.18229 -0.53212202 1.4963351
1.1820201 -0.54389 1.4923941
1.1770099 -0.55497199 1.491413
1.1873001 -0.535115 1.4849341
1.18476 -0.54583299 1.484897
1.18214 -0.55511302 1.484072
1.17614 -0.56266701 1.486101
1.19013 -0.534455 1.4752911
1.18398 -0.54522598 1.478533
1.18056 -0.555641 1.478466
1.17872 -0.56387198 1.4793741
1.17198 -0.56869298 1.4824569
1.1905 -0.53687 1.468016
1.18525 -0.54895598 1.4696701
1.1794 -0.558981 1.4743381
1.19094 -0.52833998 1.4627349
1.18697 -0.53760999 1.463967
1.1971099 -0.55098599 1.4574411
1.20834 -0.53158599 1.444967
1.17544 -0.53110403 1.503957
1.18226 -0.53435004 1.494249
1.18318 -0.54760897 1.489234
1.1797 -0.55895901 1.4881781
1.18288 -0.56798601 1.483801
1.18426 -0.53834802 1.484452
1.18577 -0.55149698 1.4809781
1.1822799 -0.56020999 1.482599
1.18811 -0.53746104 1.4739051
1.18382 -0.54825801 1.4771881
1.18653 -0.56127602 1.4739599
1.20008 -0.54029298 1.458676
1.18732 -0.55032098 1.4694601
1.21252 -0.53479302 1.4457821
1.1776999 -0.52666199 1.505542
1.18434 -0.52833903 1.4981742
1.18102 -0.53828299 1.495762
1.1829 -0.55417198 1.4901581
1.18887 -0.53121203 1.4881061
1.1898301 -0.54790503 1.482594
1.19003 -0.56102103 1.4812131
1.1924 -0.53605497 1.4756689
1.19024 -0.54913199 1.4753051
1.1882399 -0.55980402 1.476981
1.19971 -0.53660798 1.463724
1.19452 -0.54573703 1.4671041
1.1923001 -0.56077403 1.468551
1.21175 -0.543392 1.4496499
