# .PCD v0.7 - Point Cloud Data file format
VERSION 0.7
FIELDS x y z
SIZE 4 4 4
TYPE F F F
COUNT 1 1 1
WIDTH 93
HEIGHT 1
VIEWPOINT 0 0 0 1 0 0 0
POINTS 93
DATA ascii
1.3655499 -0.315965 0.86388451
1.36131 -0.322523 0.86708826
1.3781199 -0.324696 0.85094118
1.37305 -0.312574 0.85667855
1.35992 -0.317857 0.86044848
1.36954 -0.31911099 0.84700531
1.37743 -0.33872399 0.85888696
1.3734599 -0.32033902 0.84586734
1.3778399 -0.33039299 0.8516326
1.3839799 -0.329831 0.84881502
1.3845799 -0.33763099 0.84840876
1.37942 -0.323145 0.83919615
1.38722 -0.33186698 0.84518534
1.38506 -0.337477 0.84444839
1.38817 -0.33170301 0.84245527
1.37471 -0.316062 0.8487528
1.3763901 -0.32663101 0.85108763
1.3824201 -0.320694 0.84879214
1.3838699 -0.33173999 0.85251319
1.38766 -0.33136201 0.84654051
1.3868099 -0.33801401 0.84075677
1.36791 -0.32048401 0.85362089
1.3751401 -0.31481302 0.85084337
1.37396 -0.32591701 0.85477793
1.3786 -0.32717401 0.849747
1.38605 -0.328908 0.84523892
1.3878399 -0.33138099 0.83996099
1.3859301 -0.33155301 0.83247256
1.37494 -0.32335898 0.85066152
1.3795799 -0.325349 0.84442002
1.3861099 -0.32745302 0.84095091
1.38383 -0.32809502 0.83485383
1.3655 -0.31755599 0.8566522
1.3694501 -0.323098 0.85538173
1.3802699 -0.31919101 0.85153127
1.3752999 -0.32892102 0.85283732
1.38261 -0.324166 0.84648061
1.3777299 -0.332221 0.84814262
1.3631301 -0.320876 0.86851972
1.3649001 -0.31466901 0.86560082
1.3648 -0.31294599 0.86036903
1.37175 -0.312756 0.85153383
1.3811901 -0.33700901 0.8723805
1.39582 -0.33146599 0.86707091
1.38773 -0.336294 0.86924452
1.38111 -0.342305 0.86988449
1.38696 -0.33495098 0.86611867
1.38334 -0.34134603 0.86534673
1.3888699 -0.33412701 0.86095464
1.3801199 -0.342949 0.86211878
1.3808399 -0.334728 0.87302065
1.3727601 -0.341598 0.87446028
1.39937 -0.330984 0.86654007
1.39352 -0.336631 0.86866951
1.3841701 -0.34173802 0.87018442
1.39449 -0.337129 0.86475271
1.37981 -0.34349799 0.86663008
1.40026 -0.33532903 0.85915154
1.3909199 -0.34286401 0.86086959
1.3872099 -0.335354 0.85835344
1.3801301 -0.34370202 0.85965949
1.3953199 -0.32655603 0.86781752
1.38999 -0.33529499 0.86826754
1.37757 -0.34250998 0.8704747
1.3959399 -0.32832801 0.86516136
1.3915499 -0.334986 0.86453229
1.38039 -0.34109199 0.86701703
1.38762 -0.331799 0.86091995
1.38291 -0.34016499 0.86226541
1.3833901 -0.332398 0.85845584
1.3778999 -0.319913 0.85593522
1.37588 -0.33332902 0.87243074
1.3921601 -0.33061698 0.86660403
1.38526 -0.33561599 0.86759162
1.3756599 -0.341326 0.8698644
1.3904099 -0.32660198 0.86288881
1.3854401 -0.33549702 0.8635034
1.38153 -0.34202701 0.86521745
1.3896 -0.323791 0.85845965
1.38471 -0.33182898 0.85975248
1.3782401 -0.340514 0.86149293
1.38565 -0.32447898 0.85642302
1.37051 -0.32652402 0.85955727
1.39431 -0.32516202 0.86756563
1.38875 -0.33350602 0.86843652
1.3782099 -0.34188899 0.87004936
1.39776 -0.32751501 0.86427832
1.39211 -0.33381 0.86467546
1.3818099 -0.33907798 0.86639142
1.3852 -0.33145198 0.86155975
1.3772501 -0.33936101 0.86276352
1.38115 -0.33146 0.85864472
1.37611 -0.31913099 0.85649008
