# .PCD v0.7 - Point Cloud Data file format
VERSION 0.7
FIELDS x y z
SIZE 4 4 4
TYPE F F F
COUNT 1 1 1
WIDTH 620
HEIGHT 1
VIEWPOINT 0 0 0 1 0 0 0
POINTS 620
DATA ascii
1.0822899 -0.49047902 0.50363207
1.08614 -0.48460799 0.50353605
1.0955 -0.47745401 0.502433
1.1021 -0.469648 0.50182605
1.11015 -0.46279201 0.500678
1.12064 -0.45678198 0.498851
1.13205 -0.451098 0.49647102
1.1434 -0.44647801 0.49383903
1.06363 -0.48846802 0.50453204
1.07312 -0.48652598 0.50374103
1.07599 -0.48176202 0.50292605
1.08722 -0.47734901 0.50111604
1.09777 -0.47156298 0.49978301
1.1054901 -0.46500197 0.49871004
1.11377 -0.45840901 0.49729201
1.12128 -0.45071802 0.49602103
1.1323301 -0.44329798 0.49345604
1.1471801 -0.43815801 0.49010703
1.05081 -0.48737401 0.50282705
1.06469 -0.48504201 0.50124902
1.0792 -0.48135501 0.49759004
1.09015 -0.47468799 0.49666202
1.1016899 -0.47024101 0.49530903
1.10867 -0.46446601 0.49360305
1.1174901 -0.45752499 0.49176201
1.1276799 -0.44990501 0.48941302
1.13325 -0.442105 0.48875403
1.14385 -0.43749401 0.48719606
1.1549801 -0.43141201 0.48479104
1.01925 -0.48430699 0.50593901
1.05044 -0.48783502 0.49908006
1.06426 -0.48462898 0.49645701
1.0761499 -0.48118302 0.49373204
1.08587 -0.47605097 0.49273002
1.10192 -0.47134101 0.49030903
1.1134501 -0.46487498 0.48768905
1.1223201 -0.45736802 0.48559901
1.1277601 -0.44922298 0.48479503
1.1319699 -0.44327998 0.48515701
1.13852 -0.43715501 0.48384503
1.14705 -0.430565 0.48205203
1.0381401 -0.48770499 0.49866703
1.05475 -0.48833302 0.49489802
1.06986 -0.48523602 0.49210903
1.08068 -0.480187 0.49048004
1.09851 -0.47764301 0.48705703
1.11147 -0.472233 0.484635
1.12613 -0.46797797 0.48118806
1.13111 -0.46196097 0.48029405
1.1343499 -0.454348 0.48005304
1.13828 -0.44349498 0.47969902
1.14509 -0.43562001 0.47794402
1.05372 -0.49401799 0.49204004
1.1499 -0.43514499 0.47226304
1.05955 -0.49339902 0.51169002
1.06329 -0.487836 0.51195699
1.06652 -0.48077703 0.51178098
1.07822 -0.47409302 0.51010001
1.09279 -0.47009602 0.50812602
1.0992299 -0.464647 0.50783902
1.1068 -0.46003899 0.50678903
1.1111599 -0.45214802 0.50608706
1.1181999 -0.44472301 0.50427198
1.0431501 -0.488859 0.51152402
1.05794 -0.48641202 0.51020104
1.06326 -0.48042703 0.50928903
1.07186 -0.475155 0.50819898
1.08559 -0.47027501 0.50583005
1.10078 -0.46523499 0.50451708
1.10504 -0.45634899 0.50484902
1.11253 -0.45072898 0.50277704
1.12124 -0.44460097 0.50018805
1.13457 -0.44042 0.49783105
1.1437 -0.43162999 0.49575102
1.03 -0.49117002 0.50918305
1.05 -0.49041697 0.50656009
1.0585901 -0.48521197 0.506284
1.06487 -0.47990599 0.50487703
1.07736 -0.47627997 0.50245804
1.08558 -0.47133899 0.50089103
1.09548 -0.46607199 0.50068802
1.107 -0.45877999 0.49998704
1.11877 -0.45305303 0.49667799
1.12635 -0.44735199 0.49438804
1.12832 -0.43878898 0.49554703
1.14036 -0.433842 0.49341503
1.1518101 -0.42733899 0.49066603
1.0148001 -0.49335301 0.50763106
1.0319899 -0.49480098 0.50345206
1.04505 -0.49196997 0.50232005
1.05832 -0.48681599 0.50128603
1.07031 -0.48179001 0.499001
1.0806401 -0.47707099 0.49746305
1.09058 -0.47207201 0.49683803
1.10303 -0.46551299 0.49630904
1.1125801 -0.45825499 0.49466804
1.12702 -0.45416501 0.48952004
1.13202 -0.445894 0.48915404
1.13756 -0.439174 0.48940101
1.14371 -0.43268397 0.48789203
1.1507599 -0.426478 0.48600402
1.02555 -0.49865699 0.50067705
1.0403299 -0.49822497 0.49846503
1.05573 -0.49434701 0.49716201
1.07077 -0.49081403 0.49490702
1.0818801 -0.48627201 0.49321106
1.09067 -0.48211497 0.49232101
1.14177 -0.46665201 0.48186603
1.14247 -0.46170503 0.48187906
1.1447101 -0.453495 0.48114106
1.14156 -0.44001499 0.48310006
1.1460199 -0.43192402 0.48278904
1.03161 -0.50600398 0.49573004
1.04249 -0.50749099 0.49358803
1.1505101 -0.44381198 0.47549504
1.1512799 -0.43502399 0.47659904
1.0233799 -0.49360698 0.51707804
1.0613301 -0.49935099 0.51118398
1.07244 -0.49568403 0.51025206
1.07873 -0.488554 0.51030904
1.08737 -0.48294997 0.50973004
1.09207 -0.475025 0.50956303
1.10227 -0.46707401 0.50793099
1.12198 -0.464957 0.50546104
1.13463 -0.46275398 0.50370103
1.1384799 -0.45500198 0.50272101
1.03027 -0.50224203 0.51201707
1.0412201 -0.49933702 0.51113206
1.04879 -0.49340197 0.51065707
1.05994 -0.48764899 0.50993299
1.07084 -0.48326999 0.50925505
1.07846 -0.47709501 0.50873202
1.08885 -0.47033599 0.50713801
1.09563 -0.46345699 0.506015
1.10805 -0.45833802 0.50447905
1.12386 -0.45561698 0.50335002
1.13009 -0.44710299 0.50114805
1.14059 -0.44206601 0.49927002
1.15538 -0.438526 0.49572805
1.02547 -0.49857497 0.50956702
1.03784 -0.495785 0.50817603
1.04862 -0.49184898 0.506724
1.0564901 -0.48686901 0.50538802
1.06736 -0.48141497 0.50522804
1.0813401 -0.47597501 0.50266105
1.08674 -0.46660197 0.50358003
1.10132 -0.46494597 0.499654
1.1098 -0.457012 0.49882004
1.11972 -0.45124802 0.49903503
1.12589 -0.442794 0.49770805
1.13641 -0.43950698 0.49652404
1.145 -0.43304297 0.49510804
1.01525 -0.50138599 0.50544804
1.03062 -0.49961898 0.50422204
1.0404 -0.49544898 0.50365502
1.0469 -0.48975602 0.50266302
1.05953 -0.486278 0.50063705
1.0729799 -0.48205101 0.49842203
1.07978 -0.475647 0.49817002
1.0893199 -0.470759 0.49755603
1.09963 -0.46590698 0.49499801
1.1096801 -0.460141 0.49376503
1.11727 -0.451502 0.49377602
1.12437 -0.443378 0.49347201
1.12965 -0.4368 0.49368399
1.14117 -0.43355203 0.49115402
1.15131 -0.427118 0.48928002
1.0081301 -0.50164396 0.50209206
1.02321 -0.49909601 0.50176305
1.03924 -0.496016 0.50036299
1.05269 -0.491301 0.49831203
1.0656199 -0.48770902 0.49602103
1.0790499 -0.48677298 0.49356803
1.08849 -0.48159099 0.492937
1.1023999 -0.47698799 0.49083504
1.1132901 -0.47190702 0.48883504
1.12005 -0.46646899 0.488114
1.12247 -0.457654 0.48857304
1.1305799 -0.44773701 0.48717904
1.13404 -0.43794799 0.48771104
1.14572 -0.43254799 0.48443604
1.16169 -0.45666802 0.47192705
1.14846 -0.443313 0.47786301
1.15265 -0.43268001 0.47754106
1.15848 -0.44935599 0.47103402
1.08749 -0.50137198 0.51043206
1.0869499 -0.48971 0.51244199
1.09509 -0.48228699 0.51176304
1.09955 -0.46966597 0.51219201
1.1190799 -0.47204798 0.508367
1.03514 -0.50906396 0.51134306
1.0391001 -0.50274801 0.51152205
1.05383 -0.50115502 0.51036102
1.0654 -0.49509603 0.51024306
1.07665 -0.49050301 0.51079005
1.08236 -0.48289698 0.51067901
1.0889701 -0.472532 0.51008505
1.0957199 -0.46570301 0.510418
1.10642 -0.463442 0.50868398
1.11801 -0.45774502 0.50595301
1.13261 -0.451516 0.50291902
1.14292 -0.44683498 0.50082105
1.02136 -0.50186801 0.510539
1.03499 -0.50111502 0.50847101
1.04879 -0.49669898 0.507779
1.05882 -0.49084702 0.50770301
1.07072 -0.486137 0.50681305
1.07945 -0.47772703 0.50696599
1.08614 -0.47132599 0.50485402
1.09751 -0.46589199 0.50529701
1.11042 -0.462273 0.50366503
1.11358 -0.45396599 0.50263602
1.1247001 -0.449691 0.50113702
1.13466 -0.441899 0.49925202
1.14485 -0.43698502 0.49731904
1.02538 -0.50464404 0.50429702
1.03853 -0.50057799 0.50363904
1.0490299 -0.496429 0.50263101
1.05788 -0.48980099 0.50333506
1.06986 -0.48531801 0.50133705
1.07794 -0.47762099 0.50182903
1.08208 -0.46904001 0.50151604
1.09341 -0.46648499 0.50016505
1.10681 -0.45945999 0.49866703
1.11664 -0.45247799 0.49792403
1.12744 -0.446794 0.49513704
1.1360199 -0.44081602 0.49444202
1.14088 -0.43216801 0.49375004
1.15324 -0.42632499 0.49190703
1.01184 -0.507577 0.50113803
1.0290899 -0.50982302 0.49776605
1.03413 -0.50236803 0.49957001
1.04348 -0.49837503 0.49937603
1.0539601 -0.49169898 0.49966502
1.0643901 -0.48571202 0.49918002
1.0742401 -0.47895598 0.49855903
1.08597 -0.472211 0.49772203
1.09886 -0.46539798 0.49559703
1.11335 -0.46103501 0.49234605
1.12026 -0.45488498 0.49189606
1.1303099 -0.44862702 0.48810703
1.13597 -0.43912998 0.48906302
1.14257 -0.43041301 0.48770005
1.0203199 -0.51339 0.49545705
1.03487 -0.51509798 0.493301
1.0413899 -0.51071501 0.49385402
1.12896 -0.45895001 0.48526803
1.14105 -0.45420799 0.48084801
1.13989 -0.442608 0.48200202
1.14178 -0.43280497 0.48330703
1.14906 -0.44635701 0.47562104
1.14819 -0.43548402 0.47672302
1.15624 -0.4384 0.47072402
1.09203 -0.487102 0.50893402
1.0984 -0.47798401 0.50958705
1.1089801 -0.47320202 0.508973
1.11631 -0.46635503 0.50812304
1.06818 -0.48659697 0.50722802
1.0756199 -0.48362401 0.507397
1.0851799 -0.479251 0.50816
1.09321 -0.47369802 0.50662607
1.1035501 -0.46670601 0.50679898
1.11236 -0.458792 0.50582105
1.12225 -0.45633098 0.50454605
1.12942 -0.445593 0.50253803
1.14701 -0.44537398 0.49855602
1.06576 -0.484954 0.50462502
1.07569 -0.48470101 0.50307798
1.08312 -0.47873902 0.50387305
1.0922799 -0.472812 0.50115603
1.0996701 -0.46658099 0.50243503
1.1104901 -0.45973399 0.50078607
1.12229 -0.45396599 0.50073206
1.1277601 -0.445317 0.49888307
1.13905 -0.440732 0.49694702
1.14963 -0.43222901 0.49532804
1.06472 -0.485728 0.501939
1.06823 -0.48014802 0.50170106
1.08288 -0.47759899 0.49889603
1.09532 -0.47316799 0.49589604
1.10183 -0.46638697 0.49655601
1.11533 -0.46193299 0.49289
1.1204799 -0.45168999 0.49526703
1.1336399 -0.44692901 0.49227303
1.14433 -0.43879798 0.49052101
1.15016 -0.43035802 0.49136505
1.1006199 -0.47953498 0.49168304
1.11048 -0.47298598 0.48987305
1.12447 -0.467152 0.48621505
1.1295099 -0.45643798 0.48660505
1.1383899 -0.44609299 0.48502105
1.14753 -0.43967602 0.48375404
1.15279 -0.43138802 0.48590201
1.14056 -0.46751499 0.47951204
1.1438099 -0.454712 0.47902203
1.14803 -0.442579 0.47856101
1.15446 -0.43274298 0.47910705
1.15299 -0.44801497 0.47379905
1.16397 -0.44671798 0.49110305
1.15169 -0.45311099 0.48740602
1.16026 -0.44357899 0.48786804
1.14037 -0.45972699 0.48440903
1.14876 -0.45132199 0.48405701
1.13772 -0.46160498 0.48159602
1.14332 -0.45493001 0.48054302
1.13849 -0.45761099 0.47875503
1.16386 -0.44778001 0.49248302
1.1411 -0.46200001 0.503479
1.15731 -0.44974601 0.50022006
1.1236399 -0.47014701 0.50469303
1.1412101 -0.45868802 0.50137705
1.0964 -0.48802799 0.50499606
1.10412 -0.48015597 0.50524199
1.1299701 -0.46490002 0.50096405
1.07762 -0.496921 0.50598502
1.08934 -0.48818401 0.50496304
1.11457 -0.47377899 0.50095606
1.06156 -0.50916696 0.50431705
1.06155 -0.50528699 0.50503105
1.07126 -0.49750701 0.504498
1.0541101 -0.51188302 0.503281
1.05276 -0.50903803 0.50396103
1.05784 -0.50413203 0.50268805
1.03929 -0.51863199 0.50229502
1.04784 -0.51144296 0.50165403
1.05223 -0.5072 0.49978703
1.0287499 -0.52555299 0.50021505
1.03613 -0.51789004 0.49985704
1.02406 -0.52849501 0.498795
1.03593 -0.51941103 0.49670705
1.15663 -0.45601001 0.50249898
1.15397 -0.45142299 0.50288999
1.13015 -0.46527499 0.50483507
1.14349 -0.45661998 0.50236803
1.1607 -0.44491199 0.49818105
1.10658 -0.47852799 0.50528407
1.12406 -0.46735999 0.50260198
1.14684 -0.45411301 0.49736604
1.08411 -0.492827 0.50613004
1.08854 -0.48562101 0.50631201
1.11096 -0.47460097 0.50167704
1.1360099 -0.459997 0.49578002
1.16449 -0.44273701 0.48773706
1.06674 -0.50402498 0.50615501
1.06258 -0.49992999 0.50778103
1.0824 -0.48899898 0.50446701
1.11801 -0.47079799 0.49743003
1.1520801 -0.452977 0.48816505
1.05311 -0.507451 0.50641
1.06361 -0.500135 0.50422806
1.06848 -0.49496201 0.50308001
1.03767 -0.51902199 0.50417602
1.04238 -0.51326197 0.50415999
1.05291 -0.505319 0.50232506
1.06128 -0.498844 0.50006503
1.03459 -0.52065104 0.50185603
1.0447 -0.51254398 0.50054103
1.05277 -0.50575697 0.498115
1.06057 -0.50014597 0.49589103
1.02704 -0.52441901 0.50035101
1.03668 -0.51590002 0.498757
1.05493 -0.50637603 0.49418601
1.02476 -0.52640897 0.49811605
1.0441201 -0.51480997 0.49422005
1.14064 -0.456871 0.50435603
1.1522 -0.44791698 0.50284702
1.16459 -0.439679 0.50084406
1.13043 -0.46541598 0.50306106
1.1395099 -0.45650798 0.50235003
1.15043 -0.44909 0.50026602
1.15633 -0.44262698 0.49882707
1.11438 -0.47497699 0.50283808
1.1163 -0.47007 0.50278902
1.1305699 -0.46119499 0.50042105
1.1471801 -0.45015401 0.49710602
1.16061 -0.44030702 0.49318203
1.12095 -0.48043001 0.49757102
1.11097 -0.476978 0.49999002
1.11497 -0.46951699 0.50031501
1.13237 -0.45982897 0.49650505
1.15239 -0.44610101 0.492033
1.15367 -0.436382 0.49081901
1.07402 -0.50303102 0.50239599
1.0882 -0.49698201 0.49907905
1.1092299 -0.48488399 0.49625701
1.10533 -0.47927299 0.49781007
1.10912 -0.47305501 0.49773002
1.04855 -0.51525003 0.50433403
1.06594 -0.50596404 0.501881
1.08533 -0.49923 0.49754402
1.10176 -0.49002302 0.49459305
1.1047 -0.48078498 0.49544403
1.11325 -0.47478402 0.49364701
1.03281 -0.52967399 0.50381106
1.0273401 -0.52454495 0.50573599
1.0369101 -0.517977 0.50470704
1.05512 -0.51080799 0.50142801
1.09842 -0.49565601 0.49299803
1.03071 -0.52072299 0.502675
1.02476 -0.52309901 0.49885705
1.02818 -0.52430099 0.49403104
1.0529599 -0.53315699 0.51171201
1.0801001 -0.51798302 0.50890601
1.06332 -0.52864701 0.50884002
1.0482299 -0.53734297 0.50861204
1.12459 -0.48986599 0.50805002
1.1092601 -0.49796 0.50703299
1.09478 -0.50852501 0.50680506
1.08717 -0.515881 0.50689501
1.07436 -0.52388799 0.50567704
1.0510399 -0.53587502 0.50369
1.1651599 -0.47598401 0.50739902
1.1491899 -0.48568198 0.50735801
1.12301 -0.49440497 0.50507706
1.10383 -0.504583 0.50372303
1.08605 -0.51500499 0.50310802
1.07011 -0.52557701 0.50057101
1.04852 -0.53751302 0.49770904
1.17081 -0.459793 0.50362402
1.18223 -0.46659002 0.50525403
1.17063 -0.47430098 0.50489801
1.1629699 -0.481796 0.50531501
1.1378601 -0.49088001 0.50277704
1.11447 -0.50160903 0.50056702
1.08722 -0.51350302 0.49844506
1.05662 -0.52795297 0.49522004
1.04228 -0.537655 0.49368301
1.18958 -0.45944199 0.50251603
1.18858 -0.46428299 0.50145805
1.17835 -0.47159401 0.50192302
1.16778 -0.47886503 0.50122905
1.1170501 -0.49685502 0.49778205
1.0995899 -0.50426 0.49600205
1.19698 -0.46310699 0.49813706
1.18325 -0.47086897 0.49792802
1.1683899 -0.477494 0.49653903
1.1722599 -0.47324798 0.49414203
1.0491201 -0.53380901 0.508919
1.1186299 -0.48982298 0.51084602
1.1124901 -0.49733397 0.510791
1.0949299 -0.505445 0.50943303
1.0834301 -0.51355702 0.50891805
1.07672 -0.523507 0.50884104
1.06546 -0.53179002 0.50762302
1.05014 -0.54173201 0.50596505
1.15185 -0.469643 0.50891805
1.15633 -0.47694197 0.50976008
1.13886 -0.48685002 0.50932306
1.12365 -0.49498299 0.50867003
1.1079 -0.50364602 0.50738901
1.08649 -0.51381201 0.50584799
1.0759799 -0.52404803 0.50531703
1.06225 -0.53199899 0.50280106
1.0497899 -0.54043204 0.50048906
1.17065 -0.46234798 0.50625604
1.1710601 -0.46961701 0.50775301
1.16723 -0.47611198 0.50752306
1.15387 -0.48361999 0.50657302
1.13202 -0.49161899 0.50463301
1.11674 -0.50059104 0.50332803
1.09603 -0.510396 0.50159907
1.07805 -0.522237 0.50033301
1.05845 -0.532646 0.49722403
1.04575 -0.54236901 0.49589103
1.18583 -0.46191299 0.50378901
1.1758599 -0.46993598 0.50459903
1.1679599 -0.477256 0.50326002
1.1488099 -0.48514402 0.50110704
1.1271601 -0.49341598 0.49923804
1.11014 -0.50281298 0.49850404
1.08074 -0.51358002 0.49624902
1.0606999 -0.52433604 0.49417904
1.04554 -0.534208 0.49237305
1.0333999 -0.54269904 0.49140003
1.18139 -0.46858799 0.49953902
1.16405 -0.47684801 0.49733204
1.13712 -0.48431301 0.49525604
1.11154 -0.49264899 0.49401802
1.1943001 -0.46224201 0.495754
1.18239 -0.468696 0.49412805
1.1608 -0.47446901 0.49214604
1.17627 -0.46525601 0.48835105
1.0371801 -0.53609401 0.50809902
1.1228 -0.486195 0.50996202
1.11918 -0.49381697 0.510755
1.1080201 -0.50115895 0.50994605
1.09165 -0.50932997 0.50801402
1.07219 -0.51820099 0.50644499
1.0560299 -0.52809799 0.50617903
1.0465599 -0.53593397 0.50570405
1.1540799 -0.47074199 0.50713003
1.15308 -0.477759 0.50839603
1.14556 -0.48543999 0.50860804
1.1282901 -0.49245098 0.508255
1.1161901 -0.49907002 0.50809503
1.10532 -0.50688601 0.50644404
1.0849 -0.51557201 0.50360799
1.06846 -0.52555001 0.50306803
1.05409 -0.53358501 0.50261301
1.04252 -0.54244101 0.50042701
1.1733299 -0.46041098 0.50310302
1.1721801 -0.469477 0.50451505
1.15571 -0.47745401 0.50522101
1.15017 -0.48491099 0.50531006
1.13456 -0.49008 0.50382704
1.11941 -0.49909401 0.50338805
1.10095 -0.50812101 0.50107104
1.0868499 -0.51590097 0.49918801
1.07486 -0.52396399 0.49876004
1.05501 -0.53317201 0.49729303
1.0414701 -0.54222304 0.49476203
1.18475 -0.45645198 0.50062007
1.18383 -0.462338 0.50110406
1.1779901 -0.46897498 0.50085104
1.1638401 -0.47499999 0.50051004
1.15169 -0.48377499 0.50055504
1.13153 -0.492138 0.49905002
1.11461 -0.50138301 0.49850404
1.0937001 -0.509826 0.49673003
1.0745 -0.51745701 0.49498203
1.05994 -0.52642399 0.49389702
1.04124 -0.535061 0.49166
1.18406 -0.463148 0.496557
1.17672 -0.47085202 0.49707603
1.1606899 -0.47593299 0.49561605
1.1485801 -0.482737 0.49542505
1.1098599 -0.49245498 0.49410102
1.17987 -0.46902001 0.49279204
1.1575 -0.47502801 0.49192703
1.1021 -0.49514598 0.51389903
1.09541 -0.49983299 0.51331902
1.04602 -0.52351898 0.50739002
1.1446199 -0.47326699 0.51103401
1.1428399 -0.4797 0.51127207
1.1357499 -0.48938802 0.511509
1.11766 -0.49683499 0.51169205
1.10779 -0.50233197 0.51216602
1.09909 -0.50990599 0.51042104
1.07771 -0.51630902 0.50801504
1.0652601 -0.52491903 0.50650805
1.0589 -0.53286701 0.50574607
1.16554 -0.45667303 0.50552005
1.1683999 -0.46520999 0.50710601
1.15687 -0.47454 0.508798
1.15323 -0.481475 0.50953805
1.14447 -0.48748198 0.50874901
1.13125 -0.49634898 0.50769103
1.10812 -0.50301898 0.50725305
1.09996 -0.51126099 0.50655901
1.08039 -0.51620996 0.50449604
1.06277 -0.52252203 0.50172204
1.05779 -0.53155303 0.50156707
1.0457599 -0.539087 0.49898201
1.18277 -0.460686 0.50374305
1.17558 -0.46644101 0.50462103
1.1696299 -0.47365502 0.505193
1.1508 -0.479588 0.50452101
1.141 -0.488289 0.50335807
1.12932 -0.495294 0.50217605
1.11752 -0.50286502 0.50250101
1.09745 -0.51041698 0.50154001
1.07225 -0.51626801 0.49833602
1.0596399 -0.52479398 0.49692404
1.0503601 -0.53455102 0.49574703
1.04213 -0.54180598 0.49469802
1.19023 -0.461642 0.49967805
1.1773601 -0.46763697 0.500521
1.16615 -0.47514197 0.50071108
1.1478701 -0.480416 0.49904305
1.13392 -0.48828301 0.49865204
1.12005 -0.49638802 0.49843404
1.1006 -0.50306898 0.49743202
1.0806 -0.50996202 0.49559501
1.05858 -0.51604098 0.49317101
1.0436 -0.52366197 0.49139702
1.03684 -0.53168499 0.49082306
1.03373 -0.540703 0.49072903
1.1873699 -0.46724498 0.49604905
1.1717401 -0.47380599 0.49673805
1.13413 -0.480344 0.49500504
1.17274 -0.46660802 0.49265903
1.13081 -0.47618499 0.51270604
1.12529 -0.480748 0.51322305
1.12097 -0.48732498 0.51352304
1.1199601 -0.49804002 0.51351106
1.11489 -0.50691801 0.51234102
1.16292 -0.46247002 0.50784302
1.16488 -0.47128299 0.50890905
1.14765 -0.47811002 0.50976598
1.1358 -0.485165 0.51108605
1.13028 -0.494122 0.51175404
1.12063 -0.50043899 0.51015306
1.10962 -0.50627398 0.50834405
1.1018801 -0.51232702 0.50691605
1.1813201 -0.45368499 0.50310004
1.1771801 -0.46491402 0.50551003
1.16879 -0.470635 0.50537503
1.15616 -0.47599 0.50532401
1.14586 -0.484328 0.50599903
1.13107 -0.49245799 0.506145
1.1185399 -0.500498 0.50476003
1.10664 -0.50766397 0.50390702
1.09602 -0.51344198 0.50279105
1.0941 -0.51896399 0.50291103
1.19059 -0.45980301 0.500633
1.1772599 -0.46588901 0.50162703
1.1670899 -0.47147301 0.50083101
1.15336 -0.47803101 0.50049102
1.13902 -0.48510501 0.50014704
1.1290699 -0.49356601 0.50019604
1.1130201 -0.499632 0.49988306
1.10286 -0.50954497 0.50046802
1.08892 -0.51337099 0.49942303
1.08386 -0.51711702 0.49913505
1.1805999 -0.46538898 0.49664506
1.16234 -0.471497 0.49647403
1.14327 -0.47754699 0.49593201
1.12673 -0.48313999 0.49535504
1.11516 -0.48872298 0.49519202
1.1662101 -0.46398103 0.49293101
