# .PCD v0.7 - Point Cloud Data file format
VERSION 0.7
FIELDS x y z
SIZE 4 4 4
TYPE F F F
COUNT 1 1 1
WIDTH 830
HEIGHT 1
VIEWPOINT 0 0 0 1 0 0 0
POINTS 830
DATA ascii
1.27678 -0.421523 1.8088001
1.27098 -0.419716 1.7999301
1.2808 -0.41736498 1.8060601
1.26686 -0.37583697 1.7271649
1.25484 -0.38265401 1.7149789
1.26668 -0.37820098 1.723199
1.2760199 -0.371995 1.728609
1.29144 -0.35195801 1.7347171
1.26736 -0.392198 1.720475
1.26518 -0.38531798 1.7186279
1.2641799 -0.37771302 1.7166711
1.2700499 -0.37091598 1.718578
1.27563 -0.35960099 1.72047
1.28711 -0.349655 1.7267112
1.27976 -0.39585 1.724278
1.2691001 -0.38800597 1.71619
1.27016 -0.37953898 1.714131
1.26984 -0.37051898 1.7116009
1.2758 -0.36341 1.714003
1.28268 -0.35382 1.717051
1.27493 -0.387095 1.7131109
1.2794 -0.38128701 1.712944
1.27926 -0.37252 1.710853
1.2753199 -0.41845798 1.8048199
1.2806799 -0.41375703 1.8060601
1.26943 -0.41433603 1.79285
1.28159 -0.41338599 1.80128
1.2700499 -0.413964 1.784279
1.27959 -0.40941101 1.7891201
1.27388 -0.40448898 1.774582
1.29522 -0.405029 1.7873001
1.2945199 -0.401775 1.778479
1.3029 -0.400341 1.783537
1.27654 -0.39439499 1.7558841
1.2926401 -0.394427 1.767797
1.27117 -0.39213699 1.7422329
1.2823 -0.38687098 1.748125
1.29377 -0.35277402 1.740363
1.2629399 -0.39045298 1.7280011
1.2733999 -0.381984 1.7308869
1.2872599 -0.37413201 1.737399
1.29181 -0.361321 1.73703
1.28476 -0.34878898 1.729346
1.2696199 -0.388284 1.722506
1.27452 -0.38040501 1.723294
1.27573 -0.37042302 1.720889
1.28482 -0.36001202 1.7259469
1.26937 -0.39648998 1.719823
1.2691799 -0.38664502 1.7129331
1.27292 -0.378297 1.7139411
1.27657 -0.36884201 1.712746
1.28263 -0.362398 1.7169471
1.27667 -0.389669 1.7125281
1.28556 -0.363089 1.710245
1.2805001 -0.41437998 1.7975501
1.27728 -0.41015899 1.78645
1.2932601 -0.40910399 1.79498
1.29582 -0.401023 1.7909
1.28101 -0.408077 1.7785681
1.2913901 -0.40389401 1.784418
1.30865 -0.40534198 1.79399
1.26924 -0.40324003 1.761916
1.28982 -0.402024 1.773654
1.2964901 -0.39614499 1.775527
1.27482 -0.39417702 1.753116
1.2959 -0.39392102 1.7654501
1.30808 -0.392355 1.7708271
1.26939 -0.39183301 1.7397711
1.28504 -0.38721502 1.7481689
1.30042 -0.386641 1.757928
1.30479 -0.38280898 1.7582589
1.2879699 -0.35038897 1.730719
1.2619001 -0.38919699 1.72498
1.2733999 -0.38162202 1.730021
1.29017 -0.37721199 1.7395591
1.2865199 -0.35845101 1.7281841
1.2847301 -0.34796101 1.724097
1.25895 -0.386161 1.714726
1.26828 -0.38100702 1.718006
1.27856 -0.37206 1.7206759
1.2891901 -0.365159 1.7264301
1.26658 -0.38765299 1.7123981
1.2727101 -0.378088 1.710988
1.2891999 -0.3644 1.7175839
1.2772499 -0.41435799 1.8005
1.27713 -0.41165 1.7922299
1.28961 -0.40991902 1.7963501
1.27592 -0.41081002 1.784201
1.28721 -0.40572798 1.7857001
1.2977099 -0.40490898 1.7910299
1.27845 -0.40863299 1.7759241
1.2903999 -0.403047 1.777222
1.2940401 -0.39921901 1.7784101
1.2839 -0.398148 1.7643921
1.29403 -0.39707002 1.770133
1.30031 -0.39534801 1.772444
1.26442 -0.38858002 1.740556
1.28342 -0.38953602 1.7530121
1.2743599 -0.376239 1.737568
1.25664 -0.383825 1.7253771
1.2685 -0.37953299 1.7321179
1.26863 -0.37272701 1.7261291
1.2578701 -0.385122 1.716808
1.2607499 -0.37526798 1.7181531
1.2559301 -0.36559701 1.7107641
1.26258 -0.38543999 1.7113431
1.2625 -0.378005 1.7116791
1.27054 -0.39065301 1.7122689
1.2733899 -0.41554502 1.8054601
1.26782 -0.41027999 1.79496
1.27757 -0.40876901 1.7991699
1.27134 -0.40900397 1.7875202
1.27827 -0.40581298 1.79017
1.2677799 -0.40835097 1.77888
1.27834 -0.40375 1.779983
1.2823199 -0.39943698 1.7807101
1.2688401 -0.40515599 1.76929
1.2816401 -0.404064 1.7743139
1.2824899 -0.39820701 1.772724
1.2776101 -0.40173399 1.766114
1.2791101 -0.39506999 1.764868
1.28821 -0.42009997 1.81725
1.28319 -0.42811698 1.82278
1.26182 -0.39059502 1.725666
1.26957 -0.38166198 1.7139959
1.27897 -0.3766 1.730979
1.2885801 -0.37301299 1.717798
1.2643399 -0.39259398 1.739365
1.26934 -0.38831502 1.726613
1.26571 -0.39012599 1.720948
1.27011 -0.38220298 1.7116171
1.27187 -0.397825 1.80251
1.26343 -0.39534801 1.79971
1.2729599 -0.392609 1.79952
1.2594301 -0.39924198 1.7965399
1.2653199 -0.39342999 1.7943
1.2695099 -0.390432 1.7954299
1.26254 -0.39743802 1.7918601
1.26519 -0.39175701 1.78996
1.2714 -0.38736901 1.78863
1.27141 -0.39043999 1.7849679
1.27616 -0.38555402 1.7835101
1.2879201 -0.38154301 1.7810919
1.30367 -0.37917802 1.7788471
1.2908299 -0.39268002 1.778114
1.2842 -0.38533297 1.778583
1.2929201 -0.380896 1.7771029
1.29702 -0.37542099 1.7753891
1.2966901 -0.38681301 1.773132
1.2978101 -0.38101602 1.772837
1.3076301 -0.37570399 1.7698779
1.3128901 -0.36982799 1.768141
1.3111501 -0.380725 1.76597
1.3150001 -0.37435201 1.764809
1.31793 -0.36763901 1.762843
1.32716 -0.36617801 1.762944
1.32544 -0.38126799 1.758853
1.31972 -0.37365502 1.759201
1.3272099 -0.36785099 1.757162
1.32401 -0.36279702 1.758721
1.3286901 -0.36787799 1.7526751
1.22069 -0.37149101 1.7429299
1.22286 -0.37078801 1.7381821
1.23816 -0.36537701 1.7354361
1.25415 -0.36103803 1.7322141
1.22381 -0.37144798 1.733815
1.23402 -0.365183 1.7321969
1.24334 -0.35784301 1.730054
1.2568001 -0.35584098 1.72857
1.22973 -0.369728 1.72895
1.23886 -0.361581 1.7266991
1.24647 -0.35660598 1.7256562
1.24935 -0.351035 1.7247281
1.2418 -0.36088002 1.721385
1.24541 -0.35545799 1.7216572
1.2529399 -0.349365 1.7193521
1.2585399 -0.34019798 1.719033
1.2528501 -0.360531 1.714679
1.25078 -0.354211 1.7155141
1.25543 -0.34662899 1.715041
1.25878 -0.33845901 1.7141101
1.27899 -0.39935398 1.8007699
1.26572 -0.39684102 1.7992401
1.27953 -0.394752 1.79785
1.26924 -0.397122 1.7941201
1.27727 -0.39161202 1.7928602
1.26463 -0.40237498 1.7914701
1.27549 -0.395165 1.7888401
1.28348 -0.38937598 1.78697
1.29558 -0.38724801 1.7855201
1.2805001 -0.39609599 1.7848041
1.28425 -0.39006099 1.7836289
1.29693 -0.38569999 1.780882
1.30409 -0.37991002 1.7792461
1.2961099 -0.39094001 1.778114
1.2987 -0.38366002 1.7760949
1.3101801 -0.37969002 1.7740399
1.31739 -0.374717 1.773122
1.3045399 -0.38257301 1.7702401
1.31339 -0.377711 1.7684109
1.3147701 -0.37145302 1.7687701
1.32724 -0.371007 1.767904
1.3202901 -0.38665798 1.7625461
1.3161999 -0.378896 1.763425
1.31838 -0.37254903 1.764003
1.3235699 -0.36799702 1.7627859
1.32564 -0.38833001 1.7585721
1.32938 -0.38269198 1.7579502
1.32222 -0.37208802 1.7586081
1.2281801 -0.37397802 1.744362
1.2302999 -0.371757 1.739367
1.23455 -0.371804 1.73418
1.24368 -0.36459202 1.731575
1.25621 -0.358316 1.7284191
1.2405601 -0.371066 1.728555
1.24658 -0.36400798 1.727525
1.25211 -0.35668001 1.725785
1.26526 -0.35224998 1.72403
1.24494 -0.37276101 1.7240201
1.24702 -0.36337003 1.7235831
1.2561001 -0.35662702 1.72
1.25968 -0.348019 1.7206579
1.2690799 -0.34224498 1.720052
1.25028 -0.36212298 1.718083
1.25863 -0.35679299 1.7147549
1.2595401 -0.347312 1.7149169
1.26736 -0.33963403 1.716175
1.261 -0.36278 1.7116901
1.26021 -0.35408002 1.710361
1.26627 -0.33822 1.710903
1.2667199 -0.39791402 1.79839
1.2825799 -0.39442798 1.7952701
1.25835 -0.39412999 1.79496
1.27801 -0.39208099 1.79216
1.2914101 -0.38990897 1.7907901
1.26783 -0.40374801 1.78886
1.26868 -0.39561403 1.78862
1.28089 -0.39006999 1.7865
1.28391 -0.38377398 1.78702
1.2959 -0.38436499 1.78667
1.2810299 -0.39983898 1.782951
1.2813001 -0.390432 1.781781
1.28863 -0.38458002 1.7811199
1.29261 -0.38060799 1.782023
1.29418 -0.39486802 1.776369
1.2909199 -0.38435501 1.7754791
1.29668 -0.37894699 1.7747009
1.30177 -0.38660899 1.7702789
1.30133 -0.378896 1.7694659
1.31291 -0.372756 1.765812
1.3267701 -0.36822602 1.762411
1.3151 -0.38041499 1.763172
1.32004 -0.372677 1.760456
1.3206199 -0.36543801 1.760289
1.3208799 -0.37168899 1.7565399
1.3289101 -0.36670601 1.75457
1.2369 -0.36960801 1.7400821
1.25878 -0.37091401 1.736716
1.23752 -0.37014499 1.736001
1.2496099 -0.36595902 1.734296
1.26436 -0.36678201 1.7325242
1.23243 -0.368521 1.7318
1.24334 -0.36368501 1.730186
1.25255 -0.35752299 1.728201
1.2365299 -0.366566 1.7259451
1.24705 -0.360948 1.724496
1.25196 -0.35262001 1.722028
1.2602301 -0.34601799 1.721388
1.26943 -0.33561 1.7204441
1.2450399 -0.36841401 1.719897
1.24789 -0.35947898 1.7187381
1.25015 -0.34944001 1.717211
1.2532001 -0.34302601 1.718223
1.2579 -0.334319 1.7177529
1.2503901 -0.35938001 1.7136071
1.2535399 -0.35144299 1.7121741
1.25534 -0.34103099 1.712888
1.2614399 -0.33223301 1.713141
1.26559 -0.40348703 1.80382
1.25664 -0.39585498 1.7998401
1.2701499 -0.39325297 1.7977999
1.2522 -0.39288798 1.7950901
1.26704 -0.389752 1.79293
1.2798101 -0.38549399 1.79102
1.29628 -0.38624802 1.7888299
1.26019 -0.393657 1.7889199
1.26765 -0.38787898 1.7876902
1.27937 -0.38536203 1.7866901
1.29002 -0.380573 1.7844901
1.27132 -0.39827001 1.783191
1.27659 -0.39050597 1.7821441
1.2852499 -0.38432702 1.7810901
1.29491 -0.379969 1.7784719
1.3008599 -0.37355399 1.7767999
1.2893 -0.39686 1.7763971
1.2889301 -0.384599 1.7753421
1.3013901 -0.37865201 1.77259
1.3098301 -0.37339801 1.771018
1.31786 -0.373211 1.7709011
1.2994701 -0.39219201 1.7709661
1.30019 -0.37905601 1.768537
1.3068601 -0.37074798 1.766493
1.3103 -0.36384103 1.765903
1.31215 -0.37103802 1.760359
1.31531 -0.36510301 1.7605499
1.32898 -0.36078998 1.757067
1.32619 -0.37351599 1.7533301
1.3207 -0.364436 1.7544769
1.2463 -0.37056199 1.738606
1.21694 -0.36987498 1.7394171
1.2318699 -0.36523801 1.738005
1.24404 -0.36157501 1.735567
1.21961 -0.36753502 1.733018
1.2268 -0.361866 1.7334751
1.2406 -0.358807 1.73211
1.25244 -0.355257 1.72975
1.22505 -0.37153703 1.7276379
1.22919 -0.36275902 1.7274481
1.23429 -0.355349 1.728027
1.2472399 -0.35039002 1.7254199
1.26389 -0.34709901 1.723508
1.2738099 -0.33874297 1.7225641
1.23455 -0.36526501 1.721253
1.23932 -0.35551301 1.721352
1.24735 -0.34752801 1.719776
1.25551 -0.34290799 1.720287
1.26465 -0.33459201 1.71957
1.24757 -0.371609 1.715451
1.24177 -0.35721901 1.715548
1.24456 -0.34784499 1.715712
1.25509 -0.34129399 1.714812
1.26079 -0.330057 1.7136681
1.25278 -0.363464 1.7108929
1.25167 -0.34872699 1.710065
1.27088 -0.397571 1.79628
1.29075 -0.39656299 1.7935101
1.26489 -0.403373 1.7933301
1.27631 -0.397975 1.7900901
1.28702 -0.39283198 1.7900701
1.3003999 -0.39190799 1.7886599
1.28074 -0.41826302 1.783437
1.2721 -0.40577701 1.7860901
1.27937 -0.398121 1.7839911
1.2858599 -0.39053601 1.784415
1.2968899 -0.38654801 1.784093
1.3091201 -0.38785899 1.7832891
1.2842101 -0.41335601 1.7798351
1.2851601 -0.40390998 1.7790891
1.28782 -0.39175799 1.778176
1.29855 -0.38616502 1.7777411
1.30515 -0.380494 1.77705
1.29461 -0.41130102 1.7750241
1.29837 -0.39944899 1.7725121
1.30084 -0.38647202 1.7712289
1.3079801 -0.38046902 1.771116
1.32145 -0.376571 1.767359
1.3127201 -0.39145002 1.76432
1.31512 -0.380932 1.7638571
1.32636 -0.37415999 1.7609
1.32549 -0.397533 1.7586341
1.32215 -0.38444301 1.7579449
1.32345 -0.37369597 1.757049
1.2355 -0.37168097 1.737945
1.25139 -0.36777303 1.7352121
1.23647 -0.36916801 1.732392
1.24457 -0.36228803 1.7324411
1.26009 -0.36176699 1.7302541
1.24108 -0.369636 1.7264081
1.2441601 -0.36211202 1.727778
1.25526 -0.35645598 1.725943
1.2698101 -0.35450101 1.724421
1.27588 -0.34184101 1.723079
1.24511 -0.373171 1.72084
1.25001 -0.36286899 1.7210901
1.25188 -0.35088199 1.7208611
1.2645401 -0.346477 1.7196591
1.25137 -0.37584302 1.7151849
1.2509201 -0.36351502 1.714505
1.25976 -0.35492 1.714288
1.26197 -0.343458 1.7141321
1.27184 -0.34121299 1.728791
1.24567 -0.37388599 1.7289401
1.26297 -0.35775903 1.7236999
1.2682 -0.361357 1.7184421
1.27918 -0.352323 1.7121789
1.2776 -0.406535 1.7557502
1.26966 -0.40476799 1.750567
1.2722 -0.40143901 1.743713
1.24769 -0.35946998 1.729738
1.27226 -0.33797902 1.7261239
1.2460999 -0.368294 1.726338
1.2498699 -0.37672198 1.724858
1.27676 -0.34543598 1.7190161
1.25947 -0.36803001 1.7205901
1.27566 -0.35332099 1.713827
1.27213 -0.405651 1.743495
1.27806 -0.40250701 1.7386971
1.2762101 -0.40237498 1.7347009
1.2627 -0.35881302 1.7244811
1.2597699 -0.369201 1.7259101
1.2742 -0.40229902 1.731268
1.2679499 -0.36131802 1.7215701
1.2540799 -0.376349 1.720876
1.2703 -0.36003 1.7165741
1.2524199 -0.37843499 1.712823
1.26917 -0.40250802 1.756243
1.2726101 -0.396456 1.7503079
1.27189 -0.39583698 1.7448931
1.26169 -0.38771901 1.7399899
1.28168 -0.39052701 1.7388391
1.2764801 -0.40101799 1.740446
1.25518 -0.379509 1.734296
1.27368 -0.38206902 1.733855
1.28877 -0.38720101 1.734174
1.2745401 -0.40386701 1.7354901
1.25218 -0.37265801 1.728999
1.26739 -0.37396598 1.728678
1.2810899 -0.377626 1.727411
1.2811 -0.39798501 1.7326199
1.2707499 -0.36259103 1.7232339
1.27736 -0.37009603 1.7233951
1.28698 -0.37306899 1.7219031
1.2831501 -0.36502302 1.7179281
1.2966599 -0.369445 1.718343
1.2883999 -0.36291698 1.7129711
1.28179 -0.35412499 1.7198181
1.27238 -0.36198601 1.7169549
1.25898 -0.378921 1.7130982
1.27786 -0.357326 1.712052
1.26529 -0.36270002 1.720719
1.25665 -0.38091302 1.717063
1.25586 -0.37497199 1.717877
1.26858 -0.35969299 1.7157201
1.27131 -0.37408403 1.7110131
1.25747 -0.37545601 1.7129021
1.26634 -0.364124 1.711391
1.25834 -0.37512299 1.7284689
1.2563701 -0.37994 1.7261081
1.26634 -0.36925399 1.723134
1.2810899 -0.35525298 1.72184
1.26367 -0.37496299 1.7204682
1.27037 -0.36727199 1.7188621
1.27571 -0.35799599 1.7180802
1.27579 -0.369003 1.7133831
1.2709 -0.364871 1.7140579
1.27934 -0.35258901 1.7130181
1.26134 -0.37598401 1.7320191
1.25816 -0.37712699 1.7296631
1.26824 -0.371371 1.7288461
1.25538 -0.37299901 1.72603
1.2618901 -0.36864799 1.719834
1.2768199 -0.35636699 1.7190579
1.2587 -0.37506402 1.7168341
1.26235 -0.367742 1.715661
1.27361 -0.35652801 1.714156
1.2661 -0.36593699 1.711154
1.27707 -0.42707902 1.8035699
1.28482 -0.434506 1.80451
1.2950301 -0.4278 1.79887
1.28456 -0.43598402 1.8007699
1.3030901 -0.421505 1.7935001
1.3038001 -0.42559898 1.7929502
1.2921699 -0.432735 1.79522
1.31135 -0.41985402 1.7883099
1.30838 -0.424642 1.7886599
1.29584 -0.431407 1.7898101
1.3266799 -0.40931198 1.77942
1.32493 -0.416614 1.782334
1.3083999 -0.423507 1.784673
1.34269 -0.407781 1.774698
1.32678 -0.41278303 1.7776641
1.3421401 -0.40120998 1.769756
1.3477901 -0.40539798 1.7702889
1.27538 -0.408382 1.742928
1.27617 -0.404717 1.7385049
1.276 -0.39698201 1.7337719
1.2840199 -0.40263402 1.7338431
1.2747101 -0.40948299 1.735853
1.2959501 -0.39487597 1.7284421
1.2880299 -0.40125 1.72967
1.27653 -0.40927801 1.7314529
1.2971699 -0.39903301 1.7247729
1.2950599 -0.39443502 1.7122149
1.28713 -0.43048301 1.80142
1.2834599 -0.43749002 1.80379
1.29908 -0.42246497 1.7954601
1.29899 -0.428792 1.7961301
1.28179 -0.4355 1.7996601
1.3108299 -0.42323101 1.7917501
1.3029201 -0.426572 1.7913201
1.28778 -0.434104 1.79328
1.32418 -0.41447103 1.783293
1.3150799 -0.420241 1.7857201
1.3024001 -0.42654499 1.7872901
1.2805001 -0.43182999 1.78901
1.3260001 -0.40528899 1.7772299
1.33216 -0.41335201 1.7789921
1.31323 -0.418464 1.7816769
1.29313 -0.42490602 1.784549
1.3405499 -0.40679002 1.7730011
1.33857 -0.411394 1.773826
1.34683 -0.406196 1.768401
1.3473899 -0.40918899 1.7672681
1.34551 -0.40644401 1.762362
1.2695301 -0.39575803 1.734472
1.27205 -0.40372699 1.736091
1.2814599 -0.3962 1.73054
1.27624 -0.40371701 1.732272
1.27591 -0.41031602 1.7319479
1.29274 -0.378521 1.7227609
1.29387 -0.38706502 1.7240231
1.28746 -0.394256 1.725944
1.28418 -0.40203997 1.7271451
1.2901801 -0.39361998 1.7214929
1.2877499 -0.40010601 1.721194
1.2956599 -0.39193001 1.715493
1.28649 -0.39616901 1.7149631
1.27441 -0.45243901 1.8136001
1.29106 -0.43429902 1.80397
1.28039 -0.44436401 1.8076901
1.2750701 -0.45179698 1.8082101
1.2959801 -0.41857499 1.79844
1.30597 -0.428215 1.7989
1.29813 -0.43351501 1.8000101
1.2881199 -0.44041699 1.8016299
1.27794 -0.44896099 1.8027
1.31248 -0.42249599 1.7939999
1.3025301 -0.42729402 1.7953601
1.29716 -0.43492198 1.7966901
1.2827801 -0.44177699 1.7968601
1.31578 -0.418695 1.78751
1.31367 -0.425955 1.7894
1.3007699 -0.43173599 1.7912601
1.32583 -0.404291 1.7789471
1.3280001 -0.41189 1.7804902
1.3196001 -0.41909501 1.7837801
1.31107 -0.42445001 1.78543
1.29345 -0.42708001 1.7871499
1.33555 -0.40531501 1.774834
1.3364799 -0.41103402 1.7754021
1.32023 -0.41534099 1.7786731
1.3472501 -0.40583402 1.7692652
1.34132 -0.41135201 1.7716889
1.34746 -0.40881401 1.7652
1.2675099 -0.39870203 1.736691
1.27413 -0.40961897 1.738461
1.2797 -0.39084399 1.7303259
1.28474 -0.400913 1.7324082
1.2796 -0.40842098 1.732771
1.29456 -0.36743098 1.722962
1.2891901 -0.37530801 1.723694
1.2966299 -0.39273 1.726005
1.2844299 -0.40013999 1.7280921
1.28479 -0.40768299 1.7277482
1.2983299 -0.391498 1.719969
1.2920899 -0.40003601 1.723078
1.27709 -0.40386599 1.7235091
1.29573 -0.39740199 1.716639
1.28942 -0.39401799 1.7112671
1.29424 -0.42716202 1.7998101
1.28664 -0.43620998 1.80334
1.27679 -0.442716 1.8057699
1.27472 -0.44988099 1.8047299
1.3074899 -0.42350101 1.79494
1.30496 -0.42817199 1.79514
1.2926401 -0.43316898 1.7979001
1.27924 -0.44033298 1.7994101
1.32853 -0.41594002 1.7860401
1.3176301 -0.42248002 1.7889999
1.30933 -0.42838299 1.7907201
1.2927699 -0.43222699 1.7926902
1.33776 -0.41229302 1.7818052
1.33095 -0.41620299 1.7823191
1.3169999 -0.41999 1.784273
1.30735 -0.42576 1.7860401
1.2864599 -0.428666 1.78765
1.34059 -0.409311 1.7763721
1.33321 -0.41349202 1.776727
1.31946 -0.41904998 1.7795089
1.29845 -0.42088401 1.7816221
1.34421 -0.40779302 1.7710201
1.33162 -0.413109 1.7733041
1.30905 -0.41548902 1.7764211
1.3470501 -0.406443 1.7665131
1.27573 -0.40013698 1.7364942
1.2778801 -0.410353 1.7386431
1.28502 -0.39204201 1.730074
1.28519 -0.400639 1.7316149
1.27494 -0.40738201 1.7329861
1.29419 -0.36175999 1.722821
1.2909399 -0.36566699 1.7227859
1.2936901 -0.392663 1.7257651
1.2886701 -0.39785099 1.726095
1.2790101 -0.40435398 1.727273
1.29519 -0.391711 1.721091
1.28828 -0.39787799 1.72138
1.27626 -0.40491599 1.7232261
1.2884599 -0.395841 1.716526
1.2909801 -0.42623699 1.8018601
1.28468 -0.43666801 1.8054199
1.27818 -0.44563702 1.8079801
1.2767299 -0.45436001 1.80667
1.2985001 -0.40855098 1.7947
1.3024899 -0.41975603 1.7959399
1.29403 -0.42871299 1.7987201
1.29176 -0.43787301 1.80021
1.28145 -0.44422299 1.8015399
1.27426 -0.45615399 1.8010299
1.31873 -0.40562099 1.7879901
1.3159599 -0.41417703 1.78973
1.30813 -0.419828 1.7918401
1.3018899 -0.42680401 1.79301
1.29166 -0.43579701 1.79524
1.28282 -0.44643101 1.7962701
1.32576 -0.39757001 1.7809621
1.3284301 -0.407803 1.7829862
1.32541 -0.41548002 1.7835801
1.3111701 -0.42038602 1.7873801
1.30159 -0.42761698 1.78901
1.2836099 -0.433063 1.79179
1.3392199 -0.40308201 1.776072
1.33357 -0.409549 1.778163
1.33243 -0.41639599 1.7776229
1.31815 -0.420066 1.780995
1.3381701 -0.40857899 1.7717071
1.32704 -0.41197801 1.772272
1.3367101 -0.40748298 1.765875
1.3188499 -0.405285 1.766608
1.32709 -0.401995 1.7623351
1.2582099 -0.39037701 1.741035
1.2743599 -0.39799199 1.736879
1.2851 -0.390681 1.7291861
1.28119 -0.39888501 1.7314141
1.273 -0.40416402 1.7336169
1.2939301 -0.39164698 1.7239691
1.2853501 -0.397616 1.7263172
1.2782199 -0.40525901 1.7277471
1.28925 -0.397701 1.720551
1.27847 -0.404158 1.722137
1.28913 -0.396346 1.71492
1.2625901 -0.38871399 1.724975
1.26237 -0.38658199 1.7168481
1.27071 -0.37997898 1.7241839
1.26861 -0.38279399 1.7134562
1.2711799 -0.378629 1.717185
1.27692 -0.37899899 1.7107339
1.27632 -0.37606999 1.7109219
1.29958 -0.377359 1.7100549
1.25116 -0.381405 1.7427341
1.25529 -0.38474098 1.741909
1.25942 -0.37904701 1.743206
1.25831 -0.38474 1.7365109
1.2575001 -0.37873501 1.733689
1.2674099 -0.39761901 1.732308
1.26239 -0.39119801 1.731703
1.2638201 -0.38236099 1.7309641
1.2695301 -0.376156 1.7357901
1.26695 -0.38931802 1.725777
1.26554 -0.381982 1.724349
1.27013 -0.375815 1.7280141
1.27165 -0.38841802 1.7214441
1.2724 -0.37985298 1.7211231
1.27187 -0.37368402 1.7206742
1.28128 -0.38267201 1.7186501
1.2766 -0.37740397 1.715064
1.2749 -0.37269199 1.7157229
1.28345 -0.36661702 1.724949
1.28794 -0.37678501 1.716576
1.28205 -0.372154 1.713992
1.29698 -0.375754 1.717963
1.28478 -0.37265202 1.710453
1.29119 -0.375543 1.710451
1.2894901 -0.36558497 1.7347492
1.2796199 -0.376194 1.74132
1.2704101 -0.384848 1.748281
1.26467 -0.39031699 1.752895
1.2897201 -0.37318403 1.7281091
1.27596 -0.383618 1.738068
1.26958 -0.392396 1.743071
1.2959199 -0.36552799 1.7155581
1.28233 -0.376239 1.726513
1.27565 -0.38448501 1.731266
1.2669899 -0.39278302 1.73678
1.28527 -0.37309301 1.7166991
1.2704901 -0.38361499 1.7283221
1.2841201 -0.36558399 1.7127591
1.27192 -0.376214 1.7223489
1.33983 -0.38548303 1.7795911
1.32442 -0.39348498 1.78983
1.3273101 -0.39319599 1.7823941
1.3082601 -0.40028 1.79616
1.2867301 -0.40707001 1.81146
1.3364799 -0.38420898 1.7683921
1.3275701 -0.39186502 1.7753431
1.3079 -0.3987 1.7910901
1.29204 -0.40660098 1.80211
1.26929 -0.41569901 1.8193401
1.3252001 -0.385838 1.773358
1.3084301 -0.39441299 1.784855
1.2931399 -0.400895 1.7961
1.2753501 -0.40830699 1.8070199
1.2776 -0.400653 1.8011099
1.26299 -0.40683401 1.80751
1.2886599 -0.367641 1.7311471
1.2813699 -0.37721801 1.734998
1.27212 -0.38675499 1.740535
1.29425 -0.36606097 1.721822
1.2873801 -0.374733 1.726531
1.27872 -0.38324502 1.730994
1.26386 -0.39327598 1.7406869
1.28527 -0.373927 1.7206491
1.27139 -0.38523799 1.727941
1.2886599 -0.364793 1.710917
1.27649 -0.37467998 1.7195889
1.26184 -0.38576198 1.7270621
1.27966 -0.363787 1.7132801
1.33486 -0.38249198 1.7839481
1.3271401 -0.391251 1.7869101
1.30933 -0.39859402 1.79934
1.29505 -0.40409601 1.8093201
1.33722 -0.383459 1.7769439
1.3275701 -0.38960099 1.7815491
1.31595 -0.39677101 1.7894
1.29793 -0.40342399 1.80194
1.2832401 -0.40946499 1.81265
1.33415 -0.38227999 1.7723989
1.3202699 -0.38991797 1.7812409
1.30696 -0.39738801 1.7897601
1.29196 -0.40279597 1.7994901
1.28174 -0.40937999 1.80708
1.3355401 -0.37583101 1.7676541
1.32373 -0.38302898 1.7753509
1.30907 -0.39039901 1.7848651
1.29445 -0.39793098 1.79285
1.28161 -0.40339199 1.8012701
1.26658 -0.40990299 1.80985
1.25732 -0.39335498 1.81241
1.2700499 -0.401292 1.8028301
1.27898 -0.37047699 1.7427471
1.27259 -0.37910599 1.74637
1.2645099 -0.386397 1.7510339
1.2925999 -0.364737 1.72807
1.28802 -0.37165299 1.7313721
1.27953 -0.37806401 1.7362289
1.26966 -0.38661498 1.7424011
1.2929699 -0.36020303 1.7221
1.2856799 -0.37033299 1.7270269
1.27817 -0.377415 1.7309201
1.27306 -0.38473701 1.7330741
1.26289 -0.39360699 1.738688
1.2861301 -0.366 1.718595
1.27494 -0.37598702 1.7263839
1.26429 -0.38625199 1.73141
1.27833 -0.36662999 1.718158
1.26213 -0.376645 1.7295941
1.28084 -0.35607898 1.711844
1.30861 -0.38961101 1.8029901
1.2981501 -0.35854301 1.8158802
1.29377 -0.36238399 1.8183999
1.3046899 -0.37723598 1.80533
1.30936 -0.39049599 1.7981201
1.30198 -0.39854899 1.8011801
1.28913 -0.40740398 1.8078799
1.27863 -0.41410401 1.81373
1.29554 -0.36470902 1.81139
1.2994599 -0.37532797 1.80401
1.30607 -0.386823 1.7965399
1.30316 -0.39706901 1.79448
1.29265 -0.40578997 1.8002899
1.28186 -0.41442099 1.80597
1.2919999 -0.36353698 1.80968
1.2908599 -0.37118801 1.80685
1.30136 -0.38699201 1.79319
1.29891 -0.39626098 1.79119
1.2930299 -0.40376499 1.79327
1.28193 -0.41201499 1.79908
1.2939501 -0.38328099 1.79539
1.29246 -0.39489201 1.7919101
1.2825999 -0.40681303 1.79343
1.27019 -0.41280702 1.80007
1.29225 -0.36067 1.730587
1.2840101 -0.37054297 1.73427
1.27942 -0.37986198 1.7352279
1.27016 -0.38865003 1.739104
1.29085 -0.36956403 1.7243451
1.2779 -0.37866199 1.731127
1.26747 -0.38782397 1.735424
1.2829601 -0.37061402 1.7225602
1.27562 -0.37727299 1.7262961
1.26957 -0.38504502 1.72832
1.285 -0.36668801 1.7146679
1.2740899 -0.37569401 1.7216589
1.26055 -0.38740298 1.7273841
1.27891 -0.365922 1.7149811
1.33964 -0.38307098 1.7796719
1.33392 -0.38680801 1.7826331
1.2769001 -0.40375099 1.8182101
1.26889 -0.41261399 1.8222001
1.34095 -0.38192099 1.773934
1.33081 -0.38655499 1.779763
1.2905 -0.38924 1.80567
1.2753199 -0.39269698 1.8176001
1.27889 -0.406068 1.81047
1.27466 -0.41704601 1.81085
1.32798 -0.38515499 1.7759219
1.3064799 -0.388327 1.79017
1.28223 -0.39369202 1.8060901
1.27402 -0.404311 1.8066001
1.27211 -0.41464001 1.8056101
1.33313 -0.38039798 1.768889
1.3175399 -0.385203 1.778766
1.3004899 -0.387858 1.7907801
1.26385 -0.40009603 1.8089801
1.2684 -0.41373599 1.7997601
1.29585 -0.36267501 1.729328
1.28628 -0.37263599 1.7337151
1.27601 -0.37927601 1.7393421
1.27039 -0.38872501 1.7398721
1.2940401 -0.37330899 1.722445
1.2801 -0.38132599 1.7308921
1.27417 -0.389938 1.732302
1.26583 -0.396855 1.7355441
1.29474 -0.37382197 1.7149301
1.2817799 -0.377626 1.7226831
1.2712799 -0.38764301 1.7276261
1.28959 -0.370563 1.7119571
1.27499 -0.37802699 1.719525
1.26463 -0.38885602 1.723295
1.27823 -0.36876097 1.714431
1.26414 -0.374174 1.7229021
