# .PCD v0.7 - Point Cloud Data file format
VERSION 0.7
FIELDS x y z
SIZE 4 4 4
TYPE F F F
COUNT 1 1 1
WIDTH 485
HEIGHT 1
VIEWPOINT 0 0 0 1 0 0 0
POINTS 485
DATA ascii
1.0559 -0.416098 1.3658459
1.0700001 -0.41882899 1.372557
1.06275 -0.41846299 1.3663141
1.07481 -0.42059201 1.371261
1.07515 -0.42341301 1.367437
1.08657 -0.42532399 1.372811
1.08205 -0.42595002 1.36532
1.09396 -0.428047 1.3708071
1.1005501 -0.43330899 1.3693221
1.11304 -0.434457 1.3730459
1.11889 -0.43861499 1.370733
1.1306601 -0.43778899 1.3750321
1.12005 -0.439538 1.364249
1.11734 -0.439805 1.356658
1.12198 -0.438023 1.360531
1.10844 -0.43677601 1.345764
1.1166201 -0.437186 1.351561
1.1097 -0.436764 1.3407561
1.12067 -0.43765801 1.3458301
1.11838 -0.43923 1.338781
1.12036 -0.43993402 1.334061
1.12875 -0.442799 1.3328559
1.02951 -0.42768699 1.4219391
1.0252401 -0.42477599 1.415192
1.02731 -0.42313802 1.4153329
1.02096 -0.421886 1.406826
1.01358 -0.413472 1.398515
1.01167 -0.415115 1.393229
1.00078 -0.40521801 1.3847799
1.00264 -0.402913 1.385283
1.01069 -0.41394502 1.3857111
1.0035 -0.40662202 1.3819489
1.00228 -0.40187901 1.3796051
1.0165499 -0.415916 1.383598
1.00737 -0.40722001 1.377762
1.0110199 -0.404879 1.3782049
1.0177 -0.410629 1.37754
1.0157599 -0.40535399 1.3743291
1.02413 -0.40748 1.3721231
1.03073 -0.40768701 1.3748879
1.02459 -0.40522498 1.3655341
1.02683 -0.40381801 1.365791
1.0287499 -0.407051 1.361918
1.03171 -0.40546599 1.360952
1.0466599 -0.41972899 1.3628869
1.0346199 -0.40960097 1.3573281
1.0361 -0.40722302 1.3574181
1.04434 -0.41471699 1.3562781
1.0457901 -0.41151798 1.356565
1.06768 -0.430774 1.3617901
1.0568399 -0.42093799 1.3564801
1.05285 -0.41481999 1.35492
1.06758 -0.41755199 1.360049
1.07081 -0.42689201 1.359007
1.06938 -0.42185399 1.357816
1.09187 -0.42666301 1.3656081
1.09129 -0.42975199 1.361644
1.11739 -0.43364897 1.3717309
1.09437 -0.43048 1.3549631
1.10551 -0.43205899 1.3618181
1.09399 -0.43012699 1.347708
1.09919 -0.430013 1.3522501
1.0893 -0.42816898 1.338878
1.0929799 -0.42708001 1.34227
1.08858 -0.427625 1.3332541
1.09378 -0.42762101 1.3353171
1.09217 -0.429737 1.329911
1.09806 -0.42981201 1.330093
1.0986199 -0.43267798 1.3265829
1.1035199 -0.43243301 1.325979
1.1086299 -0.43753201 1.3246341
1.11175 -0.435954 1.323341
1.1216999 -0.44273898 1.323148
1.12573 -0.441378 1.3243381
1.0996701 -0.439538 1.3623531
1.1142601 -0.44544801 1.369794
1.1019599 -0.441214 1.3594791
1.10777 -0.44166198 1.3629041
1.09885 -0.43919998 1.3530211
1.10006 -0.43643299 1.3525641
1.0973001 -0.437538 1.34615
1.09014 -0.428119 1.3384421
1.09536 -0.43462899 1.337072
1.09132 -0.42760399 1.3332741
1.10167 -0.42980599 1.3364731
1.09768 -0.43600398 1.331707
1.0956 -0.4298 1.3293161
1.0996701 -0.42771998 1.329955
1.10063 -0.43761501 1.3265539
1.09945 -0.432129 1.325173
1.10405 -0.430334 1.325991
1.1084 -0.443129 1.3230231
1.10472 -0.43560901 1.3221221
1.11247 -0.434614 1.3223801
1.11964 -0.45070499 1.3223391
1.1092401 -0.44460401 1.341447
1.10261 -0.432809 1.33638
1.10385 -0.43823397 1.334422
1.1166101 -0.43876702 1.338676
1.11182 -0.444673 1.3318911
1.10728 -0.43495801 1.3298919
1.1180301 -0.43480599 1.332139
1.1179399 -0.44882402 1.328972
1.1158201 -0.44057399 1.3262221
1.12508 -0.43706799 1.3267779
1.12332 -0.45116299 1.3256421
1.11947 -0.442002 1.321264
1.12805 -0.43945202 1.322677
1.09823 -0.44840801 1.3585119
1.09067 -0.43652198 1.352852
1.1042299 -0.44404998 1.3583471
1.09341 -0.438191 1.350615
1.09619 -0.435956 1.34995
1.09113 -0.43429297 1.3417411
1.09196 -0.43000701 1.340839
1.09658 -0.436921 1.3352371
1.09725 -0.43281502 1.3354561
1.10269 -0.44125599 1.331174
1.1032 -0.43730801 1.3318851
1.11681 -0.44132301 1.3349581
1.11625 -0.45151299 1.331907
1.11131 -0.44102299 1.328851
1.12272 -0.44666803 1.326591
1.1003 -0.40621603 1.339272
1.10246 -0.41218898 1.340121
1.1088099 -0.41841 1.3385651
1.12526 -0.422452 1.3323652
1.09812 -0.40773201 1.335148
1.1049501 -0.410833 1.3351001
1.1163501 -0.416796 1.3308442
1.12916 -0.42456698 1.3267751
1.1088901 -0.40070301 1.325214
1.10764 -0.410961 1.3275771
1.11889 -0.41987401 1.323432
1.1097699 -0.40826198 1.3216009
1.0615001 -0.41084099 1.3550841
1.0742099 -0.414884 1.3506131
1.0928501 -0.41958401 1.344171
1.11024 -0.42486802 1.337525
1.1317 -0.429465 1.329483
1.04151 -0.41286498 1.359989
1.0613099 -0.41144699 1.351261
1.08881 -0.41377103 1.340907
1.10349 -0.419278 1.3362401
1.1233799 -0.42332101 1.3272431
1.04917 -0.406986 1.352422
1.04505 -0.412779 1.3542861
1.0851899 -0.41537601 1.3371401
1.10381 -0.41925099 1.330101
1.1217901 -0.42386001 1.3215699
1.0510601 -0.40357 1.347664
1.07775 -0.41988 1.336313
1.09437 -0.42041501 1.329463
1.1146901 -0.424512 1.3207321
1.13492 -0.41318402 1.3497231
1.13116 -0.414419 1.3484939
1.1289901 -0.42233101 1.3300869
1.11594 -0.41518602 1.3322171
1.13363 -0.42002702 1.3253311
1.11717 -0.416807 1.326185
1.1185399 -0.41686699 1.320412
1.01572 -0.38494202 1.377236
1.02553 -0.385961 1.374127
1.0057 -0.379527 1.3782001
1.02259 -0.3836 1.3721189
1.0717 -0.40193802 1.3496591
1.09929 -0.41080898 1.3395591
1.12983 -0.41923699 1.3312601
1.01173 -0.38076499 1.3719971
1.03961 -0.389705 1.360664
1.07408 -0.403285 1.3458321
1.09914 -0.411865 1.3353671
1.1219699 -0.41605201 1.32827
1.02367 -0.38587001 1.363793
1.0515599 -0.39525002 1.3523821
1.08202 -0.40628701 1.338837
1.10894 -0.416058 1.3271581
1.10076 -0.41601199 1.3266971
1.00345 -0.38863498 1.379039
1.0111001 -0.38723901 1.3777301
1.0305001 -0.39331299 1.370661
1.0444599 -0.39474097 1.3658
1.00327 -0.383362 1.377809
1.0164601 -0.38533199 1.373356
1.03749 -0.39036 1.365254
1.06006 -0.39824903 1.356586
1.12025 -0.42468202 1.334036
1.00437 -0.383912 1.3729761
1.0213799 -0.38668001 1.3666021
1.03907 -0.39069802 1.3596201
1.0577301 -0.39612401 1.3533211
1.0944999 -0.411814 1.3387491
1.1289901 -0.42389199 1.328548
1.00091 -0.38641101 1.369904
1.0111901 -0.38571301 1.366604
1.0302 -0.389182 1.359
1.04805 -0.39447102 1.352216
1.06726 -0.39983898 1.3447011
1.09633 -0.413306 1.332081
1.12142 -0.42058101 1.323796
1.05547 -0.39861801 1.3457041
1.07884 -0.40680501 1.3356671
1.10682 -0.417034 1.323706
1.0026001 -0.38314497 1.375958
1.016 -0.38823003 1.3688791
1.00121 -0.39237401 1.374796
1.09816 -0.38706198 1.3363571
1.08533 -0.38831699 1.3411529
1.07951 -0.379426 1.343235
1.0789399 -0.371488 1.341949
1.07311 -0.36633399 1.3438431
1.01249 -0.39264199 1.3671411
1.00091 -0.39248198 1.3707831
1.13086 -0.43590301 1.330374
1.11822 -0.43210602 1.3331021
1.1028299 -0.43047902 1.337301
1.09684 -0.42120999 1.337285
1.08829 -0.413055 1.3389931
1.08714 -0.39836398 1.3386801
1.0832801 -0.39158401 1.3393461
1.0813401 -0.38112301 1.3384809
1.07002 -0.37553799 1.341436
1.04452 -0.38155997 1.350785
1.01345 -0.392995 1.3628631
1.00142 -0.39430198 1.3669419
1.12028 -0.43860298 1.331022
1.11145 -0.43311799 1.3320371
1.10075 -0.42759499 1.3337469
1.0932499 -0.419664 1.335075
1.08819 -0.41367802 1.3358791
1.08499 -0.40682599 1.33623
1.0836799 -0.39387 1.3359621
1.0787101 -0.38448003 1.3365719
1.07188 -0.37809199 1.337926
1.05352 -0.379471 1.3442221
1.02882 -0.386287 1.353635
1.01254 -0.38802102 1.359527
1.12133 -0.43739799 1.325282
1.10817 -0.43271899 1.3283581
1.1023 -0.42715302 1.329102
1.09754 -0.42095298 1.329715
1.09095 -0.41314998 1.3310862
1.0901101 -0.40354002 1.330333
1.11722 -0.43265399 1.32145
1.10448 -0.42623699 1.325093
1.10181 -0.414561 1.3241119
1.09982 -0.40558499 1.3234801
1.07805 -0.40540698 1.348865
1.0745701 -0.39758301 1.34873
1.07697 -0.38389802 1.345867
1.0785199 -0.37241599 1.343528
1.075 -0.36613399 1.343552
1.06446 -0.36537999 1.346698
1.04777 -0.36907199 1.352512
1.13168 -0.431418 1.3290401
1.12194 -0.426319 1.3319641
1.10825 -0.42411599 1.3364559
1.0891401 -0.422667 1.342926
1.0754499 -0.41636002 1.348107
1.0694699 -0.40989497 1.350144
1.06739 -0.403182 1.348823
1.0717701 -0.38982499 1.3454981
1.07875 -0.37525201 1.341027
1.07244 -0.368844 1.3419532
1.05081 -0.371795 1.349926
1.03275 -0.376421 1.3570019
1.12824 -0.44220001 1.3284742
1.1170601 -0.438427 1.33184
1.1112599 -0.43133998 1.3331441
1.1011699 -0.42520401 1.336318
1.0913501 -0.42241901 1.3386431
1.08345 -0.41691002 1.340803
1.0715699 -0.411244 1.344736
1.0651799 -0.406041 1.346441
1.0706 -0.394261 1.342796
1.08324 -0.37294701 1.3334861
1.07301 -0.36886397 1.3378739
1.02922 -0.38150799 1.3574071
1.0203199 -0.38283002 1.3606449
1.12739 -0.44170398 1.323548
1.11832 -0.437464 1.327453
1.11378 -0.430013 1.325977
1.1002201 -0.426016 1.33199
1.0898401 -0.42099398 1.3351711
1.08035 -0.41631001 1.3372891
1.07359 -0.411208 1.339543
1.0683 -0.40692601 1.3420531
1.11975 -0.43628702 1.321277
1.11391 -0.43027699 1.321678
1.10665 -0.42598999 1.324174
1.09791 -0.41861999 1.3273751
1.09192 -0.41087601 1.328669
1.08566 -0.40561 1.3310851
1.07874 -0.402392 1.348719
1.0686799 -0.40254399 1.3526061
1.05715 -0.40322497 1.357142
1.12444 -0.42802298 1.3297369
1.11017 -0.423884 1.3339511
1.09124 -0.42073798 1.34041
1.0792 -0.41377601 1.344993
1.0668 -0.40884998 1.351218
1.05935 -0.40602002 1.354234
1.04983 -0.40636599 1.358035
1.12465 -0.43447602 1.3277011
1.11 -0.43060198 1.3327661
1.10368 -0.424366 1.333369
1.0915899 -0.42080602 1.336908
1.0825 -0.41527501 1.3398041
1.07074 -0.41043898 1.345224
1.06151 -0.407067 1.3499451
1.05058 -0.40720901 1.354676
1.12762 -0.43414602 1.3206551
1.11166 -0.42983299 1.327072
1.09885 -0.42473599 1.330658
1.0893101 -0.41913399 1.3338681
1.08149 -0.414902 1.336463
1.07533 -0.41042301 1.3385409
1.06485 -0.40764001 1.344378
1.1168699 -0.43062401 1.3200171
1.10735 -0.425758 1.3229761
1.09706 -0.42031503 1.32696
1.0867701 -0.41303003 1.3310061
1.08289 -0.406923 1.3318069
1.0760701 -0.40429699 1.334882
1.12287 -0.429562 1.3325951
1.10733 -0.42518699 1.3375461
1.09791 -0.42258301 1.3406551
1.12981 -0.43141997 1.3258749
1.1123 -0.42843497 1.333569
1.1004901 -0.42584598 1.3376621
1.09082 -0.42470002 1.341475
1.1131099 -0.428996 1.329545
1.09961 -0.427378 1.335251
1.11761 -0.42973998 1.324361
1.03177 -0.38676101 1.3742731
1.04275 -0.40071702 1.3708081
1.03613 -0.39962399 1.368598
1.02593 -0.39821398 1.365374
1.0208499 -0.39543498 1.3642551
1.04259 -0.40082699 1.367121
1.0347899 -0.399728 1.3642981
1.02702 -0.397066 1.362301
1.02431 -0.39377102 1.3621001
1.04203 -0.40362 1.359241
1.0345 -0.399694 1.359375
1.02759 -0.398792 1.3569301
1.0553399 -0.40671003 1.3553231
1.0500599 -0.40337899 1.3555471
1.03965 -0.400139 1.3557041
1.04041 -0.39147499 1.359849
1.06732 -0.40923402 1.352789
1.0586799 -0.407637 1.351456
1.05786 -0.39999101 1.3551049
1.0853 -0.41746601 1.34831
1.0759101 -0.41462699 1.3477679
1.06646 -0.41187698 1.347357
1.0623001 -0.40864602 1.346429
1.0929199 -0.414958 1.347753
1.08505 -0.413982 1.345636
1.0750901 -0.41036701 1.344207
1.07551 -0.40353501 1.344712
1.08936 -0.41994801 1.339306
1.08657 -0.412967 1.3406509
1.08179 -0.40673697 1.34069
1.08464 -0.39883801 1.3438071
1.10798 -0.41839299 1.3385741
1.09477 -0.41818801 1.335283
1.0908 -0.41080299 1.3365381
1.09503 -0.39959899 1.3422741
1.11385 -0.425042 1.3320489
1.10737 -0.420984 1.3322501
1.09987 -0.41608298 1.3317221
1.09905 -0.407785 1.334903
1.1338401 -0.42048901 1.334633
1.11946 -0.42332101 1.328958
1.11096 -0.41877499 1.328992
1.1149299 -0.40916598 1.332634
1.1247001 -0.42278099 1.3254601
1.11949 -0.41706502 1.3264199
1.12175 -0.40863499 1.3293631
1.1308399 -0.41045702 1.328241
1.03416 -0.36569402 1.4004111
1.0268 -0.37210801 1.3916451
1.01599 -0.37197 1.3893651
1.0338 -0.37132099 1.38923
1.02569 -0.36938599 1.389644
1.03778 -0.37832999 1.381196
1.0352401 -0.37272999 1.385067
1.04041 -0.38575199 1.3741241
1.03089 -0.38645101 1.3701181
1.03043 -0.38047999 1.372941
1.03988 -0.39328802 1.366647
1.0353501 -0.39093 1.3656869
1.03333 -0.38539398 1.3667779
1.0353299 -0.379078 1.3694811
1.04447 -0.39356202 1.3622191
1.03813 -0.38936099 1.362561
1.04379 -0.37972501 1.3672071
1.0536699 -0.36899102 1.3731531
1.05516 -0.39809701 1.357451
1.05019 -0.39342099 1.359144
1.04493 -0.38792098 1.360809
1.05013 -0.37674999 1.3668561
1.06591 -0.40220699 1.354483
1.06153 -0.39839599 1.354296
1.05558 -0.393305 1.356186
1.06683 -0.384426 1.3613961
1.07434 -0.40540299 1.3523771
1.06655 -0.40471298 1.348876
1.06055 -0.400994 1.3486041
1.0627999 -0.39327899 1.3531951
1.07398 -0.40908298 1.3452841
1.07293 -0.40470999 1.345399
1.06446 -0.40192601 1.3444259
1.08937 -0.40820801 1.345907
1.07771 -0.40970403 1.3405591
1.07418 -0.404764 1.340713
1.0786 -0.396833 1.34504
1.08626 -0.41270599 1.337196
1.0861599 -0.40673101 1.338847
1.08376 -0.401324 1.3402321
1.09644 -0.413829 1.3349221
1.0935299 -0.410667 1.334628
1.0942 -0.40477198 1.3366181
1.0998501 -0.413019 1.3316721
1.0975701 -0.409733 1.331827
1.10709 -0.4007 1.3376421
1.10633 -0.41062802 1.331427
1.10264 -0.408364 1.3307271
1.12503 -0.39763802 1.3516901
1.13334 -0.39867902 1.3527901
1.12743 -0.39728999 1.3498311
1.1341701 -0.39925 1.348989
1.11963 -0.39961499 1.341015
1.13985 -0.40338299 1.345297
1.1285 -0.40139198 1.3400711
1.12445 -0.39843899 1.339026
1.1370701 -0.41260898 1.334843
1.14028 -0.40423098 1.339687
1.12676 -0.40278703 1.3342919
1.12685 -0.398819 1.335775
1.13432 -0.40281799 1.333779
1.13831 -0.41061601 1.3270301
1.1416401 -0.403716 1.331936
1.0524 -0.37475398 1.398656
1.05801 -0.37688801 1.3986511
1.0583 -0.37436199 1.3994951
1.05326 -0.37748101 1.3920761
1.05902 -0.37428102 1.395576
1.0625 -0.37677699 1.3924161
1.06025 -0.37501702 1.389292
1.06556 -0.37685099 1.3869619
1.0646601 -0.37492198 1.3857491
1.07577 -0.380169 1.385836
1.0723701 -0.37686402 1.385861
1.07551 -0.37402198 1.387666
1.0685199 -0.38440201 1.374922
1.0746399 -0.37888199 1.3817761
1.06811 -0.38980302 1.367757
1.06881 -0.38620099 1.3710392
1.06699 -0.39225399 1.3604081
1.06706 -0.388643 1.3631591
1.06617 -0.393857 1.3536321
1.0675499 -0.39075902 1.35595
1.0736099 -0.39731097 1.351501
1.07041 -0.39389598 1.3518029
1.0735 -0.39091501 1.3526981
1.08267 -0.39843801 1.350419
1.0784 -0.39452499 1.3502301
1.08487 -0.39000702 1.353976
1.0932599 -0.40160197 1.351064
1.08375 -0.39967 1.346488
1.0917701 -0.394025 1.3523231
1.09302 -0.402307 1.345991
1.0889 -0.400231 1.343333
1.09771 -0.40330601 1.34115
1.09396 -0.40122101 1.339713
1.11668 -0.40324298 1.342576
1.10627 -0.40047798 1.340312
1.12709 -0.40324798 1.342509
1.1174901 -0.40035701 1.338958
1.1284699 -0.40258202 1.3394971
1.1332 -0.39814201 1.3415811
1.13551 -0.40364701 1.338022
1.1340001 -0.39855802 1.338464
