# .PCD v0.7 - Point Cloud Data file format
VERSION 0.7
FIELDS x y z
SIZE 4 4 4
TYPE F F F
COUNT 1 1 1
WIDTH 291
HEIGHT 1
VIEWPOINT 0 0 0 1 0 0 0
POINTS 291
DATA ascii
1.3044701 -0.405633 0.27984005
1.2993801 -0.39987701 0.27681202
1.3123801 -0.40380201 0.27473405
1.3178 -0.40882099 0.273981
1.30349 -0.39886397 0.26988101
1.31628 -0.402091 0.27050805
1.32556 -0.40514198 0.27045205
1.3286901 -0.40956798 0.27060902
1.2953501 -0.401178 0.26033506
1.31995 -0.40027198 0.26538703
1.33426 -0.40106601 0.26636603
1.33672 -0.40485299 0.26754704
1.32022 -0.40148997 0.25762403
1.33564 -0.399542 0.26064503
1.34146 -0.402394 0.26210904
1.32226 -0.40496701 0.25027701
1.33577 -0.40119201 0.25321501
1.34712 -0.40053099 0.25497204
1.33481 -0.40499401 0.24609901
1.29714 -0.398103 0.27960503
1.30704 -0.40231201 0.27858901
1.3078799 -0.41053501 0.27570304
1.2965699 -0.39988399 0.27306601
1.3163699 -0.40013501 0.27543503
1.3221099 -0.40275601 0.27579904
1.3239 -0.39676702 0.27224305
1.3283299 -0.400159 0.27292004
1.33224 -0.40427798 0.27066106
1.33248 -0.39511099 0.26671803
1.3348399 -0.39812002 0.26833603
1.3472099 -0.39818802 0.26740801
1.33015 -0.39828601 0.25934204
1.3413401 -0.39679101 0.26251903
1.35258 -0.397001 0.26302105
1.34972 -0.40394601 0.260847
1.34339 -0.396577 0.25651801
1.35123 -0.39696997 0.25853303
1.34044 -0.401519 0.24815205
1.2973599 -0.39792901 0.29030904
1.2970901 -0.40567401 0.28871903
1.2969501 -0.38904598 0.28700504
1.30354 -0.39581099 0.28716305
1.3082401 -0.401142 0.28667504
1.30391 -0.40910301 0.28443402
1.3086901 -0.393659 0.28346503
1.31653 -0.39798301 0.28423703
1.3169299 -0.40286401 0.28287601
1.30899 -0.392212 0.27708802
1.32019 -0.39582297 0.28042603
1.33222 -0.39545199 0.28095901
1.30282 -0.39479598 0.26940206
1.32592 -0.39365301 0.27505103
1.3359599 -0.39459702 0.27612904
1.3262601 -0.39547402 0.26795402
1.33838 -0.39433202 0.27057102
1.32707 -0.39907199 0.26093602
1.33981 -0.39544201 0.26508102
1.34454 -0.39857602 0.26343703
1.34615 -0.39621398 0.25963801
1.35258 -0.398689 0.25833103
1.34346 -0.40071201 0.25158402
1.2999899 -0.400231 0.29008502
1.29401 -0.407377 0.28790402
1.29844 -0.393309 0.28656805
1.3047501 -0.39895999 0.28679004
1.30957 -0.40159303 0.28714803
1.29554 -0.391904 0.27841306
1.30909 -0.39660197 0.28338802
1.3169701 -0.399784 0.28244403
1.31435 -0.39579201 0.27744502
1.3239701 -0.39919898 0.27784404
1.3122799 -0.39727002 0.27036002
1.32699 -0.39823899 0.27405101
1.3263401 -0.403427 0.27246103
1.30381 -0.39947301 0.26193103
1.32713 -0.397789 0.26923802
1.33429 -0.40052798 0.26972404
1.33535 -0.39723301 0.26504803
1.3428799 -0.39879501 0.26616505
1.34497 -0.39687401 0.25967303
1.35095 -0.39765799 0.26185
1.3463401 -0.39732897 0.25473201
1.29528 -0.40422499 0.29231402
1.29756 -0.38984698 0.28758201
1.29761 -0.39841801 0.28865901
1.31113 -0.40109599 0.28937903
1.2940401 -0.38179198 0.28228906
1.2957801 -0.38993901 0.28206703
1.3027699 -0.396312 0.28354603
1.31612 -0.40107399 0.28469503
1.3155099 -0.40579101 0.28457904
1.2954201 -0.388989 0.27686504
1.3052001 -0.39705503 0.27715802
1.32353 -0.40013 0.28254303
1.3266001 -0.40362 0.28312004
1.32856 -0.40016702 0.27916905
1.3371201 -0.401324 0.28150705
1.33743 -0.398801 0.27482101
1.33954 -0.40092999 0.27687204
1.34026 -0.39842999 0.27019504
1.3432001 -0.39998299 0.27122402
1.34629 -0.39644 0.26724404
1.34603 -0.39880198 0.26689404
1.3386999 -0.39872199 0.26034904
1.3487101 -0.39835799 0.26393205
1.3516201 -0.397156 0.26211303
1.34001 -0.39050201 0.28959405
1.3276401 -0.39205399 0.29296604
1.3263699 -0.39645001 0.29087105
1.31494 -0.394586 0.29321304
1.3141201 -0.40092301 0.28902903
1.3019501 -0.39930302 0.29156205
1.30356 -0.40728402 0.28794101
1.30538 -0.40043399 0.28634205
1.29584 -0.40572602 0.28658703
1.2959801 -0.39517897 0.28440303
1.2977999 -0.39445701 0.27990401
1.2949201 -0.40626201 0.32478303
1.29811 -0.40480399 0.31971604
1.3019099 -0.40055099 0.31572804
1.29493 -0.40478501 0.31376305
1.29638 -0.39945599 0.30866301
1.2985201 -0.40417802 0.30947205
1.3008 -0.39914799 0.30434802
1.29547 -0.40386501 0.30285504
1.29182 -0.41082999 0.30204803
1.29767 -0.398671 0.29768503
1.2972901 -0.40345299 0.29771701
1.3002601 -0.39851001 0.29308102
1.29696 -0.40291598 0.29223305
1.2974 -0.409823 0.29094106
1.30065 -0.39890203 0.28799903
1.29877 -0.40422699 0.28625104
1.29617 -0.41270301 0.28472102
1.30055 -0.399409 0.28092903
1.30312 -0.405983 0.28140303
1.3009 -0.41321 0.28027403
1.28861 -0.41920102 0.27763203
1.2993801 -0.39840099 0.27434903
1.3027099 -0.40334702 0.27553505
1.3068401 -0.41142899 0.27674103
1.2965699 -0.417835 0.27479005
1.3046401 -0.39981201 0.27003101
1.30821 -0.40601501 0.27187103
1.3089999 -0.41233298 0.27259004
1.29917 -0.41784099 0.26975703
1.30645 -0.39997101 0.26349303
1.30774 -0.40522802 0.26590502
1.30873 -0.41246602 0.26808003
1.2966499 -0.418605 0.26241004
1.30393 -0.39901501 0.256374
1.3082401 -0.40465698 0.25978005
1.30802 -0.41224098 0.26200104
1.29085 -0.41833499 0.25421003
1.30653 -0.39842498 0.25200704
1.30961 -0.403732 0.25357604
1.30536 -0.41167599 0.25478703
1.2909399 -0.41820499 0.24798904
1.30418 -0.39717999 0.24513604
1.31575 -0.404026 0.25045705
1.30794 -0.41099602 0.24879204
1.2887 -0.41818601 0.24087304
1.31222 -0.39234698 0.24238704
1.3012601 -0.39462003 0.23835102
1.31647 -0.40390399 0.24559803
1.3078799 -0.41308799 0.24235505
1.2998199 -0.389422 0.23361103
1.29882 -0.39319 0.23405904
1.32023 -0.40954301 0.24185401
1.303 -0.415001 0.23555404
1.2991999 -0.39168 0.23066002
1.3239599 -0.40999001 0.23982002
1.31565 -0.414096 0.23693505
1.28719 -0.418733 0.22649604
1.29155 -0.417595 0.24309902
1.2907801 -0.41696998 0.23880802
1.29793 -0.417611 0.23627003
1.2972 -0.41731399 0.23090103
1.29257 -0.41710898 0.22401802
1.29468 -0.40327498 0.30588505
1.29154 -0.41184601 0.30577701
1.2966599 -0.39792198 0.30188903
1.2979699 -0.40368098 0.30103004
1.29687 -0.41087002 0.30169705
1.3001601 -0.40049401 0.29702404
1.30205 -0.40647399 0.29719803
1.2960401 -0.41274798 0.29601502
1.3040601 -0.40318099 0.29141101
1.3010299 -0.408012 0.29187703
1.2928799 -0.41291401 0.28928202
1.30519 -0.40329498 0.28395504
1.29956 -0.408021 0.28509206
1.3148199 -0.40447497 0.28025502
1.3056101 -0.408196 0.27953503
1.3204601 -0.40430501 0.27605504
1.3099999 -0.40679902 0.27441502
1.2964101 -0.41220403 0.27081901
1.31431 -0.397497 0.26769301
1.3185401 -0.403797 0.27163303
1.30844 -0.407453 0.26845104
1.2956101 -0.41145402 0.26387006
1.33099 -0.40110698 0.26740304
1.31581 -0.40248501 0.26526701
1.3054601 -0.40682498 0.26141703
1.29101 -0.41192999 0.25708604
1.3447 -0.39743698 0.26297906
1.34168 -0.40180099 0.26514503
1.32133 -0.40241402 0.26034904
1.30081 -0.40609798 0.25349504
1.34874 -0.397616 0.259891
1.3422799 -0.40110502 0.26076505
1.31647 -0.40169498 0.25232002
1.29527 -0.40567902 0.24516304
1.3013999 -0.40203601 0.24196003
1.2928799 -0.406367 0.23790005
1.29325 -0.40085497 0.23252602
1.29365 -0.400832 0.22548702
1.2952499 -0.402482 0.20604405
1.30011 -0.403189 0.20259102
1.29181 -0.406185 0.20107903
1.3006901 -0.40295503 0.19978504
1.29775 -0.406636 0.19959904
1.2923199 -0.41027698 0.31381503
1.2934899 -0.40824199 0.30715504
1.2960601 -0.40368697 0.30193505
1.2951801 -0.40887699 0.30094901
1.2994599 -0.40541598 0.29568702
1.2944299 -0.41106099 0.29543903
1.30624 -0.40582803 0.28984004
1.29699 -0.40875 0.28925306
1.28961 -0.41537899 0.28863305
1.3097399 -0.400572 0.28345403
1.30549 -0.40585399 0.28463703
1.2937 -0.41018298 0.28257406
1.3245599 -0.396606 0.27940902
1.32521 -0.402917 0.28141204
1.3124499 -0.40538397 0.28087902
1.29882 -0.40797901 0.27749503
1.33459 -0.40089101 0.27921802
1.33241 -0.40472803 0.27864206
1.31493 -0.405579 0.27545303
1.2975301 -0.40954 0.27088302
1.3440601 -0.40409401 0.27641103
1.33522 -0.40722802 0.27546301
1.31183 -0.40668499 0.26842305
1.35253 -0.398388 0.26914105
1.36011 -0.40719399 0.27399904
1.34492 -0.40763801 0.27156603
1.29588 -0.40510699 0.25772601
1.2947 -0.39707601 0.23472103
1.2945399 -0.39604899 0.21608001
1.2968299 -0.39738801 0.21150303
1.29532 -0.397753 0.20360905
1.30261 -0.400316 0.19898003
1.29225 -0.40117699 0.19772305
1.29054 -0.40984198 0.19835804
1.30067 -0.39978299 0.19242203
1.2942101 -0.40263599 0.19180603
1.29259 -0.39802602 0.18366005
1.2923399 -0.40399301 0.18509704
1.2993801 -0.40562099 0.30483502
1.2941099 -0.411273 0.30453202
1.30479 -0.40164903 0.29833701
1.30282 -0.40722099 0.29866505
1.29321 -0.412424 0.29863101
1.2881399 -0.418585 0.29696202
1.3159399 -0.40478 0.29439902
1.30808 -0.40799901 0.29396504
1.2996001 -0.41394198 0.29317203
1.32289 -0.40053299 0.28957003
1.32855 -0.40806401 0.29164803
1.31424 -0.40950599 0.28970504
1.2999201 -0.411935 0.28566206
1.28917 -0.417878 0.28484902
1.3354601 -0.40646198 0.28858605
1.3271 -0.40769798 0.28596202
1.3150001 -0.410923 0.28329504
1.2932 -0.41092998 0.27786905
1.3356301 -0.40605998 0.28237101
1.3273801 -0.40812001 0.27948403
1.30778 -0.40822899 0.27452102
1.33953 -0.40490001 0.27510503
1.32066 -0.40493199 0.270749
1.29793 -0.40505999 0.26495403
1.3507899 -0.393139 0.26654902
1.3522201 -0.40038601 0.269499
1.3452499 -0.40343103 0.26951602
1.2986599 -0.39980599 0.25890103
1.29075 -0.41253898 0.25802106
1.3553901 -0.39576399 0.26483104
1.3499899 -0.40176898 0.26412904
