# .PCD v0.7 - Point Cloud Data file format
VERSION 0.7
FIELDS x y z
SIZE 4 4 4
TYPE F F F
COUNT 1 1 1
WIDTH 300
HEIGHT 1
VIEWPOINT 0 0 0 1 0 0 0
POINTS 300
DATA ascii
1.14806 -0.42293599 0.62205505
1.1503299 -0.41907299 0.62193102
1.1323 -0.418935 0.62106806
1.1397899 -0.41612899 0.62069601
1.1495099 -0.413434 0.61898005
1.135 -0.42562303 0.61646903
1.13288 -0.41944399 0.61692601
1.14463 -0.41502899 0.61579806
1.15722 -0.41127399 0.61347103
1.13098 -0.42550901 0.61286002
1.12999 -0.41979301 0.61335105
1.13721 -0.41474202 0.61278307
1.15809 -0.41109401 0.60925901
1.13852 -0.43417999 0.60846102
1.12994 -0.42643502 0.61017704
1.1328701 -0.42068902 0.61035806
1.15188 -0.41664201 0.60740501
1.1669 -0.41066399 0.60401702
1.0792 -0.43155399 0.60421008
1.07753 -0.426346 0.60514003
1.06521 -0.43180501 0.60298002
1.06698 -0.42769101 0.603468
1.07243 -0.42513198 0.60336304
1.06148 -0.437132 0.59970206
1.05881 -0.43115899 0.60029799
1.0639399 -0.426507 0.60116106
1.07022 -0.425309 0.60014307
1.05278 -0.443203 0.59471703
1.04696 -0.43488601 0.597193
1.05136 -0.43129298 0.59644401
1.05557 -0.42610699 0.59744704
1.04213 -0.438714 0.59358203
1.04441 -0.43481201 0.59318405
1.0462899 -0.42938599 0.59341407
1.05981 -0.43032002 0.59154403
1.0388401 -0.438802 0.58911002
1.0419 -0.43403703 0.58977503
1.04782 -0.43194303 0.58926302
1.02917 -0.44394502 0.58236605
1.0257599 -0.437547 0.58506101
1.03825 -0.436216 0.58579201
1.01704 -0.440312 0.58156705
1.02642 -0.43961498 0.58180308
1.01017 -0.445362 0.57524604
1.0099 -0.44092098 0.57717001
1.0200499 -0.44047502 0.57753205
1.0083001 -0.441825 0.57414901
1.1417099 -0.42532101 0.62735301
1.15266 -0.422124 0.62639403
1.16267 -0.41876599 0.62501502
1.1298001 -0.43088099 0.62431902
1.12887 -0.42368901 0.62548202
1.14069 -0.420463 0.62492299
1.15328 -0.41502398 0.62323004
1.17238 -0.41422403 0.62061805
1.12277 -0.428556 0.62166405
1.13696 -0.42784402 0.620848
1.14382 -0.41938001 0.62015003
1.15607 -0.41346902 0.61844003
1.1695501 -0.41071999 0.61726004
1.12248 -0.43919998 0.61492902
1.12473 -0.43084899 0.61769807
1.1341799 -0.42672598 0.61735106
1.14662 -0.42130402 0.61647505
1.15265 -0.412458 0.61545503
1.16725 -0.40887001 0.61308306
1.10606 -0.44029301 0.61153603
1.10262 -0.433566 0.61277604
1.12195 -0.43428397 0.61307901
1.16725 -0.406499 0.609227
1.10242 -0.44428599 0.60875303
1.08784 -0.43408 0.60933304
1.09553 -0.43133 0.61038303
1.0632399 -0.43098 0.606323
1.06459 -0.42587298 0.60698205
1.07657 -0.42596802 0.60654503
1.04278 -0.42840302 0.60416305
1.05214 -0.42701697 0.60402
1.06287 -0.425769 0.60313505
1.0781701 -0.42883301 0.60121
1.03434 -0.43200698 0.60001802
1.0418 -0.42945901 0.60085207
1.05028 -0.42765 0.59995705
1.0635099 -0.42791802 0.59890306
1.02836 -0.43307498 0.59564203
1.03637 -0.43034199 0.59657204
1.0540299 -0.43253398 0.59499103
1.0259 -0.439385 0.59105605
1.02693 -0.43492401 0.59190005
1.03789 -0.43406501 0.59186101
1.0226799 -0.44733199 0.58395505
1.01765 -0.438315 0.58744705
1.0283799 -0.438474 0.58743304
1.01083 -0.44257098 0.58249503
1.01688 -0.44052398 0.583395
1.01114 -0.44171399 0.57762605
1.0162101 -0.44829899 0.56612903
1.11763 -0.420634 0.62837005
1.12176 -0.415456 0.62807906
1.1380401 -0.41263303 0.62681305
1.15044 -0.40922099 0.62560904
1.1662899 -0.41178298 0.62368101
1.1084 -0.42580399 0.62514406
1.1072899 -0.41716999 0.62635905
1.11579 -0.414538 0.62544805
1.12769 -0.41079301 0.62475801
1.1462001 -0.409576 0.62305605
1.15808 -0.405249 0.62127805
1.09403 -0.42867401 0.61994708
1.09763 -0.42091399 0.62273002
1.1073101 -0.41906798 0.62212205
1.11954 -0.41477099 0.62121606
1.14285 -0.415411 0.61863703
1.1538 -0.40990299 0.618047
1.16456 -0.40479198 0.61526603
1.0828099 -0.43446401 0.61506903
1.0848 -0.42813599 0.61623901
1.09702 -0.42526698 0.61744601
1.1147699 -0.42407101 0.61688602
1.13362 -0.420625 0.616135
1.14949 -0.41891101 0.61432403
1.15404 -0.40868101 0.61371905
1.16249 -0.40158001 0.61116606
1.0792 -0.43332699 0.61199301
1.09034 -0.43335801 0.61178803
1.0988201 -0.42917302 0.61265802
1.0786099 -0.44144499 0.60649002
1.0762401 -0.43436298 0.60769403
1.08951 -0.43553901 0.60745806
1.06575 -0.43707198 0.60278803
1.07445 -0.43663701 0.60337603
1.05181 -0.439594 0.59694701
1.06049 -0.43785703 0.59876204
1.0458 -0.443553 0.59206003
1.03929 -0.43538201 0.593665
1.0460399 -0.43381 0.594886
1.02942 -0.436544 0.58951503
1.03294 -0.43347302 0.59117603
1.0307 -0.44551799 0.58326906
1.0199701 -0.434486 0.58537501
1.0333101 -0.43779701 0.58500898
1.01946 -0.43997002 0.58102703
1.0210099 -0.43745899 0.58126402
1.02797 -0.45141497 0.57587004
1.0212899 -0.44250301 0.57762408
1.0298899 -0.44456798 0.57625604
1.12737 -0.40866601 0.62725103
1.1344 -0.40590099 0.62703502
1.14934 -0.40700999 0.625184
1.1627201 -0.40916598 0.62354302
1.12494 -0.407846 0.62509501
1.1296 -0.40538898 0.62522298
1.14385 -0.40605399 0.62312102
1.1574 -0.40379798 0.62048906
1.1221601 -0.40569699 0.62311101
1.1331199 -0.406818 0.62175608
1.15544 -0.40881598 0.61671102
1.1674401 -0.40670699 0.61497903
1.16554 -0.42072701 0.61142403
1.16828 -0.41572702 0.61121202
1.18364 -0.43336701 0.61986005
1.18857 -0.43029702 0.61921501
1.1812999 -0.43044201 0.61710703
1.17901 -0.41893101 0.61674708
1.17415 -0.430722 0.614775
1.1779799 -0.425614 0.61382502
1.1760299 -0.41524503 0.613388
1.05667 -0.46028501 0.65237898
1.06548 -0.45662898 0.64897704
1.05365 -0.45877603 0.65077806
1.0770099 -0.451857 0.64379698
1.0685199 -0.45308399 0.64622706
1.08988 -0.447119 0.63748103
1.08148 -0.44782901 0.63998103
1.09484 -0.44475701 0.63254803
1.09166 -0.44351199 0.63314706
1.09892 -0.443232 0.62733805
1.09518 -0.44220102 0.628039
1.1084501 -0.43920898 0.62024301
1.10303 -0.43870997 0.62257904
1.11575 -0.43679699 0.61387604
1.1073 -0.43749297 0.61665803
1.12122 -0.43427798 0.60858703
1.1194999 -0.43237999 0.60903603
1.12769 -0.43178502 0.60276502
1.12703 -0.42948502 0.60307401
1.1511 -0.39507198 0.59799904
1.1367 -0.39673501 0.59856707
1.13535 -0.428736 0.59559107
1.13165 -0.42732298 0.59756601
1.14897 -0.39534801 0.593611
1.13782 -0.39644298 0.59541404
1.14499 -0.42449 0.58920401
1.1411 -0.422934 0.58979601
1.1426799 -0.39511299 0.58973205
1.1457801 -0.423026 0.58378404
1.15002 -0.41639099 0.58227003
1.1526 -0.391395 0.581671
1.15747 -0.41714501 0.57576501
1.1524 -0.41467899 0.57785904
1.14756 -0.39237702 0.57692605
1.15887 -0.41661498 0.56992805
1.15927 -0.410478 0.57126307
1.14492 -0.39283797 0.57178408
1.16451 -0.41509998 0.56382501
1.1619999 -0.410983 0.56558204
1.13212 -0.39691502 0.56742007
1.11726 -0.400195 0.56511706
1.1192299 -0.39583197 0.56493002
1.15 -0.39373502 0.56632805
1.1352 -0.399185 0.56374604
1.12249 -0.404401 0.56130499
1.13958 -0.395904 0.559412
1.1189801 -0.40544301 0.55787504
1.1266 -0.40087798 0.55628902
1.1206601 -0.40516201 0.55341703
1.1244999 -0.401528 0.55083901
1.12212 -0.40423599 0.54774803
1.12909 -0.39967701 0.54449606
1.12613 -0.403267 0.54104704
1.12937 -0.39989603 0.53995299
1.12499 -0.40327099 0.53617203
1.1287 -0.39967701 0.53525603
1.1242601 -0.403741 0.53123903
1.12491 -0.40113398 0.53127599
1.11269 -0.40678397 0.52788001
1.12444 -0.400895 0.52687204
1.1111 -0.407336 0.522955
1.11795 -0.40309399 0.52316606
1.10896 -0.40769601 0.51871604
1.11414 -0.40414003 0.51900202
1.1047699 -0.40908799 0.51672602
1.1157299 -0.40344501 0.51459801
1.11667 -0.40292901 0.51176906
1.1614701 -0.40842497 0.60261607
1.14764 -0.40674198 0.60440201
1.15106 -0.40882501 0.60194802
1.15459 -0.40712202 0.59786201
1.16246 -0.40628701 0.59171802
1.16378 -0.407004 0.58590806
1.15687 -0.40572301 0.585235
1.15614 -0.40913102 0.58101106
1.16274 -0.40579498 0.57955301
1.15248 -0.40950501 0.57653505
1.1505899 -0.40735 0.57680303
1.14732 -0.41056597 0.57238698
1.15135 -0.40760201 0.57192206
1.1361799 -0.411991 0.56856102
1.13977 -0.409031 0.56954902
1.1228501 -0.41444698 0.56573904
1.13595 -0.41007501 0.56495202
1.12142 -0.41456902 0.56193507
1.1312699 -0.41094002 0.56002402
1.12763 -0.41439801 0.55664098
1.1383001 -0.41070899 0.553096
1.15209 -0.41684699 0.54400301
1.13517 -0.414758 0.54971403
1.14871 -0.41060901 0.54673702
1.1478701 -0.417757 0.54169905
1.1381301 -0.41618699 0.54440999
1.1404901 -0.41967702 0.54068702
1.1385 -0.417299 0.54079705
1.13424 -0.41760701 0.53929102
1.1658599 -0.410725 0.62919402
1.16264 -0.41683602 0.62987804
1.15474 -0.42165601 0.62964904
1.13726 -0.42100498 0.62887406
1.18117 -0.41336399 0.62513602
1.16379 -0.41682801 0.62662607
1.1490899 -0.41965401 0.62636805
1.14108 -0.42481899 0.62503505
1.171 -0.41591001 0.62199605
1.14973 -0.41949999 0.62202805
1.1323 -0.424301 0.61993402
1.10869 -0.427086 0.61748302
1.08876 -0.43131 0.61522502
1.15821 -0.41502601 0.618402
1.1378701 -0.41922298 0.61741704
1.11431 -0.42320499 0.61457503
1.1015 -0.428922 0.61250407
1.08964 -0.43270198 0.61204404
1.08165 -0.43869901 0.61070001
1.09887 -0.42981398 0.60843003
1.0891 -0.43459901 0.60736704
1.08029 -0.43921399 0.60714501
1.0614901 -0.44079 0.60368705
1.07788 -0.43326101 0.60182208
1.0742401 -0.44006699 0.60142303
1.05724 -0.44310299 0.597974
1.0515 -0.44751498 0.59702605
1.06339 -0.44097802 0.59396505
1.0529901 -0.44501099 0.59219503
1.0409 -0.44572499 0.59133804
1.04988 -0.43878502 0.58649999
1.05039 -0.44399601 0.58706504
1.0425 -0.44678602 0.58558601
1.04223 -0.44298598 0.58100802
1.03504 -0.44544601 0.57885301
1.0334101 -0.441282 0.575571
1.02957 -0.44457299 0.57472104
