# .PCD v0.7 - Point Cloud Data file format
VERSION 0.7
FIELDS x y z
SIZE 4 4 4
TYPE F F F
COUNT 1 1 1
WIDTH 268
HEIGHT 1
VIEWPOINT 0 0 0 1 0 0 0
POINTS 268
DATA ascii
1.16161 -0.49971199 0.93052101
1.14906 -0.495942 0.92506808
1.15394 -0.49147901 0.92508906
1.14798 -0.50333697 0.92051607
1.15086 -0.49909499 0.92023605
1.15368 -0.492201 0.92108607
1.1466401 -0.50647199 0.91485405
1.14992 -0.50232399 0.91503406
1.15449 -0.49428201 0.91751909
1.14817 -0.50933999 0.91061598
1.15417 -0.50635099 0.91112798
1.14914 -0.51300204 0.90604806
1.15927 -0.510804 0.90749002
1.16667 -0.518987 0.90585107
1.1512799 -0.485526 0.92863798
1.1519001 -0.49779999 0.92391402
1.14907 -0.48803502 0.92490005
1.1435399 -0.50558299 0.91789001
1.1488301 -0.50036597 0.92012805
1.1520801 -0.49222699 0.92183602
1.13326 -0.50408196 0.91298401
1.14827 -0.50448 0.91641599
1.14358 -0.49721801 0.92418802
1.14985 -0.48956501 0.92644602
1.1351399 -0.50562 0.91878104
1.1345201 -0.49729002 0.91907805
1.1446199 -0.49427101 0.92136502
1.1560501 -0.489584 0.92415309
1.13073 -0.50414103 0.91436005
1.1354901 -0.499336 0.91555703
1.14595 -0.49735001 0.91759402
1.13666 -0.50342 0.91036904
1.15283 -0.499538 0.93055701
1.1539 -0.490942 0.931014
1.1401 -0.49172297 0.92476201
1.1524299 -0.49110401 0.92659301
1.1332099 -0.50038701 0.91789705
1.1411099 -0.49602902 0.91957998
1.14969 -0.49269298 0.92035002
1.13401 -0.50403303 0.91307104
1.14122 -0.49893701 0.91408807
1.1488099 -0.498009 0.91465807
1.13556 -0.50622499 0.90864503
1.1469799 -0.50731301 0.90991402
1.1557701 -0.49981898 0.93481004
1.1435701 -0.491283 0.92948401
1.14977 -0.48859 0.92948103
1.14806 -0.50710601 0.925551
1.14274 -0.494095 0.92423707
1.15492 -0.49323002 0.92548299
1.13925 -0.50528097 0.91806406
1.1448101 -0.49907902 0.91872901
1.15461 -0.49594101 0.92066103
1.13318 -0.50427401 0.91132003
1.14765 -0.50550598 0.91404909
1.14539 -0.47676498 0.93199706
1.14422 -0.47040403 0.93608505
1.13977 -0.474749 0.93143904
1.13925 -0.46882701 0.93331003
1.1338099 -0.473966 0.92665601
1.1366 -0.467502 0.92852706
1.1419101 -0.462735 0.92565805
1.1245201 -0.47702703 0.92462301
1.1252201 -0.47362 0.92449003
1.1341799 -0.46964002 0.92142004
1.14246 -0.46534902 0.91810602
1.12029 -0.47642899 0.92150605
1.12564 -0.474379 0.91733003
1.13456 -0.471762 0.91312706
1.11922 -0.477184 0.91400409
1.12238 -0.475117 0.91070503
1.14748 -0.48249599 0.92084903
1.1462001 -0.47394502 0.92646497
1.13912 -0.48834598 0.916713
1.1388201 -0.48044601 0.92139
1.14296 -0.47459203 0.92259198
1.1487499 -0.46918499 0.92170805
1.13178 -0.486965 0.91607004
1.13562 -0.482189 0.91569209
1.13852 -0.47371799 0.919177
1.15011 -0.46847698 0.91557801
1.12628 -0.48523602 0.91385198
1.1306 -0.47929999 0.91352707
1.14282 -0.476944 0.90842605
1.12844 -0.47962102 0.90778303
1.14439 -0.47764802 0.91907805
1.14872 -0.47097099 0.92114806
1.13822 -0.48557499 0.91100007
1.14036 -0.47775298 0.91500604
1.1459301 -0.47119799 0.91540802
1.13132 -0.482638 0.91069108
1.13785 -0.478356 0.90873307
1.14746 -0.47534001 0.90583903
1.1317401 -0.48747003 0.89990306
1.1364399 -0.48117298 0.89984101
1.14425 -0.490004 0.8839398
1.14757 -0.489463 0.92674905
1.14747 -0.47869301 0.93352598
1.13846 -0.49675399 0.91962403
1.13789 -0.48561502 0.9268291
1.1450499 -0.480542 0.927396
1.12931 -0.49342799 0.91921306
1.13395 -0.48616299 0.92206001
1.14072 -0.480158 0.92281604
1.1564701 -0.48099601 0.91592407
1.13239 -0.48773497 0.91515106
1.1397799 -0.48223799 0.91534907
1.1258 -0.48441502 0.91383004
1.14219 -0.485973 0.92904305
1.14484 -0.47710097 0.93315506
1.13349 -0.493222 0.91965604
1.13661 -0.48333099 0.92635202
1.14245 -0.47762698 0.92635804
1.14495 -0.46819901 0.92852205
1.12699 -0.494389 0.91509402
1.13377 -0.48578998 0.91778207
1.1382 -0.47464299 0.92233706
1.14583 -0.47156897 0.92081606
1.12966 -0.485264 0.91161102
1.1348701 -0.47857499 0.91342509
1.1265301 -0.48526999 0.90512103
1.1366 -0.48604 0.90004301
1.15958 -0.49489602 0.91287398
1.1537 -0.494115 0.91456407
1.15036 -0.50082296 0.91255301
1.14984 -0.49664199 0.91020304
1.15614 -0.48846 0.90405405
1.14772 -0.502114 0.90727597
1.1410099 -0.501522 0.90832001
1.1492701 -0.49226701 0.90239006
1.13868 -0.50697303 0.906232
1.13639 -0.50406504 0.90437204
1.13931 -0.49776 0.90096503
1.15774 -0.49228001 0.92190802
1.1664701 -0.49670202 0.91346306
1.15566 -0.49745399 0.91806501
1.15319 -0.49423802 0.91872299
1.15869 -0.50050098 0.91141802
1.14966 -0.50085098 0.91492498
1.14783 -0.497033 0.91530204
1.15065 -0.50411803 0.90975797
1.14289 -0.503447 0.912265
1.14231 -0.49929798 0.91183698
1.14352 -0.50724798 0.90694702
1.13568 -0.50689703 0.90976304
1.13428 -0.50297904 0.91023302
1.16036 -0.48901403 0.92004907
1.16703 -0.49565101 0.909343
1.15552 -0.494991 0.91811007
1.1519101 -0.49229699 0.91992706
1.1620201 -0.49842 0.90666306
1.15302 -0.49737 0.91280204
1.14827 -0.49426499 0.91532207
1.15258 -0.50118196 0.90743303
1.14416 -0.49951899 0.911134
1.14437 -0.49525002 0.91067201
1.1399701 -0.50527799 0.90895498
1.13598 -0.50285196 0.90849203
1.13765 -0.49782398 0.90879405
1.1533999 -0.489243 0.92353803
1.1492701 -0.48648497 0.92430097
1.15251 -0.48089698 0.92238909
1.1468199 -0.49065799 0.91988105
1.14915 -0.486121 0.91821504
1.1532199 -0.48203 0.91255903
1.14046 -0.49382198 0.91612506
1.1468199 -0.48777199 0.91308898
1.15137 -0.48412102 0.90764999
1.1382099 -0.49728698 0.90947604
1.14142 -0.491521 0.91019499
1.1371399 -0.504812 0.902179
1.13293 -0.50043601 0.90907699
1.15335 -0.48504397 0.92532301
1.15381 -0.49089298 0.91709107
1.14825 -0.48728299 0.92294604
1.1497101 -0.483704 0.92223406
1.16017 -0.498864 0.90345502
1.1513 -0.49473703 0.91186804
1.14798 -0.48910001 0.91624308
1.14579 -0.485199 0.91627002
1.1559 -0.498997 0.90271103
1.1434 -0.49561298 0.91257203
1.14221 -0.49006599 0.91272706
1.1454901 -0.485708 0.90932405
1.14062 -0.50085497 0.908535
1.13746 -0.496703 0.90936708
1.13585 -0.49201 0.91023606
1.1338099 -0.49387601 0.90446502
1.16731 -0.50064999 0.90126503
1.15257 -0.51515597 0.904495
1.16755 -0.499448 0.90972304
1.15922 -0.50550598 0.90335202
1.1701 -0.49500197 0.90626204
1.1564 -0.50663698 0.89987701
1.16764 -0.49676701 0.90186602
1.16186 -0.499008 0.89849001
1.15236 -0.51098704 0.90207601
1.15509 -0.50346398 0.90529603
1.1507499 -0.50230598 0.90199202
1.1677101 -0.49579799 0.91372001
1.1648999 -0.491797 0.91221505
1.1547 -0.500404 0.90616399
1.1552401 -0.495065 0.90595001
1.1500701 -0.50238901 0.90029907
1.154 -0.49523801 0.90180403
1.15025 -0.50345004 0.89550608
1.1528 -0.49712002 0.89708
1.16486 -0.49088901 0.89844203
1.1524199 -0.498348 0.89290208
1.1562899 -0.501055 0.89034808
1.16495 -0.49475101 0.89152408
1.16747 -0.49638402 0.91639799
1.1639299 -0.491133 0.915344
1.15669 -0.497803 0.90943503
1.15684 -0.49221599 0.90962201
1.14809 -0.51163799 0.90117401
1.14091 -0.50352699 0.90130502
1.15037 -0.49520999 0.90411299
1.15617 -0.48768198 0.90680403
1.1418099 -0.50373 0.89745301
1.1431199 -0.49782002 0.89868003
1.15195 -0.49181098 0.89978004
1.14561 -0.49792099 0.89449602
1.1593599 -0.491357 0.89480609
1.1570899 -0.494982 0.89186102
1.1668299 -0.48952901 0.89252502
1.18997 -0.51356602 0.91149002
1.1798201 -0.50467604 0.90833002
1.18226 -0.51764101 0.90637803
1.16962 -0.52216303 0.90890801
1.19115 -0.51070803 0.90138507
1.18027 -0.51829201 0.90121901
1.1719999 -0.52605897 0.90250403
1.18179 -0.51396298 0.89639401
1.17756 -0.52060801 0.89570999
1.16961 -0.528328 0.89708209
1.17478 -0.51471597 0.89373201
1.17784 -0.520796 0.8919
1.16739 -0.52799398 0.89277899
1.1569999 -0.53203499 0.88812906
1.17783 -0.51542699 0.91151601
1.18304 -0.51046002 0.90707999
1.18032 -0.51682901 0.906358
1.17276 -0.52144301 0.90773904
1.17305 -0.50577497 0.90430701
1.18291 -0.51142603 0.90290308
1.1760501 -0.51761103 0.90169907
1.1741101 -0.523045 0.90190905
1.18234 -0.51392603 0.897861
1.17281 -0.52005899 0.89694703
1.16993 -0.52433199 0.897358
1.1723 -0.51605701 0.89456606
1.17494 -0.52140701 0.89268106
1.17487 -0.52523398 0.89273298
1.1647 -0.52440202 0.89141798
1.1739601 -0.509664 0.914487
1.17858 -0.511567 0.91081703
1.1681199 -0.51625901 0.91120505
1.18042 -0.50591397 0.90767306
1.18001 -0.51179403 0.90710908
1.16952 -0.51840001 0.90633607
1.1546299 -0.52335501 0.90733308
1.17392 -0.51326698 0.90235102
1.16328 -0.51942998 0.90038002
1.15991 -0.52795398 0.90129805
1.16347 -0.514395 0.89541602
1.1577201 -0.51960701 0.89522707
1.15872 -0.52757502 0.89626908
