# .PCD v0.7 - Point Cloud Data file format
VERSION 0.7
FIELDS x y z
SIZE 4 4 4
TYPE F F F
COUNT 1 1 1
WIDTH 426
HEIGHT 1
VIEWPOINT 0 0 0 1 0 0 0
POINTS 426
DATA ascii
1.29681 -0.44496799 0.60556006
1.3009801 -0.45386502 0.60450906
1.31275 -0.46128502 0.60295504
1.31629 -0.471836 0.60182101
1.3048301 -0.43922299 0.60232604
1.3140401 -0.44816601 0.60168701
1.32221 -0.45473099 0.59962404
1.3263299 -0.46422902 0.59945601
1.3340499 -0.47042301 0.59843403
1.3395101 -0.48271501 0.59537405
1.3392799 -0.497982 0.59375799
1.34376 -0.50887299 0.59166408
1.3440801 -0.52292001 0.58953303
1.3049699 -0.439574 0.59723103
1.31391 -0.44716901 0.59612405
1.32716 -0.45221502 0.594998
1.33315 -0.45804298 0.59588701
1.33412 -0.47120801 0.59387803
1.34355 -0.48019502 0.59076399
1.34614 -0.49249402 0.59089398
1.3526199 -0.50196803 0.58803302
1.3561701 -0.51313704 0.58730501
1.3074499 -0.43906897 0.59307599
1.31542 -0.44664398 0.59075701
1.32341 -0.45306599 0.59039998
1.33114 -0.461137 0.59064603
1.3355099 -0.473694 0.58717299
1.3444501 -0.47992697 0.58609802
1.34587 -0.492378 0.58468902
1.35032 -0.50459301 0.58225805
1.3055099 -0.45179099 0.58761507
1.3162199 -0.45553699 0.58674502
1.3245399 -0.46591499 0.58545202
1.3315899 -0.477795 0.58217502
1.3383 -0.485502 0.58117604
1.3422501 -0.49432901 0.57943308
1.34771 -0.50251597 0.57795203
1.32495 -0.49439701 0.57680106
1.33595 -0.49875 0.57579607
1.3385201 -0.50938898 0.57384503
1.34749 -0.51505399 0.57298398
1.3082001 -0.43045899 0.60846603
1.3034101 -0.445288 0.606354
1.32601 -0.469102 0.60227603
1.31349 -0.43926898 0.60393602
1.3143201 -0.44953001 0.60294002
1.32436 -0.457845 0.60108805
1.3324001 -0.46547902 0.59978604
1.3386999 -0.471955 0.59968704
1.3457899 -0.48141801 0.59759605
1.3425 -0.499015 0.59518403
1.3441701 -0.51128 0.59382302
1.34264 -0.52221799 0.59228808
1.3119 -0.42875999 0.60034806
1.31633 -0.43675599 0.59971201
1.31725 -0.44943601 0.59952706
1.3277401 -0.45680499 0.59752005
1.33761 -0.46348998 0.59558803
1.34115 -0.472009 0.59639204
1.3482499 -0.47842702 0.59429705
1.35271 -0.48776901 0.59313703
1.3551899 -0.50059199 0.59165603
1.3556399 -0.51244199 0.59063905
1.31382 -0.42781502 0.59781206
1.31963 -0.435774 0.59675199
1.3200901 -0.44866601 0.59563398
1.33293 -0.45714802 0.59325701
1.3436999 -0.46144599 0.59186202
1.34431 -0.470833 0.59184802
1.3484199 -0.48175099 0.58907908
1.3524001 -0.49316397 0.58769107
1.3578501 -0.50126201 0.58655804
1.36174 -0.50703698 0.58730501
1.3319401 -0.46766102 0.58862102
1.34418 -0.47167599 0.58778602
1.34438 -0.48525399 0.58435905
1.35168 -0.49097902 0.58338106
1.3571 -0.49947301 0.582461
1.33878 -0.498245 0.57946104
1.3468801 -0.50265902 0.57892203
1.3563499 -0.50939602 0.57801306
1.2952499 -0.45148 0.602732
1.31569 -0.46128899 0.60118002
1.30308 -0.43440497 0.60229707
1.3033099 -0.44336799 0.60183305
1.31082 -0.45200598 0.60002804
1.3215801 -0.45918301 0.59872103
1.3237801 -0.468853 0.59820002
1.3235699 -0.4795 0.59722501
1.33679 -0.48265499 0.59647608
1.34455 -0.49112302 0.59478205
1.3438699 -0.502666 0.59351504
1.30819 -0.44242901 0.59853399
1.31919 -0.45096901 0.59694898
1.3264101 -0.45761698 0.59577501
1.3283 -0.46669102 0.59541702
1.3280499 -0.477743 0.59484303
1.3383701 -0.48403901 0.59319305
1.34772 -0.48961899 0.59184802
1.3520199 -0.498276 0.59110701
1.35894 -0.50451398 0.59089601
1.31391 -0.45097801 0.59448701
1.32786 -0.453796 0.59413505
1.33205 -0.462672 0.59302902
1.3320301 -0.477678 0.59082305
1.3430099 -0.48510897 0.58855003
1.3487101 -0.49285802 0.58725804
1.3528501 -0.50101203 0.58632904
1.3572501 -0.50766897 0.58686501
1.33253 -0.48977402 0.584158
1.3423899 -0.49365503 0.58299905
1.3530099 -0.49863499 0.582479
1.3601601 -0.50726104 0.58204103
1.33604 -0.49582401 0.57991105
1.33698 -0.50393796 0.57853603
1.3531101 -0.50736302 0.57851005
1.31287 -0.42966801 0.60972601
1.3121201 -0.443744 0.60804605
1.3124601 -0.45375901 0.60707206
1.3155999 -0.460278 0.60579103
1.3136001 -0.430612 0.605501
1.3197701 -0.43846199 0.60533702
1.32218 -0.44724602 0.60564101
1.3235 -0.45541599 0.60423905
1.32881 -0.46323502 0.60209304
1.3173399 -0.43307498 0.60146201
1.31756 -0.44072101 0.60101402
1.3211501 -0.447925 0.60109901
1.3284199 -0.45631 0.59978002
1.3333299 -0.46449101 0.59777606
1.3274001 -0.476769 0.59669107
1.32435 -0.48841 0.59485406
1.3299099 -0.494818 0.59338003
1.30961 -0.434075 0.59779906
1.3209399 -0.44050398 0.59733802
1.32748 -0.44937 0.59651601
1.33419 -0.456339 0.59600604
1.3350501 -0.46342 0.59449202
1.32899 -0.476109 0.593086
1.32883 -0.48699799 0.59251302
1.3337801 -0.49531102 0.59030002
1.3293201 -0.50497401 0.58898705
1.34297 -0.51099998 0.58797002
1.3085699 -0.44306499 0.59365004
1.31536 -0.45004901 0.59303904
1.3284199 -0.45714802 0.59282404
1.33113 -0.46720502 0.59149706
1.32657 -0.47851002 0.58994806
1.33061 -0.488087 0.58895105
1.33777 -0.49496201 0.58752108
1.33513 -0.505638 0.58582306
1.34674 -0.51369303 0.58481705
1.334 -0.49789602 0.58473802
1.3283 -0.508928 0.582358
1.3425701 -0.513578 0.58173907
1.32689 -0.45072499 0.61191201
1.3242 -0.44219002 0.61281705
1.31249 -0.43749499 0.61431801
1.3064901 -0.47655401 0.61092502
1.3176301 -0.465464 0.60958004
1.31706 -0.45749801 0.60954702
1.31575 -0.446235 0.61046201
1.3067999 -0.43693298 0.61138803
1.3517799 -0.50917399 0.59906602
1.31786 -0.47192201 0.60653704
1.3189999 -0.46522498 0.60554606
1.32166 -0.45334899 0.60404402
1.3117999 -0.44387099 0.60593706
1.30388 -0.436306 0.60718
1.3563901 -0.51217198 0.59566504
1.3458099 -0.510593 0.59674907
1.31959 -0.47079498 0.60206002
1.32564 -0.46182901 0.59980404
1.3243099 -0.45384499 0.59863901
1.3236901 -0.442691 0.59891403
1.31207 -0.43511799 0.60164201
1.3460499 -0.51144999 0.59282601
1.32798 -0.46626401 0.59712106
1.3319 -0.45749298 0.59556001
1.33638 -0.445923 0.59411806
1.3344501 -0.43757001 0.59435803
1.32836 -0.43047601 0.59581804
1.34649 -0.51183802 0.58907908
1.35093 -0.46095797 0.60681206
1.3421899 -0.45723203 0.60769701
1.3323101 -0.45032102 0.60854304
1.3199899 -0.44191003 0.61014003
1.3030499 -0.43346599 0.61274505
1.35549 -0.496342 0.60032904
1.3532699 -0.48777801 0.60114104
1.3410499 -0.48021302 0.60315806
1.33812 -0.46737099 0.60473102
1.3314799 -0.45846403 0.60565704
1.3226199 -0.44894698 0.60621101
1.31279 -0.44092202 0.60827005
1.30619 -0.43424499 0.60828501
1.33641 -0.51613802 0.59934801
1.34911 -0.50633001 0.59779406
1.34495 -0.497767 0.59855199
1.3411599 -0.48805401 0.59999001
1.33834 -0.47798002 0.59964907
1.33248 -0.46688801 0.60073602
1.32675 -0.45714599 0.60124308
1.32142 -0.44930303 0.60144705
1.31452 -0.44074699 0.60355204
1.3457 -0.51350099 0.59505105
1.34817 -0.50654501 0.59363002
1.34541 -0.49862498 0.59416801
1.34383 -0.48863202 0.59442002
1.33936 -0.479597 0.59492105
1.3349099 -0.47135299 0.59550202
1.3303 -0.460522 0.59595102
1.32459 -0.452214 0.59737402
1.31864 -0.44446301 0.598647
1.30916 -0.43285501 0.60068899
1.34969 -0.512541 0.59017503
1.35017 -0.50738096 0.58873606
1.3468201 -0.49929601 0.58949202
1.34411 -0.49028802 0.58928508
1.34187 -0.47998601 0.59086603
1.3441401 -0.465608 0.59087801
1.34243 -0.45629102 0.59116501
1.34041 -0.44880599 0.59209001
1.3524201 -0.51123202 0.58614004
1.3541499 -0.50392103 0.58540803
1.3549299 -0.49446899 0.58506906
1.3555701 -0.48563901 0.585195
1.3262399 -0.43357199 0.61208802
1.3119099 -0.43076 0.61372203
1.35115 -0.47486699 0.60328406
1.3383701 -0.468521 0.60523003
1.3253 -0.46072602 0.60679603
1.32078 -0.45016202 0.60794401
1.31222 -0.43919301 0.61039901
1.36121 -0.49591202 0.59737003
1.34578 -0.48539698 0.60030001
1.3375 -0.47617298 0.60224503
1.3290601 -0.467556 0.60351503
1.32142 -0.45787999 0.60401303
1.3155 -0.44771999 0.60585105
1.31016 -0.438604 0.60601205
1.36007 -0.50442004 0.59406501
1.3504699 -0.49392501 0.59517401
1.34355 -0.48348099 0.59696698
1.3352699 -0.47432899 0.59843707
1.3253999 -0.46660501 0.60006303
1.32541 -0.458758 0.59911406
1.31646 -0.44861302 0.60081506
1.30946 -0.44010502 0.60166407
1.3563401 -0.50288099 0.58974302
1.3499299 -0.49429402 0.59065199
1.34532 -0.48690498 0.59241104
1.33836 -0.47883201 0.59350801
1.3309599 -0.468348 0.59532303
1.3230799 -0.45694301 0.59659803
1.3174499 -0.44828099 0.59752107
1.3138499 -0.43939799 0.59840304
1.31222 -0.42942402 0.59901506
1.3604801 -0.50725901 0.58455902
1.3553101 -0.49784401 0.58620501
1.34496 -0.48715302 0.589122
1.3472301 -0.476275 0.58958203
1.3488901 -0.45821601 0.60424906
1.33769 -0.449736 0.60608202
1.31941 -0.44038898 0.60883003
1.31296 -0.43116599 0.61038101
1.3709199 -0.499244 0.59600806
1.3575701 -0.49138001 0.59821904
1.34838 -0.48124298 0.59977204
1.33881 -0.46878102 0.60189104
1.33463 -0.45758203 0.60295403
1.3267599 -0.44718799 0.60477805
1.31485 -0.44017202 0.60671598
1.31267 -0.43129298 0.60723102
1.3569901 -0.49909401 0.59497303
1.3469901 -0.48937199 0.59673506
1.33845 -0.47889301 0.59756804
1.33735 -0.46706903 0.59823304
1.33753 -0.45790002 0.59779406
1.3295701 -0.44957802 0.59978402
1.3173801 -0.43965599 0.60245103
1.3605599 -0.50802898 0.58932602
1.35393 -0.49706101 0.59128302
1.3405701 -0.48823398 0.59367299
1.33819 -0.48121202 0.59313905
1.3353701 -0.47171199 0.59404105
1.3369299 -0.461422 0.59393501
1.33539 -0.45221001 0.59442103
1.3252699 -0.443771 0.59686303
1.31625 -0.43239897 0.59914303
1.35949 -0.50933498 0.58517599
1.35537 -0.501688 0.58633804
1.34539 -0.490706 0.58894104
1.3408999 -0.47849602 0.59011805
1.34433 -0.46737498 0.58999902
1.3463 -0.457463 0.58990908
1.34567 -0.44959998 0.59045202
1.3643601 -0.50023997 0.582573
1.3104401 -0.428022 0.61892706
1.3099699 -0.43866903 0.61703503
1.3128999 -0.428947 0.61440301
1.31774 -0.43860501 0.61450702
1.3180701 -0.448645 0.61407304
1.32038 -0.458112 0.61329401
1.32467 -0.46623299 0.61260903
1.31549 -0.43273103 0.61040407
1.3189 -0.44018501 0.61086905
1.3225 -0.44752601 0.61104101
1.3251899 -0.45881501 0.61036104
1.334 -0.46912801 0.61044204
1.33707 -0.47532699 0.61036801
1.3472999 -0.48422799 0.60918403
1.3173 -0.44119498 0.60710698
1.32373 -0.45094699 0.60725802
1.32287 -0.45925799 0.60570699
1.33069 -0.46881303 0.60655701
1.34073 -0.477355 0.60755104
1.35006 -0.485818 0.60627604
1.35515 -0.49519297 0.60550505
1.36001 -0.50588697 0.60496104
1.3543899 -0.51354998 0.60361105
1.30101 -0.43922502 0.60308403
1.31644 -0.44994599 0.60378003
1.31679 -0.45883399 0.60260004
1.32507 -0.46858001 0.60257101
1.3427299 -0.479132 0.60339403
1.35303 -0.489595 0.60254306
1.3601899 -0.49769402 0.60248303
1.3591901 -0.50398099 0.60292798
1.33754 -0.478313 0.60018003
1.34694 -0.48828202 0.59907907
1.35817 -0.49746299 0.59865904
1.3626199 -0.50503898 0.59940004
1.357 -0.49843103 0.59516603
1.3628 -0.50643599 0.59490007
1.35106 -0.50571001 0.59132504
1.3023 -0.43282902 0.61684805
1.31488 -0.44408903 0.61484504
1.3112601 -0.43669799 0.61312103
1.31988 -0.44658101 0.61174804
1.3275501 -0.455762 0.61103004
1.3172799 -0.439679 0.60875201
1.3231701 -0.45104998 0.60813707
1.3322501 -0.45976299 0.608226
1.33056 -0.46792901 0.607014
1.3303701 -0.47929001 0.60649508
1.32748 -0.48681599 0.60590601
1.3318601 -0.49399102 0.60529101
1.30187 -0.435969 0.60467607
1.3220199 -0.44916099 0.60542798
1.32978 -0.46086299 0.60479301
1.33684 -0.47191501 0.603863
1.3373399 -0.47849602 0.60446805
1.33307 -0.48700002 0.60383403
1.3446699 -0.49666801 0.60334104
1.34881 -0.50496298 0.60260403
1.3119099 -0.45396599 0.60197806
1.3360801 -0.47287399 0.60103703
1.3390499 -0.48126802 0.60108602
1.34535 -0.491162 0.60113204
1.34724 -0.50008202 0.59970301
1.36181 -0.510364 0.60005301
1.33243 -0.48012698 0.59791303
1.34149 -0.49057099 0.59775102
1.3507299 -0.50228196 0.59648204
1.3582801 -0.50976598 0.59680104
1.30257 -0.434374 0.61419004
1.2977 -0.44003898 0.61348403
1.3126199 -0.44088501 0.610659
1.3143699 -0.44743499 0.61132705
1.3208799 -0.459122 0.60987103
1.3235201 -0.46826401 0.60905904
1.3143201 -0.44120997 0.60638505
1.3169299 -0.45095298 0.60751903
1.3269401 -0.46370399 0.60660303
1.3337399 -0.474094 0.60615301
1.31968 -0.47289398 0.60685205
1.31124 -0.44174701 0.60230505
1.3203 -0.45410499 0.60294604
1.32976 -0.467704 0.60253108
1.3381701 -0.47748199 0.60258603
1.3439599 -0.48737401 0.60164303
1.3421201 -0.49710098 0.60033107
1.3141099 -0.45186999 0.59938705
1.32793 -0.46483698 0.59948802
1.3377099 -0.478219 0.59894103
1.34852 -0.49136201 0.59801304
1.35084 -0.49976298 0.59828103
1.3468601 -0.50818598 0.59727401
1.3355 -0.51439601 0.59534001
1.3247099 -0.47056499 0.59649801
1.3491 -0.49266702 0.59450305
1.3510699 -0.50047702 0.59428507
1.3534199 -0.50990301 0.59448302
1.34351 -0.51639003 0.59343803
1.3438001 -0.52361196 0.59261507
1.33618 -0.491348 0.59024602
1.35004 -0.500907 0.59089905
1.3569299 -0.51093501 0.59070402
1.34681 -0.508654 0.58723402
1.3078101 -0.432585 0.61289406
1.3046401 -0.43853 0.61310703
1.31118 -0.43659699 0.60855705
1.31249 -0.44385201 0.61005604
1.32338 -0.457766 0.60976905
1.33327 -0.47404599 0.60890698
1.33187 -0.48008999 0.60865301
1.3185201 -0.44991699 0.60561204
1.3299099 -0.466405 0.60598302
1.3360801 -0.47702399 0.606359
1.3417599 -0.48608798 0.60618401
1.31504 -0.448686 0.60156006
1.3269401 -0.46382901 0.60207802
1.33687 -0.47896001 0.60247099
1.3468601 -0.49235803 0.60238701
1.35037 -0.50062901 0.60275203
1.3557 -0.51340997 0.60132605
1.3462 -0.51682699 0.60054302
1.31364 -0.45496899 0.59903407
1.3382699 -0.47949401 0.59904701
1.3462601 -0.49207801 0.59888506
1.3529601 -0.50442296 0.59918302
1.3331399 -0.483863 0.59601802
1.3574699 -0.50981402 0.59438604
1.35543 -0.51071399 0.59005606
1.35149 -0.51348996 0.58718401
