# .PCD v0.7 - Point Cloud Data file format
VERSION 0.7
FIELDS x y z
SIZE 4 4 4
TYPE F F F
COUNT 1 1 1
WIDTH 1088
HEIGHT 1
VIEWPOINT 0 0 0 1 0 0 0
POINTS 1088
DATA ascii
1.15569 -0.58028501 1.8612201
1.16026 -0.572864 1.86
1.1507801 -0.58533698 1.85054
1.1511799 -0.57805598 1.8499302
1.15827 -0.57048398 1.8500202
1.16219 -0.55958802 1.84733
1.17348 -0.551247 1.8500301
1.1845601 -0.54731798 1.8553101
1.1591201 -0.58978403 1.8512702
1.16093 -0.58116198 1.85015
1.16563 -0.57177401 1.84613
1.1636599 -0.56037301 1.8417101
1.16848 -0.55136001 1.8417401
1.17672 -0.54429197 1.8439
1.18238 -0.53812999 1.84443
1.17361 -0.59594798 1.8576601
1.1687599 -0.58446097 1.84856
1.16829 -0.57025599 1.84044
1.1701599 -0.562154 1.8388901
1.17045 -0.55375701 1.83723
1.17349 -0.54466403 1.83479
1.17759 -0.53468698 1.83261
1.18515 -0.52960402 1.8357
1.18385 -0.519889 1.8280499
1.1793901 -0.59228301 1.8544101
1.18371 -0.58944803 1.85603
1.17776 -0.56275797 1.83764
1.17551 -0.55232102 1.83153
1.17686 -0.54082698 1.8268301
1.1784201 -0.532377 1.8246499
1.18051 -0.52370298 1.8221301
1.18739 -0.51582402 1.82263
1.18379 -0.55464101 1.83113
1.1800801 -0.54344898 1.8226001
1.18161 -0.53242499 1.81903
1.18234 -0.52154899 1.81356
1.18327 -0.51236498 1.81185
1.18441 -0.54582101 1.82156
1.18718 -0.53590196 1.8171401
1.1860601 -0.52413297 1.80988
1.18638 -0.514063 1.8062701
1.19055 -0.52419996 1.8062201
1.19073 -0.51543802 1.80208
1.20137 -0.51709998 1.8030499
1.14923 -0.57994801 1.86011
1.145 -0.57819301 1.8520801
1.15308 -0.57173902 1.8532201
1.1606899 -0.56526697 1.8528601
1.14779 -0.58098 1.84703
1.1486599 -0.57068503 1.84501
1.1550701 -0.56338197 1.84395
1.16162 -0.55528098 1.84227
1.16903 -0.54578602 1.84018
1.15336 -0.58041 1.84147
1.15254 -0.57043803 1.8392401
1.16049 -0.56125998 1.8376601
1.16158 -0.54965597 1.83349
1.1646399 -0.54016799 1.8289101
1.1705899 -0.53268301 1.82902
1.18068 -0.526492 1.83093
1.15806 -0.58437097 1.8408999
1.1593699 -0.57200903 1.83509
1.1648899 -0.56263602 1.83218
1.1637501 -0.55006599 1.8269701
1.16852 -0.54062903 1.8243401
1.1711 -0.53327703 1.8246001
1.17855 -0.52544302 1.8240499
1.18639 -0.51954603 1.8253601
1.16802 -0.57880098 1.83849
1.16855 -0.56636101 1.8311801
1.1708699 -0.55706698 1.82763
1.17383 -0.54573798 1.8224701
1.1772599 -0.53398496 1.8202001
1.17935 -0.52247298 1.81505
1.1843801 -0.51583499 1.8161402
1.1704 -0.55359697 1.82011
1.18426 -0.54891402 1.8236001
1.18142 -0.53711396 1.81578
1.18185 -0.52509302 1.8103501
1.18454 -0.51484603 1.80767
1.18849 -0.54081702 1.8168401
1.1906099 -0.53009397 1.8110901
1.18416 -0.51476896 1.7990899
1.19233 -0.51648599 1.796
1.20241 -0.51837999 1.7939501
1.20304 -0.51869398 1.7895401
1.2089801 -0.51540101 1.7922299
1.14319 -0.57712197 1.84744
1.14759 -0.56805497 1.8451401
1.15669 -0.56103402 1.8458802
1.15997 -0.55110598 1.84097
1.1443801 -0.58004701 1.8441299
1.14895 -0.57069403 1.8414
1.1533101 -0.55840701 1.8371899
1.15785 -0.54648703 1.8316799
1.16501 -0.53917098 1.8320801
1.17281 -0.53045499 1.8306601
1.14654 -0.57810301 1.83723
1.1517501 -0.56590098 1.83293
1.15663 -0.55490202 1.8288699
1.15824 -0.54381102 1.82353
1.1616501 -0.53709298 1.8241299
1.16775 -0.52827001 1.82175
1.17774 -0.52158099 1.8233099
1.1865799 -0.51724398 1.8257501
1.15581 -0.57069099 1.8327099
1.15876 -0.558568 1.82564
1.16397 -0.54882997 1.82199
1.16615 -0.53695303 1.81836
1.16957 -0.52780801 1.8155801
1.17554 -0.52085799 1.8156101
1.18084 -0.50854999 1.8130301
1.17162 -0.55316603 1.8219701
1.17158 -0.54117 1.8150101
1.1760399 -0.52995998 1.8123599
1.1812999 -0.518592 1.8097501
1.18142 -0.50787604 1.8055801
1.17923 -0.54659998 1.8166901
1.18325 -0.535631 1.81138
1.1842999 -0.52206302 1.80452
1.18567 -0.51049304 1.8018401
1.19715 -0.52857 1.80694
1.19146 -0.51209801 1.7957901
1.2029799 -0.51837003 1.79634
1.14291 -0.57874501 1.8552001
1.1477 -0.56648302 1.8506202
1.1618 -0.56429499 1.8561701
1.13937 -0.574754 1.84517
1.14564 -0.562985 1.8424801
1.1543499 -0.55887902 1.84603
1.1590101 -0.54797697 1.84024
1.16927 -0.53941703 1.8389
1.13463 -0.58139598 1.83959
1.1423301 -0.57606101 1.84
1.14709 -0.56615603 1.83673
1.1526899 -0.55571902 1.8367801
1.15751 -0.54558396 1.8313699
1.16264 -0.53485698 1.8279501
1.1740299 -0.52823001 1.82943
1.18479 -0.52194196 1.8298001
1.14412 -0.57576197 1.8346801
1.1511199 -0.566203 1.8304601
1.15591 -0.55561799 1.8285699
1.1601 -0.541906 1.8231601
1.16458 -0.534042 1.82179
1.17048 -0.527448 1.8215399
1.17682 -0.51649702 1.8179501
1.1549801 -0.57088602 1.8305
1.16064 -0.56076998 1.8263699
1.1632 -0.54752803 1.82026
1.16817 -0.53507304 1.8170301
1.1752601 -0.52557397 1.8155999
1.17814 -0.51480901 1.80936
1.16916 -0.554106 1.82146
1.17486 -0.544415 1.8190399
1.1745 -0.52377599 1.8072701
1.18056 -0.51498598 1.8039402
1.18441 -0.513125 1.7986
1.15374 -0.54585701 1.83487
1.1590101 -0.54077703 1.8350501
1.16825 -0.53656298 1.8364401
1.15052 -0.544572 1.82705
1.15658 -0.54186898 1.83015
1.1605899 -0.53166801 1.8256601
1.16843 -0.52038503 1.82292
1.18032 -0.51246703 1.82418
1.1511799 -0.54508704 1.8220001
1.15748 -0.54135001 1.8229901
1.1604199 -0.53002399 1.8180701
1.1675299 -0.52142501 1.8160001
1.17159 -0.50628603 1.81165
1.15583 -0.54884499 1.8210601
1.1594599 -0.54194301 1.81862
1.1634899 -0.52974302 1.8129699
1.16987 -0.52052504 1.80922
1.1724 -0.50755399 1.8031201
1.17144 -0.51638198 1.80098
1.17425 -0.50459898 1.79343
1.18382 -0.51133502 1.7947201
1.19461 -0.52558303 1.82952
1.18889 -0.53633499 1.8371
1.2025499 -0.51544201 1.81573
1.1889701 -0.53605598 1.83121
1.15994 -0.58261102 1.85905
1.19449 -0.52960402 1.81892
1.1730599 -0.56282502 1.8412399
1.18213 -0.54361403 1.82447
1.15853 -0.57861197 1.8458099
1.19523 -0.52395803 1.82386
1.18621 -0.54253101 1.8351001
1.18734 -0.55075002 1.8368499
1.2003701 -0.51562399 1.81353
1.19215 -0.53452897 1.8228202
1.17875 -0.55846298 1.8387899
1.1609401 -0.58770198 1.85611
1.20005 -0.51378 1.80494
1.18795 -0.53542596 1.81802
1.18233 -0.55302799 1.82796
1.16729 -0.57809198 1.8442401
1.1942401 -0.51930696 1.80304
1.18156 -0.54407001 1.82012
1.1724299 -0.56474 1.83199
1.19277 -0.52776504 1.82462
1.186 -0.54224604 1.8321899
1.19899 -0.51966101 1.81319
1.19096 -0.53662103 1.8225399
1.1810299 -0.55614603 1.83315
1.16975 -0.57338101 1.8460001
1.16767 -0.58138299 1.8497
1.19507 -0.52372503 1.8096001
1.18425 -0.54317999 1.8212399
1.1762 -0.55968499 1.8299
1.1720099 -0.570723 1.83856
1.1901799 -0.52675498 1.80691
1.17884 -0.54979402 1.82038
1.17334 -0.56122398 1.82662
1.17193 -0.568326 1.8310601
1.16694 -0.56396198 1.82853
1.12836 -0.570297 1.85612
1.1359401 -0.56335998 1.85524
1.1467099 -0.55598301 1.8532101
1.1569 -0.55197799 1.8522501
1.13299 -0.56921601 1.85129
1.13459 -0.56329399 1.85179
1.14229 -0.55690801 1.85078
1.14912 -0.54894197 1.8495101
1.16538 -0.54892397 1.84884
1.14763 -0.57509702 1.84746
1.1433899 -0.56396997 1.8468201
1.14826 -0.55506003 1.8460101
1.15284 -0.548926 1.8456601
1.1522499 -0.54117501 1.84495
1.15516 -0.53690398 1.8449401
1.15484 -0.56854898 1.84194
1.15258 -0.55866301 1.84147
1.15212 -0.547261 1.84137
1.15231 -0.53883803 1.8406
1.1557599 -0.53321701 1.83972
1.16124 -0.57047796 1.8385201
1.16404 -0.56562304 1.83815
1.15851 -0.55107099 1.83705
1.15501 -0.53796697 1.8361
1.15569 -0.52828002 1.8347
1.1595401 -0.52284402 1.8344799
1.1684999 -0.514575 1.8319
1.18085 -0.511168 1.8310502
1.16213 -0.53960204 1.8316501
1.16353 -0.531196 1.8305401
1.16301 -0.52178001 1.8304901
1.17093 -0.514893 1.82819
1.17128 -0.50672001 1.8284799
1.1793901 -0.53628099 1.8259201
1.16947 -0.52255499 1.82526
1.1735801 -0.51456797 1.82386
1.17286 -0.50746202 1.8248401
1.1813099 -0.52632803 1.8205801
1.17707 -0.51604998 1.8197
1.17532 -0.50706697 1.82028
1.19008 -0.51961899 1.8150101
1.13388 -0.56863397 1.8574899
1.14902 -0.56405199 1.8561301
1.16002 -0.56133902 1.8552201
1.1342601 -0.56854701 1.8534799
1.1421601 -0.56160802 1.8532501
1.1469101 -0.55347699 1.85271
1.1607701 -0.553532 1.85149
1.13585 -0.56910902 1.84929
1.13982 -0.56070304 1.8487601
1.1474299 -0.55421102 1.8486099
1.15404 -0.549016 1.84843
1.15615 -0.54028398 1.8458
1.14167 -0.57271898 1.84656
1.13956 -0.55980402 1.84501
1.1426001 -0.55160403 1.84444
1.15142 -0.54530996 1.8433099
1.15192 -0.53321201 1.84059
1.15536 -0.52626699 1.8400301
1.14894 -0.55033898 1.84004
1.14719 -0.53726399 1.8380301
1.15457 -0.53280497 1.83675
1.15786 -0.52510297 1.83569
1.1638 -0.51691699 1.8347101
1.17302 -0.51207101 1.83316
1.15371 -0.54204601 1.83544
1.15459 -0.53094798 1.83304
1.1617199 -0.52409303 1.8306301
1.165 -0.517286 1.8307401
1.16782 -0.50932699 1.8302499
1.165 -0.52403301 1.82599
1.16561 -0.51790404 1.8263401
1.16915 -0.510952 1.8257501
1.17248 -0.52392 1.8203601
1.16926 -0.51595199 1.82096
1.16862 -0.50663298 1.82061
1.1769201 -0.51755404 1.8157102
1.17238 -0.50635201 1.8151401
1.18382 -0.51075101 1.8101401
1.12892 -0.56851798 1.86142
1.13948 -0.56920302 1.8612601
1.12833 -0.56785101 1.85729
1.13396 -0.561055 1.85589
1.1291699 -0.564987 1.85224
1.1336499 -0.55462003 1.84998
1.13993 -0.54842001 1.8489701
1.14843 -0.542072 1.84681
1.13519 -0.57025301 1.84912
1.13301 -0.55476201 1.84655
1.13928 -0.54690802 1.84501
1.1434799 -0.53943402 1.84461
1.15306 -0.534648 1.84201
1.1648201 -0.53375399 1.8406301
1.1573501 -0.56147301 1.83709
1.14517 -0.54846001 1.8392301
1.1476101 -0.54045504 1.8399899
1.1564499 -0.53515899 1.8375201
1.15883 -0.52626902 1.83646
1.15572 -0.55289602 1.8343401
1.15558 -0.54312998 1.8342001
1.15968 -0.53219002 1.83261
1.16204 -0.52385104 1.8319
1.1684201 -0.51747698 1.8299701
1.1733899 -0.50911498 1.8281701
1.1669899 -0.55182803 1.8305401
1.1626101 -0.53510797 1.8286901
1.16415 -0.52272898 1.8273001
1.16638 -0.51362205 1.8260901
1.1699901 -0.50581402 1.8248401
1.1746399 -0.528207 1.8223701
1.16759 -0.51178199 1.8213699
1.17119 -0.51226896 1.81647
1.13633 -0.56318098 1.8583599
1.1483799 -0.55866903 1.85612
1.12638 -0.56648397 1.8538201
1.13606 -0.56278902 1.85393
1.1433899 -0.55456901 1.8528301
1.15184 -0.54942298 1.85111
1.1291699 -0.569543 1.8495599
1.13236 -0.560597 1.84926
1.14097 -0.55434 1.8481101
1.14704 -0.54323 1.8462701
1.1547199 -0.53752601 1.8451902
1.1384701 -0.57729602 1.8462201
1.1362799 -0.55957103 1.8443701
1.14389 -0.54898101 1.8417401
1.14993 -0.54061401 1.84017
1.15531 -0.53442198 1.8404199
1.16327 -0.52974999 1.83903
1.15228 -0.55592096 1.83759
1.1488301 -0.54057097 1.8359101
1.15497 -0.53255498 1.8352301
1.15939 -0.52494901 1.83524
1.16694 -0.51625097 1.8321301
1.1763901 -0.51117498 1.8309399
1.15899 -0.54966903 1.83261
1.16066 -0.53631002 1.83056
1.1596199 -0.52171302 1.82986
1.16405 -0.51100802 1.82664
1.1702 -0.50567698 1.8269401
1.1621801 -0.51807302 1.8231
1.16201 -0.50815898 1.8219101
1.16787 -0.50332099 1.8213201
1.17141 -0.52040297 1.81636
1.16562 -0.50775099 1.8166001
1.17387 -0.51273602 1.8113201
1.1607499 -0.53174704 1.83761
1.16123 -0.52422899 1.8373902
1.1526 -0.52405101 1.834
1.16064 -0.52481699 1.8348901
1.16585 -0.517856 1.8328601
1.17944 -0.51944304 1.8316901
1.15292 -0.52454495 1.82819
1.15786 -0.52079302 1.8299099
1.16406 -0.51325399 1.82709
1.17023 -0.50838798 1.8273401
1.15413 -0.52546501 1.8234601
1.15776 -0.51882398 1.8229501
1.16167 -0.50969297 1.82201
1.1714 -0.50615299 1.8210502
1.15667 -0.52610099 1.81945
1.16916 -0.526164 1.8169299
1.16827 -0.51290399 1.8163102
1.17732 -0.51876801 1.8105
1.16598 -0.51128799 1.82235
1.17023 -0.51318699 1.82136
1.1709 -0.50735402 1.8182001
1.17326 -0.50986403 1.81662
1.13587 -0.566365 1.84914
1.1358399 -0.573722 1.85018
1.142 -0.54797196 1.84004
1.142 -0.55800802 1.8428
1.13729 -0.56906801 1.84478
1.149 -0.53238302 1.8330001
1.1531501 -0.53819799 1.8338901
1.14449 -0.55305201 1.8378202
1.1357599 -0.56582904 1.8392301
1.1598001 -0.52633399 1.8284202
1.15543 -0.53487998 1.8295401
1.15483 -0.54282004 1.83069
1.16477 -0.51124698 1.8191501
1.16418 -0.51874804 1.8209201
1.16124 -0.52977699 1.82436
1.1551499 -0.53752303 1.8241102
1.16951 -0.50687999 1.8148599
1.16984 -0.51337099 1.81586
1.1684101 -0.52145302 1.81775
1.17081 -0.50835699 1.8099301
1.1462001 -0.576343 1.8523401
1.16152 -0.575903 1.84776
1.14635 -0.58099097 1.8493401
1.14999 -0.57202703 1.8481601
1.1533101 -0.564933 1.8482699
1.15661 -0.57171702 1.8442199
1.1567299 -0.565813 1.8437701
1.15511 -0.55983698 1.84281
1.1680599 -0.56256998 1.8394101
1.16037 -0.56124002 1.8392999
1.16154 -0.55195099 1.8376499
1.1638401 -0.54440802 1.83716
1.16908 -0.55433398 1.8351401
1.16302 -0.55132502 1.83452
1.16277 -0.54307598 1.83284
1.16681 -0.53576899 1.83284
1.1673 -0.54512 1.82996
1.16679 -0.53839999 1.8283701
1.16755 -0.53326899 1.82797
1.1903601 -0.52512097 1.8211
1.17519 -0.53094399 1.82315
1.17686 -0.525361 1.8226601
1.1879799 -0.52043897 1.8177701
1.18293 -0.51825202 1.8171899
1.15038 -0.577384 1.85804
1.14213 -0.57992804 1.85427
1.15324 -0.571724 1.8548001
1.14442 -0.58205897 1.8502899
1.14345 -0.57824701 1.8503799
1.14571 -0.57234597 1.8497
1.14844 -0.57953 1.84563
1.14473 -0.576608 1.84646
1.15001 -0.56749296 1.8444601
1.1547 -0.56119704 1.84481
1.1543499 -0.576864 1.8426901
1.15615 -0.56995499 1.8421302
1.15453 -0.563613 1.84056
1.15622 -0.55655301 1.83953
1.1591201 -0.55858004 1.83629
1.16381 -0.54964805 1.8347299
1.1673501 -0.54218501 1.8338501
1.17205 -0.54964399 1.8315399
1.16495 -0.54872501 1.8316001
1.1690201 -0.54016995 1.83043
1.17472 -0.53013301 1.8284601
1.17609 -0.54014599 1.82737
1.17638 -0.53294998 1.8260502
1.1772599 -0.52565402 1.8242301
1.1785901 -0.51933897 1.8233801
1.1791999 -0.52842098 1.8211402
1.18331 -0.519391 1.8196499
1.18027 -0.514395 1.81853
1.19348 -0.51933104 1.81576
1.1794699 -0.52099204 1.8160001
1.1855999 -0.51077598 1.81422
1.19101 -0.512465 1.8111801
1.18381 -0.50907499 1.80969
1.1512101 -0.580172 1.8579001
1.1520801 -0.57669997 1.8544
1.1544 -0.56876802 1.8526601
1.16684 -0.55880404 1.85209
1.15663 -0.57245302 1.85103
1.15923 -0.56448799 1.8486099
1.15764 -0.55965 1.8483901
1.1589299 -0.56747103 1.84613
1.15765 -0.56342798 1.8451101
1.1612899 -0.55712396 1.84469
1.16624 -0.548235 1.8429501
1.16307 -0.55905604 1.84184
1.16368 -0.55271196 1.84056
1.1700701 -0.54396498 1.8387702
1.17809 -0.53425801 1.8376001
1.1719899 -0.54705697 1.8358099
1.1763099 -0.53822899 1.8345001
1.18225 -0.52862298 1.83367
1.19224 -0.52106398 1.8339101
1.1831601 -0.54127997 1.8305401
1.1756999 -0.53862202 1.83039
1.17862 -0.53003502 1.82986
1.18646 -0.520392 1.8297101
1.1867 -0.53347301 1.82647
1.17884 -0.53048599 1.82612
1.18388 -0.51983601 1.82443
1.18361 -0.512317 1.8237702
1.1851799 -0.52436399 1.82146
1.1841301 -0.51646399 1.8192401
1.18139 -0.51609403 1.8151001
1.1811299 -0.50930804 1.8106601
1.14441 -0.57979798 1.8568801
1.1441101 -0.57340401 1.8563401
1.14763 -0.576428 1.85265
1.14583 -0.57175803 1.85331
1.14794 -0.56458998 1.8518201
1.16126 -0.55472398 1.8499701
1.1603299 -0.57840699 1.84895
1.15084 -0.57510602 1.8487601
1.15031 -0.56876802 1.84935
1.15563 -0.55918801 1.8473599
1.16089 -0.55107999 1.8462601
1.1613899 -0.571679 1.8450501
1.15738 -0.56546998 1.84464
1.155 -0.55845904 1.8436301
1.15967 -0.55054498 1.84273
1.17317 -0.54101896 1.8419701
1.16795 -0.56277001 1.8410801
1.1586599 -0.55672902 1.84015
1.15888 -0.54930198 1.83909
1.16716 -0.540703 1.8380901
1.17855 -0.53139704 1.8371701
1.16755 -0.55530703 1.83759
1.16405 -0.54679 1.8358802
1.1663201 -0.53867 1.8342801
1.16883 -0.53097498 1.8331399
1.1813201 -0.52238798 1.8326499
1.16857 -0.53533101 1.8300101
1.17278 -0.52789599 1.8286301
1.1752 -0.52151299 1.82867
1.18363 -0.51525599 1.8285401
1.17453 -0.53121495 1.82533
1.16809 -0.52891201 1.82547
1.17488 -0.52129298 1.8246001
1.17786 -0.51403099 1.82353
1.17901 -0.52343202 1.82149
1.17791 -0.517079 1.8203501
1.18147 -0.509875 1.8183099
1.1810399 -0.51368403 1.8159201
1.1453099 -0.57570302 1.85466
1.145 -0.56751502 1.8529501
1.14458 -0.58104903 1.8519701
1.14807 -0.57304102 1.8509601
1.14702 -0.56752998 1.85115
1.1489199 -0.560341 1.8493701
1.15679 -0.57938898 1.8484501
1.14856 -0.57263398 1.8474001
1.14975 -0.56569499 1.8475701
1.15402 -0.557428 1.84534
1.15781 -0.55103803 1.84479
1.15589 -0.57062799 1.84376
1.1544499 -0.56340998 1.84302
1.1560299 -0.55620599 1.84194
1.15899 -0.54922098 1.8411
1.16764 -0.54182899 1.8404001
1.16942 -0.561396 1.83919
1.16082 -0.554465 1.8383
1.1586499 -0.547566 1.83737
1.1658599 -0.539967 1.83646
1.17435 -0.53208196 1.83584
1.16974 -0.55254102 1.8343899
1.1624501 -0.54557997 1.8334
1.16429 -0.53747797 1.83207
1.1650599 -0.53065801 1.8321301
1.17644 -0.52235901 1.83113
1.18318 -0.515836 1.83029
1.17413 -0.54374295 1.8294601
1.16135 -0.53752202 1.82847
1.16538 -0.53080601 1.8284799
1.16833 -0.52258998 1.82737
1.17116 -0.51601005 1.8269701
1.17281 -0.534926 1.8246601
1.1675299 -0.52813303 1.82403
1.16601 -0.521272 1.8232502
1.16974 -0.515136 1.8228799
1.1784999 -0.50888097 1.82198
1.1779 -0.52557999 1.81987
1.17093 -0.51886398 1.8191501
1.17378 -0.511186 1.8180901
1.18302 -0.51658702 1.81481
1.1779699 -0.51040298 1.81384
1.1647201 -0.58124501 1.85238
1.1704 -0.58946997 1.8535299
1.17404 -0.56958199 1.8458099
1.18027 -0.57733101 1.8467599
1.17381 -0.586348 1.84873
1.16845 -0.59615099 1.85027
1.18556 -0.566342 1.8407401
1.1857901 -0.573282 1.84104
1.17687 -0.58378601 1.8433701
1.1693699 -0.59413999 1.84512
1.18968 -0.54535502 1.83189
1.1914901 -0.55368 1.83334
1.19006 -0.56448501 1.8360699
1.18761 -0.57305598 1.83675
1.17319 -0.58265096 1.8390201
1.19055 -0.53354198 1.8263
1.20135 -0.54147899 1.82706
1.19695 -0.54902399 1.8276601
1.18998 -0.56091499 1.8309799
1.18247 -0.57266402 1.83384
1.20074 -0.52371603 1.8193401
1.2062 -0.53112596 1.82108
1.1997499 -0.53946501 1.82222
1.1963099 -0.54718 1.8226601
1.20985 -0.52202702 1.81452
1.20451 -0.53061002 1.8167701
1.2020301 -0.537727 1.81656
1.1908001 -0.54337901 1.81701
1.21637 -0.51772499 1.8083501
1.20824 -0.52707696 1.8107102
1.19482 -0.534787 1.8119102
1.21373 -0.51734102 1.8046899
1.2105 -0.52453303 1.8058301
1.21921 -0.51285499 1.7992599
1.1695501 -0.584126 1.8510001
1.17364 -0.59245497 1.8520199
1.17909 -0.56923503 1.8435401
1.1807599 -0.58090097 1.84595
1.1757901 -0.58901799 1.8478601
1.1724401 -0.59774899 1.84957
1.18054 -0.54981798 1.83775
1.1891 -0.55859697 1.8379
1.18571 -0.57028902 1.84013
1.18013 -0.57842499 1.84156
1.17825 -0.58529299 1.84258
1.18618 -0.53919798 1.83244
1.19443 -0.547557 1.8329501
1.19143 -0.55479902 1.8330499
1.18642 -0.56488401 1.83443
1.1829 -0.57561702 1.8360901
1.17024 -0.581056 1.8368201
1.19469 -0.52883101 1.8247501
1.19322 -0.53799403 1.82785
1.19337 -0.54550201 1.8282502
1.18962 -0.55605596 1.8288502
1.18151 -0.56632596 1.8302799
1.17029 -0.57359296 1.8318601
1.19091 -0.51772803 1.8185201
1.20342 -0.52572602 1.8191
1.19884 -0.53481698 1.8219701
1.1945601 -0.54573601 1.82371
1.17992 -0.55778497 1.8262601
1.17591 -0.56656396 1.8275201
1.20482 -0.51819998 1.8138001
1.2054 -0.52564698 1.8152001
1.19866 -0.53329897 1.8172299
1.21477 -0.51367599 1.80662
1.20778 -0.52092999 1.80887
1.20709 -0.52797198 1.8105
1.2149299 -0.51333499 1.8029199
1.20998 -0.519162 1.80416
1.1724601 -0.58081603 1.84991
1.16768 -0.59227002 1.85288
1.18029 -0.56243098 1.84319
1.18191 -0.571549 1.8441401
1.1726899 -0.58124804 1.84729
1.17013 -0.588907 1.84746
1.19166 -0.55041802 1.8360101
1.1908799 -0.56031501 1.8382001
1.1851001 -0.568663 1.83866
1.17363 -0.57876998 1.8425101
1.1643801 -0.58795702 1.8440701
1.20023 -0.54394698 1.83069
1.1987799 -0.55170602 1.8328799
1.19031 -0.558424 1.8332001
1.18428 -0.56596601 1.83333
1.17839 -0.57523799 1.8366001
1.2014199 -0.52970999 1.82296
1.20523 -0.53849798 1.8243401
1.1972799 -0.548011 1.8271899
1.18677 -0.55685103 1.8282601
1.18055 -0.56463403 1.83013
1.20296 -0.519261 1.8168499
1.20925 -0.52872199 1.81827
1.20193 -0.53674597 1.82016
1.1921099 -0.54645598 1.8226199
1.17888 -0.555498 1.82544
1.21578 -0.51875997 1.81171
1.2094001 -0.526739 1.81322
1.19784 -0.53392202 1.8152301
1.21455 -0.51697999 1.8064101
1.21128 -0.52445596 1.8071702
1.2158999 -0.51661599 1.80133
1.2075599 -0.51957899 1.8014101
1.2164 -0.51216 1.7955499
1.1609401 -0.57850397 1.8550301
1.16952 -0.58881402 1.8552499
1.17178 -0.56931001 1.8491101
1.17629 -0.57921296 1.84992
1.17504 -0.58796901 1.8504601
1.1769201 -0.55935001 1.84272
1.18378 -0.56970298 1.8437201
1.17897 -0.579198 1.8445101
1.1739 -0.59024101 1.8468201
1.19863 -0.54012603 1.83248
1.1983 -0.54803801 1.8333501
1.1925399 -0.56038499 1.83741
1.18644 -0.56816 1.83816
1.18455 -0.57768601 1.8385299
1.1733899 -0.58755201 1.84198
1.2010399 -0.53052199 1.82682
1.20427 -0.53920299 1.8282502
1.2040401 -0.54718703 1.82875
1.19484 -0.55668098 1.83125
1.1869 -0.56708002 1.83324
1.1729599 -0.57554698 1.8365201
1.20812 -0.53101897 1.8219
1.20733 -0.539738 1.82402
1.20428 -0.54797298 1.82418
1.1942401 -0.55478698 1.8255801
1.20128 -0.519611 1.8164001
1.21336 -0.52803004 1.81556
1.20776 -0.536708 1.81784
1.2042 -0.54654902 1.8193301
1.19199 -0.55158901 1.8211801
1.20904 -0.51822001 1.8101401
1.2126499 -0.526281 1.81065
1.20627 -0.53407001 1.8125501
1.21759 -0.51609004 1.80358
1.20788 -0.52216303 1.80541
1.21733 -0.512896 1.79728
1.16189 -0.58268702 1.85453
1.18135 -0.56347698 1.8441501
1.18168 -0.57214296 1.8453701
1.1725 -0.58310503 1.84955
1.16555 -0.59064096 1.85027
1.18669 -0.55261797 1.83833
1.18752 -0.56242102 1.8395801
1.1835901 -0.57111096 1.84146
1.1733299 -0.579216 1.8436999
1.16661 -0.58982301 1.8448001
1.19444 -0.53959399 1.8305099
1.1948301 -0.55097902 1.8329101
1.19075 -0.55932301 1.83375
1.18357 -0.56932497 1.83647
1.17293 -0.57919604 1.8388699
1.1617299 -0.58822298 1.8417401
1.2013099 -0.53400904 1.82564
1.1996399 -0.54057097 1.8264802
1.1954499 -0.55004698 1.8276901
1.1875 -0.559012 1.8294601
1.17979 -0.56709802 1.8318499
1.2049199 -0.521761 1.81671
1.2051101 -0.53131902 1.8194799
1.19976 -0.53934598 1.82085
1.1888601 -0.54733801 1.8232001
1.1839299 -0.55784696 1.8263299
1.2084401 -0.51994801 1.8114101
1.20543 -0.53038102 1.8142999
1.19707 -0.53495002 1.8145401
1.2119 -0.51705897 1.8051699
1.2032399 -0.52504504 1.8075399
1.19152 -0.52743304 1.8080802
1.2083 -0.516137 1.8008301
1.19853 -0.52139997 1.80258
1.20151 -0.51298302 1.79761
1.18391 -0.59580398 1.86494
1.1686699 -0.59091204 1.85653
1.1649899 -0.58626002 1.8558
1.17825 -0.59256399 1.8552001
1.17142 -0.59051996 1.85203
1.17084 -0.58091301 1.8526901
1.17276 -0.57217997 1.8570801
1.18945 -0.58448499 1.8576699
1.17793 -0.58406699 1.84953
1.17344 -0.576711 1.84668
1.17281 -0.56997001 1.8509899
1.17786 -0.562069 1.8594201
1.18384 -0.57978296 1.84517
1.18146 -0.57338697 1.8456399
1.17277 -0.56984401 1.8404901
1.18054 -0.55994302 1.8582801
1.19581 -0.57242101 1.8471401
1.18766 -0.56984901 1.8410801
1.18022 -0.56503302 1.83843
1.18177 -0.55839801 1.8424001
1.1985099 -0.56902301 1.84113
1.19486 -0.56477797 1.83883
1.1891999 -0.55939502 1.83744
1.1824299 -0.55529803 1.8343101
1.20617 -0.56364703 1.8410901
1.2044799 -0.56036001 1.8413901
1.19818 -0.55540699 1.8371401
1.19156 -0.54859602 1.8332601
1.19471 -0.54084599 1.83901
1.2082599 -0.55452299 1.8387399
1.1993099 -0.54928899 1.83132
1.19642 -0.543037 1.8304601
1.19487 -0.53712499 1.8304001
1.20716 -0.54374903 1.8317001
1.20244 -0.537494 1.82873
1.20196 -0.52923799 1.8294501
1.20389 -0.52391303 1.83376
1.20737 -0.53305399 1.82379
1.20478 -0.52684397 1.8243099
1.2068599 -0.52013898 1.8295801
1.21561 -0.52575803 1.82121
1.21118 -0.52236003 1.82064
1.22513 -0.51875198 1.8227
1.21391 -0.520145 1.8152301
1.21764 -0.51422101 1.8102301
1.166 -0.587152 1.8618201
1.1712101 -0.58043402 1.86897
1.16794 -0.594419 1.85374
1.16945 -0.58534199 1.8556501
1.17126 -0.57911897 1.8611801
1.18599 -0.59127897 1.8590399
1.17706 -0.58851397 1.85374
1.17476 -0.58162701 1.85263
1.1726201 -0.57578802 1.85123
1.18959 -0.589486 1.85695
1.18492 -0.584939 1.85343
1.17625 -0.57940602 1.8466201
1.17665 -0.571356 1.8471401
1.1785901 -0.56370699 1.8484201
1.1843801 -0.57512903 1.84672
1.18102 -0.56732398 1.84324
1.18595 -0.55681098 1.84858
1.19267 -0.5499 1.85692
1.18498 -0.56968302 1.83849
1.18607 -0.563007 1.8387101
1.18685 -0.55583596 1.8419299
1.18698 -0.54922402 1.8439599
1.19328 -0.55869502 1.8379101
1.1896601 -0.55493301 1.8367401
1.18942 -0.54671103 1.83709
1.19941 -0.53710699 1.8483801
1.19818 -0.553873 1.8337399
1.1939399 -0.55003703 1.83241
1.1949099 -0.54212397 1.8344501
1.19292 -0.53592604 1.8334202
1.2039 -0.54407698 1.8316799
1.19952 -0.53845799 1.83097
1.19982 -0.529015 1.8321899
1.2052701 -0.52065498 1.8386099
1.21085 -0.54002899 1.8269
1.2053701 -0.53612304 1.8262801
1.20206 -0.52937901 1.82753
1.20126 -0.52079797 1.82787
1.1992099 -0.51459903 1.8250799
1.2172 -0.53662604 1.8252301
1.2148401 -0.53168899 1.8246499
1.20679 -0.52616799 1.8235
1.20373 -0.51714301 1.82085
1.2225 -0.53279799 1.82333
1.22207 -0.52661699 1.8227401
1.21071 -0.52256399 1.81664
1.20605 -0.51535803 1.81399
1.22789 -0.52453899 1.82293
1.22053 -0.51957297 1.8167001
1.21074 -0.51429296 1.8099899
1.23287 -0.51779497 1.82399
1.16573 -0.58833903 1.8587101
1.17602 -0.57883704 1.8696001
1.16986 -0.59395498 1.8541101
1.16821 -0.58480501 1.85244
1.17582 -0.57640201 1.8619101
1.1771801 -0.57130998 1.8643899
1.19627 -0.601605 1.8708999
1.19244 -0.59562802 1.8655701
1.1819 -0.591259 1.85594
1.17433 -0.58426398 1.8504001
1.17413 -0.57568598 1.8517101
1.17839 -0.567891 1.8568702
1.19302 -0.58640599 1.8595101
1.1796399 -0.58232999 1.84712
1.17565 -0.57599902 1.8453201
1.17593 -0.56694102 1.8450601
1.18366 -0.55784202 1.85274
1.18686 -0.57801998 1.8466201
1.18286 -0.57122201 1.8435
1.1819 -0.56346899 1.84289
1.18165 -0.55683303 1.84289
1.18836 -0.55023104 1.8506399
1.19181 -0.56728697 1.8419701
1.1853399 -0.56121701 1.8383
1.18663 -0.55382097 1.8404601
1.18556 -0.54934502 1.83966
1.2057099 -0.56154096 1.8456399
1.19507 -0.55858397 1.8366799
1.18841 -0.55288702 1.8345801
1.1898999 -0.54498696 1.8325601
1.20618 -0.55901998 1.8387702
1.20583 -0.55330598 1.83793
1.1943699 -0.55015397 1.8307102
1.19638 -0.54134202 1.83069
1.19612 -0.53312701 1.82985
1.21375 -0.55109602 1.8401
1.2041401 -0.54580098 1.8320001
1.1991 -0.53645498 1.8270301
1.2011 -0.52728903 1.82844
1.20482 -0.52091002 1.8322501
1.2190599 -0.54504502 1.8413401
1.20156 -0.536596 1.82528
1.19752 -0.52796102 1.8203101
1.20023 -0.51937699 1.82216
1.2015001 -0.51541799 1.8156799
1.19756 -0.51232398 1.8037601
1.17235 -0.58305502 1.8671499
1.16715 -0.58886302 1.8552201
1.16927 -0.58168596 1.8565601
1.18082 -0.57290399 1.8670001
1.1838 -0.59888697 1.86195
1.17522 -0.594769 1.8539599
1.17283 -0.58693802 1.8527899
1.17205 -0.57950401 1.8518301
1.17309 -0.57218897 1.8520199
1.17932 -0.56528598 1.85843
1.1924601 -0.59142298 1.8622501
1.1853299 -0.58557802 1.8550301
1.17567 -0.57771897 1.84733
1.17669 -0.569906 1.8480301
1.17878 -0.56362301 1.8496801
1.18879 -0.55878401 1.8628201
1.19881 -0.58229303 1.8592801
1.1884201 -0.57637101 1.84957
1.17979 -0.568151 1.84298
1.1772799 -0.56166303 1.84004
1.17905 -0.556449 1.8403101
1.20538 -0.57973701 1.85921
1.20328 -0.57364297 1.8561401
1.1891999 -0.56700999 1.8422799
1.1858799 -0.55873603 1.8398401
1.18866 -0.55056196 1.8403201
1.2022099 -0.56354696 1.84654
1.1908799 -0.55758303 1.83539
1.18815 -0.54959702 1.83276
1.18984 -0.54023099 1.8328799
1.19796 -0.53182703 1.84009
1.20381 -0.55329698 1.8384202
1.19803 -0.54867899 1.8343401
1.19445 -0.53983897 1.8297
1.1962301 -0.53098303 1.8326401
1.20582 -0.52596599 1.844
1.21456 -0.54810202 1.8388501
1.2046701 -0.54437 1.83104
1.19784 -0.53705102 1.8239
1.1976 -0.52950102 1.8252301
1.19968 -0.52084804 1.82649
1.21771 -0.540595 1.8332901
1.2081 -0.535748 1.82555
1.2009701 -0.52949202 1.82084
1.20262 -0.52030599 1.8214101
1.22873 -0.53703201 1.8356202
1.21974 -0.533086 1.8279099
1.20937 -0.52591902 1.81995
1.20636 -0.51803601 1.81701
1.23245 -0.53064299 1.8341299
1.22148 -0.523754 1.82307
1.2122101 -0.51536798 1.81472
1.16643 -0.58849299 1.8477899
1.1557 -0.58091903 1.8344501
1.18016 -0.59431601 1.8563901
1.17248 -0.58743197 1.84675
1.1678801 -0.580284 1.8410201
1.15932 -0.57558799 1.83232
1.18387 -0.58531499 1.8496201
1.1776999 -0.578969 1.84253
1.17445 -0.57289499 1.8386801
1.1898301 -0.583453 1.8489
1.18998 -0.577434 1.8471701
1.18321 -0.57027698 1.83856
1.18014 -0.564511 1.83373
1.1937001 -0.567779 1.8416101
1.1884201 -0.56220698 1.8348401
1.1866601 -0.55854303 1.8326901
1.19629 -0.56057 1.8368701
1.19595 -0.557015 1.8361501
1.20183 -0.55618101 1.83733
1.17476 -0.53021199 1.85374
1.1726201 -0.53975099 1.8567801
1.17433 -0.550098 1.8548801
1.1725299 -0.56407297 1.8560699
1.16488 -0.57749903 1.8631201
1.17638 -0.51917499 1.8465101
1.17621 -0.52772701 1.8464801
1.17281 -0.53903902 1.8518801
1.17643 -0.54842401 1.84763
1.1752601 -0.55933797 1.84857
1.1698101 -0.57247198 1.8526801
1.1636 -0.58589697 1.85958
1.18116 -0.51564497 1.83649
1.17988 -0.52488202 1.8366901
1.17302 -0.538845 1.84472
1.17351 -0.55180001 1.8445599
1.17093 -0.56241298 1.84577
1.16765 -0.57252604 1.84729
1.16345 -0.58327299 1.85221
1.18916 -0.51262903 1.8225101
1.17485 -0.52577996 1.8367701
1.17054 -0.55379504 1.8421201
1.16764 -0.565377 1.84333
1.16304 -0.576603 1.8470199
1.16995 -0.54605901 1.8581201
1.16804 -0.55552202 1.8607101
1.16987 -0.56673503 1.8586
1.16733 -0.57918 1.8603101
1.17661 -0.51507002 1.84553
1.1747899 -0.52257401 1.84787
1.17074 -0.53326398 1.8515201
1.16917 -0.544581 1.85357
1.1693 -0.55614603 1.85431
1.17265 -0.56779999 1.85069
1.17125 -0.57615501 1.85278
1.16637 -0.58641601 1.8557401
1.1765 -0.52160299 1.8407401
1.17136 -0.53129399 1.84457
1.1689299 -0.54039103 1.8479501
1.1659501 -0.55193001 1.8504801
1.1670099 -0.56594002 1.8494
1.16838 -0.57727003 1.84873
1.18644 -0.51732898 1.8253601
1.17627 -0.52758998 1.8338901
1.16422 -0.53710902 1.8456
1.1634899 -0.56495702 1.84738
1.15971 -0.57733202 1.84984
1.17349 -0.519454 1.8312801
1.16519 -0.52821499 1.8389
1.1593599 -0.55255502 1.86857
1.16043 -0.56263196 1.8675901
1.15889 -0.57401699 1.86809
1.16703 -0.524176 1.8569101
1.16485 -0.53171599 1.8590801
1.16395 -0.54280603 1.85961
1.16012 -0.55482101 1.86317
1.16062 -0.56683302 1.8623599
1.1626899 -0.57781202 1.8601002
1.16029 -0.58576798 1.85972
1.18066 -0.52191299 1.8390499
1.16984 -0.53148603 1.8493401
1.1636599 -0.54163599 1.8536801
1.1590199 -0.55078703 1.8581101
1.15696 -0.56263399 1.8583301
1.15845 -0.57590002 1.8573599
1.15826 -0.58725703 1.85483
1.18979 -0.51792902 1.82538
1.18098 -0.52800798 1.8331201
1.1703601 -0.537709 1.8424801
1.15898 -0.55058599 1.85229
1.1490101 -0.56162101 1.85944
1.15327 -0.575113 1.8552201
1.18506 -0.52061903 1.8248001
1.17379 -0.52828097 1.83455
1.15607 -0.56123102 1.8687701
1.15581 -0.571877 1.8681201
1.1636901 -0.588413 1.8607901
1.16274 -0.53271997 1.8585299
1.16017 -0.54172301 1.8609601
1.15619 -0.55192602 1.8649001
1.15789 -0.56287998 1.86175
1.15614 -0.57606798 1.8623101
1.1927301 -0.52208 1.82792
1.17779 -0.531434 1.8402301
1.16477 -0.53885901 1.8514401
1.1583 -0.55006802 1.8573902
1.15915 -0.56100601 1.855
1.15373 -0.57079101 1.8585901
1.15423 -0.58330601 1.85715
1.19821 -0.51880503 1.8184601
1.18595 -0.52810103 1.82784
1.17568 -0.537175 1.8360101
1.1691201 -0.546857 1.84198
1.15344 -0.55641496 1.85546
1.19095 -0.51940203 1.81918
1.18045 -0.53029996 1.8276801
1.16201 -0.53520602 1.84296
1.15274 -0.55153596 1.8715601
1.15613 -0.56538701 1.8666501
1.1585701 -0.58233798 1.8636801
1.20171 -0.52101201 1.8312399
1.19707 -0.52789998 1.83324
1.1812201 -0.53642297 1.84452
1.1671 -0.54594004 1.85578
1.16065 -0.55545104 1.8597602
1.15604 -0.56469297 1.86086
1.15158 -0.57480401 1.86352
1.2060399 -0.51951599 1.8222901
1.20209 -0.52812696 1.82453
1.19059 -0.53489798 1.8310601
1.17663 -0.54432702 1.8415899
1.16707 -0.552661 1.84914
1.15922 -0.56071901 1.8530999
1.15477 -0.57238603 1.8548599
1.2024601 -0.51603401 1.8193201
1.19801 -0.524863 1.8212301
1.18846 -0.53320903 1.82541
1.18048 -0.54220098 1.8313299
1.16793 -0.55127501 1.8418601
1.16284 -0.56286997 1.84472
1.14069 -0.57228804 1.8622
1.2021099 -0.51338899 1.81248
1.19445 -0.52426702 1.81646
1.1792901 -0.53349 1.8280802
1.16693 -0.53988999 1.83804
