# .PCD v0.7 - Point Cloud Data file format
VERSION 0.7
FIELDS x y z
SIZE 4 4 4
TYPE F F F
COUNT 1 1 1
WIDTH 1564
HEIGHT 1
VIEWPOINT 0 0 0 1 0 0 0
POINTS 1564
DATA ascii
1.2090499 -0.30080098 0.82454419
1.19893 -0.27659801 0.82122117
1.1952 -0.26841998 0.81988555
1.19777 -0.26054701 0.81944543
1.20128 -0.25366601 0.81865823
1.1973001 -0.24297501 0.81623483
1.18672 -0.264476 0.81540698
1.1939499 -0.258881 0.81520981
1.19811 -0.25112498 0.81526375
1.19094 -0.239498 0.8123486
1.1831 -0.22846501 0.81145549
1.18839 -0.220129 0.81035036
1.2028099 -0.26618499 0.81228209
1.18951 -0.25656402 0.8114444
1.18875 -0.24792999 0.81085014
1.1939499 -0.238931 0.8082338
1.1900001 -0.22924601 0.80813199
1.18267 -0.218924 0.80770403
1.18174 -0.21122299 0.80643135
1.19863 -0.247833 0.80732185
1.19811 -0.23753901 0.80465078
1.19244 -0.22894 0.80371833
1.18777 -0.219409 0.80374926
1.1835901 -0.211061 0.8037222
1.1851799 -0.20277099 0.80133682
1.1896701 -0.196559 0.80001801
1.2084301 -0.23117501 0.80083162
1.19408 -0.220061 0.79964495
1.18776 -0.209842 0.79935461
1.1871099 -0.201277 0.79731995
1.18581 -0.19388799 0.7962091
1.20902 -0.225714 0.7980451
1.18858 -0.20594601 0.79401433
1.18823 -0.198722 0.79337698
1.18591 -0.19132701 0.79186934
1.1992199 -0.204723 0.78922951
1.1859699 -0.19660601 0.7890476
1.1928099 -0.19756599 0.78592461
1.1953399 -0.32376999 0.85292089
1.19468 -0.32581902 0.84909689
1.17949 -0.313775 0.84580058
1.1819201 -0.30834901 0.84539747
1.19082 -0.32182097 0.84333414
1.17558 -0.31045601 0.84093672
1.1727901 -0.30287701 0.84069669
1.17099 -0.292555 0.83906507
1.1743 -0.283456 0.83698308
1.17356 -0.308487 0.83715361
1.17399 -0.303478 0.83700395
1.1715 -0.29371798 0.83575654
1.17085 -0.28271699 0.83395112
1.17426 -0.27552301 0.83272773
1.1825399 -0.31030199 0.83407784
1.17154 -0.299283 0.83293307
1.17071 -0.28838801 0.83105242
1.17154 -0.28089398 0.83016223
1.1743699 -0.274672 0.82944244
1.18072 -0.26691499 0.82752192
1.1787699 -0.291908 0.82894522
1.1739399 -0.279493 0.82673174
1.1806301 -0.27116001 0.82461703
1.18471 -0.26375499 0.82333612
1.19119 -0.25824898 0.82276422
1.19855 -0.25216201 0.82117307
1.18878 -0.27286199 0.82130861
1.1827301 -0.262712 0.81971741
1.18714 -0.25702399 0.81970185
1.18419 -0.24797301 0.81838226
1.18328 -0.24066 0.81672722
1.18641 -0.262317 0.8162542
1.18032 -0.251849 0.81522554
1.17997 -0.24298599 0.8140474
1.17741 -0.23419599 0.81159681
1.2002101 -0.22521201 0.80829257
1.18776 -0.25389901 0.81235838
1.1750801 -0.23915701 0.81003988
1.1759501 -0.230709 0.80794716
1.1858799 -0.224557 0.80632913
1.19846 -0.217503 0.80554342
1.20522 -0.21223801 0.80537993
1.20706 -0.20777799 0.80504441
1.18696 -0.230727 0.80470538
1.18671 -0.22317301 0.80297881
1.19183 -0.21646601 0.801902
1.19617 -0.20806499 0.80172127
1.18863 -0.196127 0.79886454
1.18955 -0.22124299 0.79949331
1.19004 -0.21328501 0.7975952
1.1919999 -0.20740999 0.79790789
1.19389 -0.198797 0.79655957
1.1982701 -0.215674 0.79548675
1.1958899 -0.20622601 0.79428148
1.19326 -0.19423701 0.7922585
1.2053 -0.201527 0.79117668
1.19032 -0.32613099 0.85731184
1.18744 -0.326608 0.85228181
1.18224 -0.31759101 0.84960175
1.1817299 -0.32175499 0.84491754
1.17387 -0.31055701 0.84341943
1.17458 -0.30397099 0.84281015
1.17634 -0.29409799 0.84006238
1.1779901 -0.313907 0.83986366
1.17519 -0.30148399 0.83805412
1.17231 -0.28876799 0.83630204
1.18234 -0.28601101 0.83584672
1.17537 -0.30884898 0.83492625
1.17554 -0.298879 0.83260012
1.17515 -0.28997001 0.83248025
1.1757901 -0.281598 0.83245969
1.1817501 -0.273359 0.83024943
1.19094 -0.26681998 0.82847953
1.18134 -0.30056199 0.82916278
1.1782299 -0.29051501 0.82758582
1.18099 -0.28129101 0.82746857
1.18294 -0.27118298 0.82606834
1.18586 -0.26486501 0.8259995
1.1964099 -0.26085198 0.82405972
1.19337 -0.296363 0.82432467
1.1855201 -0.28376499 0.82309306
1.18944 -0.27621099 0.82299173
1.19289 -0.26701799 0.82209414
1.20235 -0.26070401 0.82019264
1.2006199 -0.25095901 0.8183676
1.19384 -0.28730801 0.82055372
1.19218 -0.275938 0.81970805
1.20012 -0.265331 0.81816101
1.2013301 -0.25672799 0.81673944
1.1965899 -0.24554899 0.81457841
1.18662 -0.23000999 0.81190991
1.1878901 -0.21991 0.81035745
1.20244 -0.257072 0.81456774
1.17808 -0.22970501 0.80816877
1.18268 -0.22475901 0.80766982
1.1834999 -0.217518 0.80743974
1.18554 -0.210811 0.80636835
1.18916 -0.23212799 0.80384398
1.17906 -0.222569 0.80345678
1.18174 -0.216912 0.80367941
1.18562 -0.20952801 0.80221444
1.1955301 -0.207736 0.80210978
1.18313 -0.222139 0.79926223
1.1846 -0.21506901 0.79864395
1.1860299 -0.20717698 0.79742241
1.18786 -0.200233 0.79627436
1.19174 -0.215725 0.7941007
1.18686 -0.20503598 0.79274505
1.18514 -0.19413601 0.79069757
1.19768 -0.207689 0.78834462
1.18958 -0.19591899 0.78676409
1.19946 -0.198411 0.78307241
1.17238 -0.30681801 0.84358644
1.1723 -0.306499 0.84100038
1.16875 -0.296918 0.83998162
1.1750901 -0.28852698 0.839176
1.18777 -0.28569901 0.83845741
1.17601 -0.308934 0.83708757
1.17001 -0.29626399 0.83620107
1.1707 -0.28828099 0.83655488
1.1770301 -0.279921 0.83502311
1.18279 -0.27338302 0.83404124
1.17362 -0.29928401 0.83243996
1.1718 -0.28592399 0.83163995
1.16991 -0.272964 0.82977438
1.17599 -0.26761201 0.82980776
1.18478 -0.26373199 0.82844698
1.1754299 -0.28649598 0.82716751
1.1730599 -0.27509201 0.82573265
1.1724601 -0.265892 0.82558268
1.1824601 -0.26198098 0.82442468
1.1904399 -0.25580999 0.82185227
1.1756901 -0.273992 0.82186228
1.17693 -0.266202 0.82133293
1.1874601 -0.260607 0.81934011
1.1958899 -0.25477099 0.81725746
1.19609 -0.24552602 0.81557786
1.1871901 -0.268235 0.81758505
1.19379 -0.25996402 0.81531715
1.19611 -0.250038 0.81316537
1.1931 -0.239049 0.81142372
1.1848 -0.225565 0.80930322
1.20676 -0.25982499 0.8121959
1.18407 -0.22916299 0.80635244
1.1786599 -0.217187 0.80454248
1.1812201 -0.20968901 0.803572
1.18239 -0.199498 0.80129915
1.18876 -0.227668 0.80095625
1.17924 -0.216388 0.8004353
1.17855 -0.208388 0.80034339
1.1807801 -0.199494 0.79876214
1.17998 -0.18864501 0.79649574
1.18532 -0.216969 0.79597127
1.1786599 -0.204779 0.79514754
1.17654 -0.19168501 0.79358
1.18196 -0.20491199 0.79078829
1.17476 -0.19148301 0.78927726
1.18453 -0.196955 0.78627211
1.19459 -0.322842 0.84361768
1.1879001 -0.30391702 0.84140468
1.1942401 -0.29618999 0.83891034
1.1907901 -0.30686599 0.83724856
1.184 -0.289305 0.83606291
1.18194 -0.27599999 0.83306313
1.17967 -0.281212 0.83073282
1.17814 -0.26772898 0.8273232
1.1803299 -0.26190901 0.82730895
1.18514 -0.25493601 0.82506895
1.17679 -0.272062 0.82283419
1.17293 -0.26098499 0.82181466
1.1770201 -0.255748 0.82272142
1.1762999 -0.244808 0.81938744
1.17959 -0.273067 0.81799895
1.17521 -0.26296601 0.81763792
1.17697 -0.25406998 0.81776452
1.18027 -0.24510799 0.81521708
1.19458 -0.24369301 0.81341547
1.1836699 -0.268996 0.81474882
1.18024 -0.255274 0.81386113
1.1884301 -0.24435601 0.81099057
1.18855 -0.23452801 0.80930436
1.18721 -0.22408099 0.80735421
1.18401 -0.208051 0.80430442
1.18608 -0.22756501 0.80490875
1.17755 -0.210366 0.80231231
1.1781 -0.201308 0.80124402
1.1785901 -0.19183701 0.79932559
1.19122 -0.190706 0.79858541
1.17334 -0.20575701 0.79794878
1.1766601 -0.199077 0.79743934
1.1762201 -0.18769899 0.7945556
1.18042 -0.20809799 0.79369897
1.17223 -0.19368099 0.79224241
1.19099 -0.19781999 0.78367096
1.20627 -0.30850899 0.83829993
1.2034301 -0.29611298 0.83148694
1.21187 -0.301287 0.83266473
1.2060601 -0.28001899 0.82410902
1.2118599 -0.287247 0.82546294
1.20911 -0.30203199 0.82814908
1.2095799 -0.25763699 0.81629562
1.2151101 -0.26900899 0.81809103
1.21271 -0.28254801 0.82006311
1.2091 -0.296886 0.82176775
1.20068 -0.31382099 0.82355416
1.21339 -0.24339199 0.81088936
1.21593 -0.25297201 0.81216449
1.21412 -0.26510701 0.81261373
1.2132599 -0.27884901 0.81432527
1.20507 -0.29589 0.81637871
1.20954 -0.231528 0.80544573
1.2134 -0.241174 0.806229
1.21324 -0.254675 0.80804932
1.2135199 -0.26600501 0.80793464
1.2101101 -0.27893901 0.80887341
1.19652 -0.214571 0.79898232
1.2094101 -0.21679701 0.79917914
1.21272 -0.226788 0.80010605
1.21489 -0.23594899 0.80003989
1.21196 -0.252018 0.80295211
1.20553 -0.271276 0.80496353
1.19935 -0.28349799 0.80569816
1.20859 -0.20575 0.79325831
1.20907 -0.21660101 0.79443228
1.21254 -0.22617599 0.7946744
1.2120099 -0.236425 0.79613847
1.21147 -0.199561 0.78791404
1.21166 -0.207975 0.78814161
1.21294 -0.21871401 0.78841126
1.20953 -0.23041099 0.79002523
1.2089 -0.20935601 0.78264534
1.20148 -0.22322799 0.78439468
1.19988 -0.212826 0.77878714
1.1958001 -0.20385499 0.77451724
1.1938 -0.31755599 0.84709573
1.20459 -0.30840701 0.84097672
1.19353 -0.29078999 0.83318675
1.20643 -0.29316798 0.83341002
1.20867 -0.303395 0.8353858
1.21105 -0.308777 0.83414567
1.2043 -0.28180701 0.82758331
1.20717 -0.289323 0.82861733
1.20778 -0.29935101 0.82938683
1.21136 -0.306151 0.82865953
1.2000099 -0.25900298 0.82011169
1.20556 -0.265775 0.82059252
1.20768 -0.27562499 0.82227916
1.2065799 -0.28702199 0.8234452
1.2046 -0.29945698 0.82336456
1.2025 -0.307549 0.82352012
1.20482 -0.243486 0.81384259
1.21266 -0.249011 0.81444472
1.2108899 -0.25920001 0.81504214
1.20546 -0.27424401 0.81728911
1.20272 -0.28865802 0.81803894
1.1950099 -0.30227399 0.81964689
1.20627 -0.23110799 0.80757529
1.2135 -0.236341 0.8081938
1.20893 -0.25019801 0.81001544
1.20847 -0.26191798 0.81133735
1.20066 -0.27678099 0.81295115
1.19442 -0.292665 0.81539184
1.20664 -0.216483 0.80067086
1.21224 -0.225235 0.80265307
1.21016 -0.23419701 0.80368823
1.2115899 -0.24257798 0.8036927
1.2062 -0.25696698 0.80518842
1.20083 -0.20505199 0.79538321
1.2160801 -0.20623399 0.79515517
1.2134401 -0.21774401 0.79691416
1.20752 -0.232934 0.79851747
1.20384 -0.24602801 0.79862845
1.20069 -0.25458699 0.79905337
1.2093 -0.198594 0.79037207
1.2096 -0.20943399 0.79236585
1.20904 -0.21990199 0.79227561
1.20157 -0.236561 0.79357755
1.18882 -0.252772 0.79560792
1.2116799 -0.205044 0.78642899
1.20565 -0.21868901 0.78761721
1.1856099 -0.247869 0.79268104
1.2011499 -0.207274 0.7822746
1.2064099 -0.30994302 0.84587145
1.21474 -0.30257499 0.8404057
1.2005401 -0.28609899 0.83413458
1.21025 -0.29071599 0.83439094
1.21663 -0.29857299 0.83477664
1.1965899 -0.27615699 0.82867432
1.20912 -0.279778 0.82901454
1.2163501 -0.28679702 0.82911056
1.21856 -0.297135 0.82910419
1.20112 -0.26308 0.82248098
1.2117 -0.26763099 0.82253397
1.21 -0.27903098 0.8248809
1.2158799 -0.286026 0.82378733
1.21224 -0.298951 0.82519424
1.2089601 -0.31198901 0.82773852
1.2101899 -0.24453801 0.81392527
1.21246 -0.25580901 0.81694525
1.20971 -0.26508 0.81676847
1.21225 -0.27537599 0.81900984
1.2123001 -0.283517 0.81823409
1.2103601 -0.23184799 0.80913901
1.21559 -0.23868099 0.80887014
1.2085199 -0.25420001 0.81184733
1.21029 -0.26338199 0.81190228
1.20845 -0.273164 0.81292558
1.19832 -0.28400499 0.81362015
1.19889 -0.215011 0.80406153
1.21469 -0.217715 0.80394393
1.2164 -0.226852 0.80466843
1.21526 -0.235801 0.80419272
1.21254 -0.24748699 0.80558914
1.20854 -0.261848 0.80759549
1.19708 -0.275664 0.80936259
1.2020401 -0.20215401 0.79832208
1.21312 -0.20739201 0.79860014
1.21505 -0.21734101 0.80049545
1.2166101 -0.22584699 0.79973406
1.21173 -0.237827 0.8001374
1.19903 -0.254168 0.80291092
1.1943699 -0.26784301 0.80538005
1.21443 -0.194655 0.79289919
1.21506 -0.20340401 0.79269469
1.21445 -0.21532801 0.79532379
1.2107199 -0.226586 0.79500115
1.20461 -0.23849899 0.79639125
1.21718 -0.20018101 0.78742355
1.21149 -0.213673 0.78967148
1.19947 -0.22823499 0.79167473
1.21143 -0.20243999 0.78444159
1.2008001 -0.21778899 0.787287
1.20477 -0.310366 0.84524316
1.20227 -0.300394 0.83935595
1.21053 -0.30619401 0.83999163
1.20126 -0.28955901 0.83324403
1.2124801 -0.29482099 0.83352232
1.2132701 -0.30532899 0.83492243
1.20531 -0.27658099 0.82689852
1.21582 -0.281775 0.82706553
1.2131801 -0.29200599 0.82838523
1.20998 -0.30211201 0.83046567
1.20964 -0.25163499 0.82010698
1.21491 -0.256751 0.8199169
1.21503 -0.26931399 0.82151967
1.21059 -0.27988899 0.823246
1.21452 -0.28690901 0.82337171
1.21279 -0.29926902 0.82564753
1.20175 -0.31469899 0.82867301
1.21578 -0.24803101 0.81584656
1.2139701 -0.25760701 0.81653929
1.2127401 -0.26740199 0.81675965
1.2140599 -0.276757 0.81806964
1.20453 -0.28874299 0.82006949
1.2052101 -0.23063 0.80985987
1.21503 -0.23609599 0.81002063
1.21621 -0.24632601 0.81050718
1.2108899 -0.25972 0.81212121
1.21078 -0.26935399 0.81316245
1.21035 -0.27615699 0.81335759
1.20915 -0.21844201 0.80420041
1.2153701 -0.22489999 0.80491203
1.2153701 -0.23416701 0.80538201
1.2156199 -0.24283199 0.80499434
1.21294 -0.25380501 0.80671281
1.20971 -0.26619101 0.80888337
1.19516 -0.277861 0.81077582
1.21013 -0.20362601 0.79733735
1.21636 -0.21293899 0.79921228
1.21587 -0.22301599 0.80007774
1.21725 -0.23264199 0.79999852
1.2093101 -0.244955 0.80200499
1.19883 -0.25882199 0.80534482
1.2107199 -0.19420099 0.79274666
1.21382 -0.20263501 0.7940104
1.21544 -0.21234301 0.79467058
1.2171199 -0.221883 0.79458106
1.21165 -0.231775 0.79563254
1.21446 -0.20296301 0.78989083
1.2162499 -0.21115601 0.78951401
1.21191 -0.221619 0.79076612
1.20122 -0.23181699 0.79262507
1.21585 -0.19932501 0.78460747
1.2172 -0.208555 0.78544146
1.20523 -0.20185 0.78227609
1.2034301 -0.30602801 0.84293932
1.2057099 -0.29828501 0.83811933
1.21824 -0.30180702 0.83765626
1.20032 -0.28879699 0.83311552
1.2156199 -0.293428 0.83258712
1.2150199 -0.30098498 0.83330888
1.20523 -0.272773 0.82613146
1.21316 -0.282796 0.82738543
1.21266 -0.29104099 0.82868749
1.21613 -0.29763499 0.82836962
1.21456 -0.30451599 0.82874215
1.20438 -0.25648898 0.82155061
1.21566 -0.26144898 0.82110995
1.21321 -0.27140301 0.82209933
1.2141 -0.28039399 0.8231281
1.2136799 -0.28925699 0.82393855
1.21329 -0.29863 0.82402921
1.215 -0.30396 0.82404953
1.21339 -0.24392501 0.81422722
1.2168599 -0.25292102 0.81652021
1.21324 -0.26173499 0.81827658
1.22126 -0.267102 0.81650567
1.21568 -0.278117 0.81828481
1.2105 -0.290106 0.81991976
1.20005 -0.301633 0.82224107
1.20775 -0.22990699 0.80905151
1.21839 -0.23714399 0.80947858
1.2144101 -0.24792299 0.81093353
1.2167701 -0.25871098 0.81315804
1.21837 -0.26753402 0.81266665
1.21222 -0.27777398 0.81447214
1.21418 -0.22091299 0.80406988
1.21619 -0.22911501 0.80595756
1.21337 -0.23743699 0.80623543
1.21464 -0.245911 0.80570495
1.21382 -0.25648299 0.8079254
1.2205501 -0.26679501 0.80936515
1.20348 -0.20354401 0.79881239
1.21427 -0.20972 0.79870635
1.21216 -0.21839198 0.80068761
1.21573 -0.226717 0.80132383
1.2120401 -0.237013 0.80137414
1.20726 -0.24717699 0.80298501
1.20162 -0.255748 0.8048619
1.21182 -0.19970399 0.7941097
1.21767 -0.20660201 0.79357016
1.2147 -0.21676901 0.79639643
1.21566 -0.225749 0.79606783
1.20153 -0.23667999 0.79804903
1.2161599 -0.19678499 0.78871864
1.21734 -0.20548201 0.78954917
1.21702 -0.21450199 0.79098409
1.21332 -0.22408701 0.79217941
1.21893 -0.20341401 0.78580505
1.20469 -0.21614701 0.78891873
1.19318 -0.32384399 0.87936968
1.19621 -0.32347599 0.86829352
1.19726 -0.322963 0.85849762
1.19663 -0.31744 0.86190009
1.19417 -0.31328601 0.85426986
1.1904399 -0.30830401 0.84917146
1.1956401 -0.30355901 0.84472674
1.20724 -0.30097499 0.83411813
1.18542 -0.30403 0.8463282
1.18747 -0.300623 0.84630531
1.1952 -0.29817599 0.84079969
1.1843801 -0.30345801 0.84286618
1.1804399 -0.29890099 0.84776163
1.18977 -0.297434 0.84132791
1.2089 -0.31119001 0.83050555
1.2025701 -0.30622399 0.82916522
1.2018399 -0.308631 0.82372195
1.2032399 -0.30182999 0.82516092
1.21174 -0.29887101 0.82047081
1.1998301 -0.315267 0.84602135
1.19423 -0.31538701 0.84242868
1.1886901 -0.305951 0.8471539
1.18998 -0.306674 0.8400988
1.19074 -0.298273 0.83833802
1.19472 -0.307136 0.82737577
1.1917 -0.29465598 0.83125722
1.1950099 -0.28938499 0.82930595
1.205 -0.313144 0.80834901
1.1939 -0.29583099 0.82268369
1.19191 -0.286318 0.82709253
1.19239 -0.277291 0.82619131
1.2037899 -0.300715 0.80599433
1.1918399 -0.28299299 0.82039189
1.18771 -0.27140599 0.82502586
1.18487 -0.259974 0.82794189
1.18928 -0.25032899 0.82536054
1.1925701 -0.28246298 0.81410772
1.18233 -0.26698798 0.82454032
1.17923 -0.25427401 0.82739615
1.18163 -0.246714 0.82778144
1.1858001 -0.240161 0.82590044
1.19353 -0.23778699 0.82003856
1.1922001 -0.275363 0.81178343
1.17566 -0.25218999 0.82605928
1.1774299 -0.24483299 0.82555151
1.18095 -0.23893601 0.82582062
1.18525 -0.234999 0.82369316
1.17425 -0.24812299 0.82273942
1.17626 -0.24291401 0.82250923
1.17992 -0.23906401 0.82188141
1.19863 -0.31695998 0.8349188
1.19882 -0.30816299 0.8354032
1.19436 -0.30821899 0.82950431
1.19497 -0.30078599 0.83041382
1.20179 -0.29890302 0.82628828
1.20202 -0.31332701 0.81179404
1.1963099 -0.301424 0.82145417
1.1942199 -0.291486 0.82661879
1.2000099 -0.28906798 0.82362753
1.20157 -0.306126 0.80724204
1.19384 -0.290021 0.81895775
1.1887699 -0.27764499 0.82651812
1.19605 -0.29077998 0.80943209
1.18408 -0.27148399 0.82345694
1.18159 -0.257855 0.82768553
1.18704 -0.24723899 0.82492113
1.19511 -0.24285699 0.81927484
1.18586 -0.26970801 0.8156774
1.17744 -0.254875 0.82510221
1.1787 -0.24434 0.82714838
1.18639 -0.23891501 0.8231501
1.1875399 -0.23077899 0.82248259
1.1732399 -0.24947399 0.82260382
1.17484 -0.242852 0.8238681
1.1789399 -0.233135 0.82269615
1.18038 -0.223764 0.82331544
1.1845 -0.221276 0.82157546
1.17351 -0.246471 0.81741202
1.17123 -0.237087 0.82150191
1.17475 -0.22853799 0.81966174
1.1772599 -0.22256799 0.82054067
1.17861 -0.21716399 0.82131761
1.17571 -0.2297 0.81477278
1.1736799 -0.220292 0.81910777
1.17616 -0.21550301 0.81884432
1.1923001 -0.31939399 0.84456635
1.19652 -0.317828 0.8427816
1.194 -0.31780398 0.83384478
1.1946 -0.311692 0.83441317
1.19938 -0.31327701 0.82283098
1.20857 -0.31020901 0.81738436
1.20522 -0.30602801 0.81375694
1.2073799 -0.30726001 0.80295324
1.2101799 -0.29764301 0.80628759
1.21434 -0.288416 0.8048715
1.2046 -0.28989401 0.80331594
1.1996701 -0.27499902 0.81032503
1.20113 -0.26666 0.80969834
1.2015001 -0.28485 0.79912651
1.19441 -0.267988 0.80884826
1.1887699 -0.25394198 0.81547391
1.19023 -0.245781 0.81507707
1.19235 -0.264245 0.80414599
1.18468 -0.248262 0.81334609
1.18232 -0.23676901 0.81719023
1.18459 -0.22937299 0.81614876
1.18639 -0.21910299 0.81557852
1.18191 -0.24461201 0.80921805
1.1807599 -0.23341499 0.81227529
1.1815699 -0.22128099 0.81290293
1.18262 -0.212062 0.81374323
1.17646 -0.234919 0.80771095
1.17784 -0.226089 0.80799395
1.18055 -0.219146 0.80767471
1.18276 -0.21167201 0.80810046
1.18433 -0.202626 0.80752122
1.1799099 -0.228028 0.80135512
1.17617 -0.2141 0.80641747
1.1800801 -0.204202 0.80468869
1.18382 -0.198901 0.803038
1.1889 -0.19684601 0.79867172
1.18641 -0.20649999 0.79292464
1.18638 -0.19890399 0.79484588
1.19171 -0.19484301 0.78872275
1.1924601 -0.198348 0.78073955
1.18879 -0.32401502 0.86378652
1.17669 -0.31720799 0.85194284
1.1926399 -0.31752002 0.86066455
1.18565 -0.30990601 0.85170972
1.19002 -0.31677699 0.85124099
1.19626 -0.32312402 0.85061038
1.18216 -0.30168399 0.84431052
1.1873699 -0.30582398 0.84432876
1.19459 -0.31422198 0.84550893
1.19542 -0.322429 0.84352094
1.18556 -0.295026 0.83853745
1.18738 -0.30082101 0.8365376
1.19356 -0.308447 0.83824044
1.19815 -0.31632602 0.83901435
1.18581 -0.28470302 0.83321714
1.1882 -0.29033002 0.83212882
1.19416 -0.298127 0.8343057
1.19576 -0.30705202 0.83217055
1.19621 -0.31431699 0.83019656
1.1859699 -0.26655701 0.82506454
1.18866 -0.27739298 0.82755083
1.19021 -0.28510499 0.82727021
1.19355 -0.29490998 0.82810777
1.19598 -0.30574802 0.82743865
1.1843801 -0.25278199 0.82100111
1.18892 -0.25832301 0.82218969
1.19049 -0.26760799 0.82214755
1.19318 -0.27799901 0.82388997
1.18577 -0.240135 0.81573206
1.1882399 -0.248744 0.81824565
1.19089 -0.25535899 0.81779891
1.1966701 -0.26134399 0.819103
1.1920301 -0.23233299 0.81330025
1.1913201 -0.243165 0.81318986
1.19648 -0.25054702 0.81329101
1.1993901 -0.25536698 0.81272459
1.1903399 -0.22117001 0.80660498
1.19199 -0.23193599 0.80783933
1.19461 -0.241354 0.80791926
1.19917 -0.245658 0.80815864
1.17399 -0.20659299 0.79342133
1.18712 -0.20786101 0.80003911
1.18846 -0.21760599 0.79957801
1.19538 -0.224545 0.80401099
1.19555 -0.235626 0.80280411
1.19081 -0.24708501 0.79751426
1.18548 -0.199158 0.79623377
1.18817 -0.20301901 0.79515946
1.1917601 -0.21028799 0.79582644
1.19224 -0.22129801 0.79591966
1.18931 -0.193396 0.79049373
1.19181 -0.20157601 0.79120547
1.1938601 -0.20746799 0.79010928
1.19486 -0.196567 0.78642982
1.1946399 -0.202012 0.78339738
1.1927301 -0.32652 0.86146003
1.1929001 -0.321491 0.85473979
1.18376 -0.31602401 0.84579653
1.18918 -0.318452 0.84677804
1.1846601 -0.30191699 0.83829427
1.18678 -0.310803 0.84138471
1.19291 -0.315258 0.842448
1.19552 -0.32228199 0.84074777
1.18167 -0.288432 0.83064193
1.1886001 -0.294063 0.83437383
1.1902699 -0.305316 0.83666474
1.19361 -0.31299201 0.83534789
1.19779 -0.319352 0.83683074
1.18107 -0.27588302 0.82602835
1.18681 -0.28238499 0.82872385
1.19164 -0.28986001 0.83099854
1.1919 -0.300143 0.82977533
1.1928099 -0.31012401 0.82825261
1.18204 -0.26340902 0.82111734
1.18599 -0.270215 0.82349294
1.1876301 -0.27817801 0.82261932
1.1924601 -0.28732002 0.82450777
1.1929799 -0.29650602 0.82178932
1.1883999 -0.25766501 0.81896371
1.18953 -0.268213 0.81871581
1.19309 -0.27727199 0.81944728
1.19462 -0.284991 0.81727678
1.19521 -0.29104099 0.81543541
1.19251 -0.243058 0.81587297
1.19444 -0.24926201 0.81614983
1.19031 -0.26156798 0.81209642
1.1933399 -0.27338302 0.8125205
1.1899199 -0.28426099 0.80821627
1.1913301 -0.231399 0.80915278
1.19507 -0.239794 0.81230348
1.19489 -0.248207 0.81014222
1.1940399 -0.26039898 0.80833769
1.19462 -0.27244699 0.80813926
1.18293 -0.21278499 0.79853678
1.19335 -0.21689899 0.80484086
1.1902 -0.22770099 0.8026154
1.19506 -0.23565 0.80534166
1.19674 -0.24500901 0.80514127
1.18934 -0.20717698 0.79733932
1.1924 -0.214459 0.79910952
1.19415 -0.22313499 0.79842776
1.1965001 -0.23246099 0.79960895
1.18291 -0.19592501 0.7872436
1.1889499 -0.202393 0.78936815
1.19408 -0.21182501 0.79375565
1.1956401 -0.218613 0.7911315
1.19806 -0.225538 0.79278344
1.19278 -0.19769698 0.78498381
1.19459 -0.20855699 0.78600502
1.1977301 -0.21632901 0.78713477
1.1951799 -0.197153 0.78101659
1.19453 -0.20897 0.78101176
1.17856 -0.333639 0.86068898
1.18979 -0.32857499 0.86230499
1.18854 -0.31590301 0.85041243
1.19383 -0.32358798 0.85596627
1.18488 -0.304346 0.84229225
1.19032 -0.31068301 0.84626502
1.19209 -0.318001 0.84654772
1.19022 -0.29842401 0.83955383
1.18943 -0.308283 0.83940387
1.19126 -0.31655398 0.83719254
1.19373 -0.32240701 0.84064031
1.1802601 -0.28187701 0.82743514
1.18682 -0.287671 0.83143425
1.1895 -0.29821 0.83334994
1.19178 -0.30839899 0.83325654
1.1922899 -0.31579199 0.83196241
1.19364 -0.32017398 0.83312196
1.18445 -0.26841298 0.82484788
1.18864 -0.275381 0.82761276
1.19015 -0.28313899 0.82826227
1.19181 -0.290856 0.82819194
1.1935199 -0.30121401 0.82898283
1.1930001 -0.31284001 0.82887465
1.18634 -0.25544399 0.82061601
1.18933 -0.26294699 0.82233673
1.18996 -0.271696 0.82265437
1.19198 -0.27992001 0.82304281
1.19231 -0.288807 0.82217962
1.1848999 -0.24425699 0.81360823
1.1903 -0.25077 0.81744295
1.18927 -0.25935102 0.81541604
1.19226 -0.26870599 0.81694376
1.19454 -0.27653301 0.81615263
1.1875701 -0.232752 0.80901086
1.18936 -0.24041501 0.81031781
1.19083 -0.25048199 0.81124091
1.19284 -0.259644 0.8115412
1.1951699 -0.26694402 0.81088036
1.19405 -0.27352399 0.80852044
1.17318 -0.212199 0.7943747
1.18809 -0.215321 0.80310225
1.1879799 -0.22889799 0.80396384
1.19326 -0.23624599 0.8067655
1.1945 -0.244853 0.80785805
1.19493 -0.255694 0.80739462
1.19521 -0.26565 0.80610985
1.17889 -0.20003201 0.79367715
1.1882399 -0.20468999 0.79945612
1.19052 -0.21190099 0.79862428
1.1899199 -0.221984 0.79934883
1.19086 -0.23146099 0.79986364
1.19321 -0.242763 0.80230135
1.1860501 -0.195437 0.79285318
1.1917 -0.201428 0.79496521
1.19512 -0.208561 0.79444635
1.1932499 -0.21764401 0.79380012
1.19558 -0.199246 0.78937757
1.19138 -0.20942801 0.78490186
1.1942401 -0.214223 0.78617007
1.19314 -0.199347 0.78039914
1.19359 -0.206938 0.78043884
1.18975 -0.19978501 0.77346992
1.1877201 -0.331139 0.8629145
1.1905301 -0.32844201 0.8590917
1.18681 -0.32008499 0.8512879
1.19405 -0.32298902 0.85402787
1.18514 -0.30333701 0.84048003
1.1905301 -0.31372601 0.84575689
1.1939499 -0.32257402 0.84622037
1.17641 -0.288351 0.83124125
1.18546 -0.29331499 0.83610511
1.18946 -0.302688 0.83807009
1.1946 -0.31220099 0.8417291
1.19714 -0.31851399 0.84062111
1.1866001 -0.27541798 0.83041275
1.18358 -0.284897 0.83059365
1.1897399 -0.29118299 0.83252311
1.19041 -0.300428 0.83199918
1.19455 -0.308541 0.8342675
1.1923001 -0.31900299 0.83198076
1.1930799 -0.32644299 0.83292663
1.1852601 -0.26305902 0.82204747
1.19076 -0.26934499 0.82610923
1.19024 -0.279789 0.82818121
1.1927201 -0.28670099 0.82667238
1.19284 -0.29727 0.82669783
1.196 -0.30592301 0.82850975
1.1863999 -0.25161698 0.8169744
1.19205 -0.25825 0.82093781
1.19051 -0.26712799 0.82039565
1.19469 -0.275453 0.82298195
1.1934301 -0.28681999 0.82048261
1.19216 -0.29609901 0.81995654
1.17997 -0.23003201 0.80661964
1.18679 -0.235204 0.81062424
1.19284 -0.245875 0.81565607
1.1941 -0.25400999 0.81546074
1.19538 -0.26397699 0.81684119
1.19261 -0.27608201 0.81475782
1.1914901 -0.28732699 0.81453073
1.17846 -0.22191299 0.79988426
1.1903 -0.22633101 0.80840391
1.19103 -0.23556101 0.80793983
1.1951001 -0.245426 0.81103194
1.19635 -0.253227 0.81040061
1.19515 -0.262375 0.80982637
1.18696 -0.20938401 0.79702055
1.1890399 -0.218116 0.80095994
1.1898201 -0.22620898 0.80235612
1.19164 -0.23266399 0.80095214
1.1963301 -0.242065 0.80460906
1.19832 -0.25061399 0.80595988
1.18829 -0.19356899 0.79146552
1.19265 -0.2031 0.7956742
1.1899099 -0.21229099 0.79363841
1.1914099 -0.22302799 0.79655463
1.19599 -0.231372 0.7986486
1.19407 -0.242513 0.79820818
1.1931701 -0.201058 0.79045492
1.19419 -0.20851201 0.78918302
1.1934201 -0.218068 0.79034454
1.1956301 -0.19923201 0.784769
1.19362 -0.20714301 0.78317589
1.18648 -0.32825801 0.86215127
1.19349 -0.32483003 0.86114854
1.19122 -0.31707501 0.8534047
1.19458 -0.322595 0.85370141
1.18814 -0.29352501 0.84079707
1.18722 -0.30015302 0.84069753
1.19409 -0.310765 0.84686303
1.19408 -0.31960499 0.84415573
1.18498 -0.28477699 0.83233255
1.18866 -0.29172701 0.83588946
1.19069 -0.30089301 0.83881849
1.19419 -0.30917102 0.8390255
1.1930799 -0.31832099 0.83599848
1.18741 -0.269869 0.826406
1.19033 -0.28012198 0.82966745
1.18864 -0.28924102 0.82967871
1.19402 -0.297654 0.83319801
1.19321 -0.30787799 0.83040732
1.19622 -0.31538099 0.83227861
1.1943901 -0.32481998 0.83389628
1.18864 -0.25377101 0.82057881
1.19001 -0.26127002 0.82294601
1.19292 -0.26829702 0.82530946
1.19521 -0.276225 0.82578355
1.19373 -0.286634 0.82546353
1.19408 -0.29700398 0.82453132
1.1920301 -0.30568701 0.82325876
1.18258 -0.23183 0.80893427
1.1903701 -0.23806801 0.81391454
1.19382 -0.248483 0.81831437
1.1941301 -0.25811398 0.81927073
1.19662 -0.26785699 0.82132673
1.19565 -0.27664199 0.81909883
1.19419 -0.28692099 0.81777924
1.1930699 -0.295459 0.81769407
1.1874501 -0.221347 0.80587626
1.19331 -0.228214 0.81066453
1.19276 -0.236595 0.80923325
1.1929699 -0.247246 0.81131762
1.1936001 -0.256374 0.81140882
1.1972001 -0.26497999 0.81390333
1.19502 -0.276196 0.81226808
1.1896701 -0.28734899 0.8100813
1.18146 -0.20129299 0.79366338
1.1880699 -0.20676799 0.79853171
1.19029 -0.21788 0.80125785
1.19481 -0.22834401 0.8051061
1.19568 -0.235704 0.80539435
1.19556 -0.243248 0.80518943
1.1949401 -0.25431201 0.80548018
1.19102 -0.264366 0.80312175
1.1877201 -0.191532 0.7898466
1.18892 -0.19978599 0.79352307
1.19341 -0.20724601 0.79809195
1.19516 -0.214037 0.79751378
1.19429 -0.224345 0.79715574
1.1956199 -0.23495899 0.79991037
1.19445 -0.244565 0.79900777
1.18674 -0.25593299 0.79464996
1.1891301 -0.19511899 0.78548884
1.1927201 -0.20509 0.79088736
1.19539 -0.21384199 0.7917704
1.19418 -0.22416599 0.79214358
1.19498 -0.233078 0.7940644
1.19294 -0.20108201 0.78261125
1.20649 -0.31053698 0.84929228
1.21199 -0.292321 0.83713776
1.21096 -0.227098 0.80896622
1.2035199 -0.30927199 0.84274024
1.2038701 -0.29883102 0.839926
1.20099 -0.28814599 0.83527052
1.2008799 -0.271294 0.82649702
1.20029 -0.255375 0.8200717
1.20439 -0.23582001 0.81138724
1.2022899 -0.22598 0.80894721
1.20055 -0.21281601 0.80239785
1.20155 -0.19404601 0.79399627
1.20014 -0.31052798 0.83877569
1.20096 -0.298224 0.83317435
1.20012 -0.28199399 0.82643336
1.19951 -0.267178 0.82046014
1.1994001 -0.256248 0.81633508
1.20005 -0.24467599 0.81141382
1.20152 -0.22761801 0.80402786
1.19916 -0.21555701 0.79838598
1.1983 -0.20197901 0.79369789
1.2005301 -0.310559 0.83257675
1.19892 -0.300679 0.82750529
1.19794 -0.28833202 0.82335478
1.1977 -0.27365401 0.8178311
1.19726 -0.25854298 0.81250048
1.20249 -0.23879801 0.80095536
1.1994001 -0.22614999 0.79696786
1.1986901 -0.212211 0.79126871
1.19911 -0.19666201 0.7847389
1.20293 -0.30869099 0.82478178
1.20032 -0.29535201 0.82002932
1.19767 -0.28303301 0.81668574
1.20012 -0.26633799 0.80870134
1.1970201 -0.253481 0.80518973
1.2010701 -0.23532 0.7950623
1.20052 -0.220998 0.78924978
1.20154 -0.20519899 0.78193206
1.1994001 -0.31931001 0.85581774
1.2052701 -0.30262101 0.84452814
1.21078 -0.28325 0.83154219
1.21881 -0.26519901 0.81929153
1.21596 -0.25752199 0.817779
1.21884 -0.231593 0.80649203
1.21331 -0.22855601 0.80834365
1.2168801 -0.21718 0.80060065
1.1975399 -0.31981 0.84929293
1.19749 -0.309591 0.8456127
1.2003701 -0.29481199 0.83738244
1.2056199 -0.276871 0.82646745
1.2080899 -0.263942 0.821163
1.20515 -0.255036 0.81861472
1.20776 -0.23769501 0.81077093
1.2053 -0.22789101 0.80773455
1.2035 -0.215042 0.80153322
1.20117 -0.19958299 0.79557502
1.19839 -0.31583899 0.84091651
1.19794 -0.30556402 0.83600152
1.2006 -0.290723 0.82708871
1.20218 -0.27799901 0.82203746
1.20152 -0.26661101 0.81848252
1.20389 -0.25077999 0.81198686
1.20428 -0.23847099 0.80583978
1.2032399 -0.226062 0.80070341
1.20038 -0.216924 0.79773712
1.19985 -0.205523 0.79371399
1.19565 -0.31687799 0.83643645
1.19993 -0.30270901 0.82602751
1.1974601 -0.29358101 0.8227458
1.19876 -0.28054199 0.81820464
1.19829 -0.26860702 0.81297112
1.19863 -0.25470698 0.80869299
1.20304 -0.236342 0.79757577
1.2013 -0.224639 0.79478997
1.19946 -0.214724 0.79141593
1.19845 -0.20222001 0.78679031
1.19717 -0.31347501 0.82856184
1.201 -0.29948699 0.81902963
1.20067 -0.28775001 0.814502
1.1965899 -0.27789301 0.81334078
1.1998301 -0.26305902 0.80553854
1.19989 -0.24989201 0.80016726
1.2048 -0.235385 0.79087603
1.20151 -0.22484399 0.78947902
1.20188 -0.209455 0.78289884
1.19973 -0.313409 0.85002309
1.19916 -0.30188599 0.84390831
1.1946701 -0.31657201 0.84801054
1.19526 -0.30478299 0.8429991
1.19441 -0.29346702 0.83815193
1.1942099 -0.27991101 0.83222628
1.2017701 -0.265268 0.82154363
1.20135 -0.25491899 0.81811112
1.20347 -0.24247 0.81234789
1.20166 -0.232511 0.80902451
1.2079799 -0.217318 0.79804057
1.19582 -0.32274503 0.84292215
1.1913301 -0.31695101 0.84334409
1.19067 -0.308956 0.84061342
1.1910701 -0.29764098 0.83616716
1.19241 -0.28494599 0.83036852
1.19714 -0.268341 0.82064682
1.1966799 -0.25745499 0.81801116
1.20025 -0.24522699 0.81099504
1.1981601 -0.235478 0.80712777
1.19999 -0.223133 0.80121064
1.2015799 -0.208652 0.79369324
1.1989 -0.19824101 0.79142076
1.19411 -0.321408 0.83592093
1.19093 -0.31593001 0.8370893
1.19076 -0.30459401 0.83153719
1.18823 -0.29463199 0.83069372
1.19252 -0.281459 0.82187223
1.1974701 -0.26740301 0.81137896
1.19626 -0.25760999 0.81214452
1.19761 -0.245396 0.80519205
1.1996701 -0.231052 0.79684877
1.20148 -0.216822 0.79064524
1.20162 -0.20564599 0.78616351
1.20033 -0.19656901 0.78523374
1.19902 -0.31763202 0.8257463
1.1945 -0.312684 0.82737219
1.19277 -0.30355102 0.82467711
1.19196 -0.29207399 0.82144213
1.1939701 -0.27693 0.81262833
1.19652 -0.26700699 0.80600393
1.1956099 -0.25818002 0.8046279
1.19731 -0.244744 0.79822952
1.19849 -0.23080701 0.79093653
1.20048 -0.219412 0.78494924
1.1987001 -0.209939 0.78386134
1.2001799 -0.263392 0.79865515
1.20171 -0.25353301 0.79416758
1.2093199 -0.22036 0.77450842
1.20742 -0.21367201 0.77316415
1.2060701 -0.204454 0.77132165
1.1972899 -0.32124698 0.86095119
1.20432 -0.31028402 0.85081869
1.19713 -0.32094601 0.85343099
1.19722 -0.31142199 0.84988075
1.19784 -0.30083901 0.84452325
1.20297 -0.286387 0.8337338
1.20277 -0.27680501 0.82977438
1.19217 -0.31344602 0.84667659
1.19002 -0.30552998 0.84573436
1.19309 -0.29397699 0.83901441
1.19575 -0.28124398 0.83156556
1.19688 -0.26925698 0.82676452
1.19651 -0.25722602 0.82282633
1.19155 -0.25041699 0.82406813
1.1956099 -0.239629 0.81691504
1.19146 -0.22866601 0.81572831
1.19796 -0.213342 0.80594534
1.20085 -0.20260401 0.79996383
1.19812 -0.322097 0.83718765
1.19284 -0.31819701 0.84034228
1.1889 -0.311672 0.84203511
1.1888601 -0.302654 0.83844894
1.1923001 -0.291105 0.83135146
1.19128 -0.28260002 0.8279978
1.19429 -0.271433 0.82271963
1.19287 -0.26183 0.82263023
1.19151 -0.251297 0.81978112
1.19277 -0.237947 0.81300217
1.1895601 -0.229459 0.81349945
1.19302 -0.21810199 0.80622572
1.1957 -0.20564801 0.80061615
1.19357 -0.19818801 0.79866201
1.1960399 -0.19089501 0.79309869
1.19916 -0.31627399 0.83039737
1.191 -0.31035298 0.83471382
1.1883 -0.29866099 0.83143699
1.19076 -0.28886899 0.82547033
1.19041 -0.27999699 0.82161897
1.1907001 -0.271265 0.81906182
1.19011 -0.26222602 0.81806493
1.18969 -0.24995199 0.8134613
1.1911399 -0.23860201 0.80747324
1.1879799 -0.229992 0.80910498
1.1925 -0.21715099 0.79851782
1.19224 -0.20744801 0.79682761
1.19301 -0.19886601 0.79470056
1.19136 -0.19335501 0.79220748
1.19353 -0.28672302 0.81795484
1.1946 -0.27836299 0.81360334
1.1893699 -0.270944 0.81570983
1.1896399 -0.258614 0.81199265
1.18902 -0.24800301 0.80806983
1.19283 -0.23758399 0.80149043
1.18748 -0.22962299 0.80304891
1.19429 -0.214343 0.79044861
1.19212 -0.206606 0.78941274
1.19081 -0.198983 0.78919739
1.20082 -0.202176 0.77677786
1.19726 -0.32093897 0.86132765
1.1984 -0.31643498 0.85892671
1.2058001 -0.314293 0.8412931
1.1984401 -0.27828199 0.82219666
1.2016701 -0.28733 0.82627004
1.20707 -0.298816 0.83207291
1.20797 -0.312289 0.83686364
1.19543 -0.250368 0.80826181
1.20227 -0.25832 0.81409717
1.20402 -0.27008599 0.81874275
1.20587 -0.28066799 0.82325518
1.2075701 -0.290696 0.82606745
1.20947 -0.30210501 0.82837248
1.20237 -0.22190501 0.79814821
1.20797 -0.23027501 0.80387086
1.20768 -0.23939699 0.80754203
1.20459 -0.24981001 0.80878311
1.2057 -0.26136199 0.81108713
1.20847 -0.273911 0.81677634
1.20933 -0.283416 0.8202194
1.21005 -0.292115 0.82073808
1.2086799 -0.299936 0.81960922
1.20873 -0.30886802 0.82233185
1.2045701 -0.19657801 0.78674394
1.20875 -0.20851499 0.79342872
1.20786 -0.22017901 0.79602015
1.2082599 -0.230336 0.79909456
1.20818 -0.239739 0.80307204
1.20639 -0.25050899 0.80233645
1.2089701 -0.26158801 0.80624825
1.2092099 -0.271256 0.80931401
1.21067 -0.28312001 0.81353182
1.20977 -0.29300201 0.81409341
1.2101101 -0.30094701 0.81507766
1.20811 -0.30868301 0.81643564
1.20832 -0.198109 0.78349602
1.20901 -0.208464 0.78872216
1.2073799 -0.217861 0.78779525
1.20916 -0.22771099 0.79307067
1.20693 -0.238258 0.7941153
1.2039601 -0.24756999 0.79215348
1.20934 -0.258555 0.80071104
1.21026 -0.26848599 0.80456412
1.20882 -0.27905101 0.80612373
1.2092099 -0.291583 0.80884796
1.2026401 -0.29990998 0.80609792
1.21087 -0.208726 0.78286761
1.20753 -0.21659201 0.78113019
1.2079901 -0.227284 0.78587914
1.20341 -0.239714 0.78598779
1.1957901 -0.24532899 0.78160232
1.19346 -0.249349 0.7804625
1.21035 -0.208038 0.7767064
1.2056401 -0.217161 0.77647918
1.19321 -0.26931199 0.8179068
1.1921901 -0.27528602 0.81912649
1.19839 -0.286291 0.82518852
1.20187 -0.29885301 0.83010215
1.2046701 -0.313458 0.8358373
1.18529 -0.22298099 0.79477972
1.19393 -0.23150499 0.80156052
1.19998 -0.24275801 0.80724585
1.20285 -0.256073 0.81263441
1.20179 -0.27011099 0.81779963
1.20277 -0.28042299 0.82270736
1.20126 -0.29058501 0.82277292
1.20681 -0.303507 0.82992202
1.20592 -0.31272599 0.82940125
1.2002 -0.201728 0.78798622
1.20205 -0.21566799 0.7942698
1.20031 -0.22639099 0.79945868
1.2 -0.235025 0.80096209
1.20485 -0.248656 0.80603486
1.20628 -0.26165399 0.81098044
1.20638 -0.27198499 0.81388342
1.2023001 -0.28011599 0.81565124
1.20338 -0.290077 0.81537008
1.20503 -0.30169201 0.82129472
1.2042 -0.311248 0.82026887
1.2042401 -0.20343 0.78648204
1.20337 -0.212845 0.78772819
1.2035199 -0.22625799 0.79371703
1.20603 -0.239076 0.79812235
1.2072001 -0.24916799 0.80054754
1.2084401 -0.25940901 0.80497408
1.2082801 -0.270524 0.80811393
1.2072799 -0.28075898 0.81087935
1.2053601 -0.28950101 0.80956483
1.20427 -0.299972 0.81223321
1.2022799 -0.30870599 0.81287324
1.20487 -0.20372 0.78026903
1.2048401 -0.21343201 0.78223199
1.2039601 -0.22288099 0.78447509
1.2078 -0.234825 0.79182267
1.2070099 -0.24414301 0.79404223
1.20918 -0.25646001 0.79948854
1.2077 -0.26743299 0.80209917
1.20724 -0.28044799 0.80513209
1.20223 -0.29154801 0.80426317
1.1977301 -0.29938498 0.80363768
1.20697 -0.21291201 0.77765173
1.20433 -0.22336201 0.77975929
1.20619 -0.23294599 0.78502345
1.19603 -0.32409698 0.84206742
1.1940399 -0.26424 0.81599116
1.19681 -0.27561501 0.82161927
1.2007099 -0.28964502 0.82781458
1.2001799 -0.301938 0.8316111
1.20105 -0.22027701 0.79849237
1.20373 -0.230863 0.80379355
1.2044899 -0.24339701 0.80838859
1.2066101 -0.25877002 0.81572688
1.20306 -0.26974899 0.81796974
1.20117 -0.28012502 0.82127863
1.20462 -0.290609 0.82507652
1.20251 -0.30229101 0.82729113
1.2073001 -0.199912 0.78856081
1.2058101 -0.212046 0.79277682
1.20423 -0.223042 0.79737145
1.2070099 -0.235181 0.80142295
1.20881 -0.25018299 0.80775762
1.2068499 -0.26201701 0.81105351
1.2037101 -0.270042 0.81189978
1.20648 -0.281885 0.81705058
1.20705 -0.29385501 0.82157266
1.2059101 -0.30187699 0.821585
1.20628 -0.31266701 0.82518113
1.20883 -0.20116501 0.78488612
1.20657 -0.210867 0.78704733
1.20788 -0.222112 0.79172784
1.20797 -0.233484 0.79385436
1.2068599 -0.245515 0.79772651
1.2084 -0.25909901 0.80376929
1.2083 -0.271828 0.80808204
1.20859 -0.28327298 0.81080675
1.2087101 -0.29348901 0.81566083
1.20918 -0.30424899 0.81889182
1.20874 -0.210677 0.78172088
1.2094001 -0.22337401 0.78540987
1.2104499 -0.237755 0.79194659
1.2103601 -0.24753401 0.79560107
1.20671 -0.25527298 0.79630226
1.20681 -0.26706699 0.80057693
1.20532 -0.27853099 0.80315447
1.20857 -0.29139701 0.80962241
1.20746 -0.21244301 0.77574891
1.20059 -0.21724199 0.77302712
1.19173 -0.28299901 0.82803041
1.1931701 -0.29021099 0.83067918
1.19805 -0.30256799 0.83656657
1.20138 -0.31718501 0.8428272
1.1905301 -0.20588601 0.79280174
1.19314 -0.214469 0.79647386
1.20144 -0.230609 0.80551267
1.20439 -0.24711399 0.81234032
1.20719 -0.26359302 0.81938475
1.20444 -0.276032 0.82391036
1.2014099 -0.286304 0.82891011
1.20002 -0.29518101 0.83074486
1.2019 -0.30826598 0.83539373
1.20426 -0.196927 0.78750664
1.2009799 -0.209801 0.79384911
1.20287 -0.22205299 0.79814428
1.20539 -0.237661 0.80503654
1.20558 -0.24826901 0.80900353
1.2072799 -0.26044598 0.8129611
1.2072001 -0.27445701 0.81851244
1.2048301 -0.287496 0.82340759
1.2051799 -0.30127299 0.82803583
1.2053601 -0.31233299 0.83203584
1.20576 -0.19881399 0.78223348
1.2047499 -0.21109501 0.78861696
1.20552 -0.22250201 0.79284066
1.20585 -0.233769 0.79647303
1.2081 -0.24987301 0.80458885
1.20804 -0.262438 0.80743194
1.2088701 -0.273772 0.81229013
1.20693 -0.285624 0.81575048
1.20669 -0.298893 0.82038093
1.20629 -0.31135598 0.82497972
1.20546 -0.20897499 0.78028834
1.2063301 -0.221908 0.78690797
1.20917 -0.232843 0.79152942
1.20718 -0.244965 0.79646605
1.20987 -0.25967601 0.80348772
1.2076 -0.27085 0.80583161
1.2063401 -0.282397 0.80929506
1.2064099 -0.29553401 0.81375527
1.2018499 -0.30849701 0.81561005
1.1961399 -0.315781 0.81379461
1.19191 -0.320041 0.81255072
1.2068 -0.20695899 0.77466774
1.2046701 -0.21836701 0.77918071
1.19081 -0.26789102 0.82135588
1.1929901 -0.279888 0.82720792
1.19661 -0.29507199 0.83439821
1.2075701 -0.20495899 0.79720861
1.20985 -0.220853 0.80417722
1.20823 -0.23480801 0.80857313
1.2109799 -0.253115 0.81723768
1.2066799 -0.266123 0.82280433
1.20323 -0.276766 0.82511652
1.20279 -0.28960299 0.83113784
1.20356 -0.302755 0.83484149
1.21189 -0.198645 0.79134285
1.21041 -0.213009 0.79631776
1.2118499 -0.22846399 0.80292928
1.21233 -0.243141 0.80837882
1.2105401 -0.25485 0.81206912
1.20943 -0.26612499 0.81806719
1.2048301 -0.27668199 0.81681341
1.20585 -0.292633 0.82538378
1.2099299 -0.310092 0.83220756
1.2119401 -0.209249 0.78801
1.21149 -0.22462401 0.79457062
1.21034 -0.23835501 0.79939681
1.21101 -0.25300199 0.80534875
1.2099 -0.266049 0.81050545
1.20489 -0.276034 0.80889696
1.2039499 -0.28889298 0.814188
1.2063 -0.30423 0.82135004
1.21429 -0.211035 0.78425086
1.2120099 -0.22142 0.78820401
1.21102 -0.23470502 0.79330367
1.21183 -0.249869 0.79947853
1.2094799 -0.26509702 0.80386674
1.2041401 -0.27534202 0.80386382
1.20234 -0.28553498 0.80690265
1.20276 -0.298657 0.81252891
1.2032599 -0.312372 0.81760842
1.2089601 -0.311546 0.84803313
1.2187101 -0.298112 0.84941256
1.20723 -0.31139201 0.84158552
1.20576 -0.305525 0.84284645
1.20608 -0.31205902 0.83609885
1.2064099 -0.30124301 0.83512968
1.21067 -0.30470601 0.83076853
1.20834 -0.29532599 0.82953125
1.2068 -0.284834 0.82778513
1.21077 -0.26843798 0.8260048
1.223 -0.29253799 0.82647735
1.21259 -0.28902 0.82509542
1.2100101 -0.280357 0.82413507
1.2080899 -0.27152202 0.8231594
1.2072001 -0.25915802 0.82107633
1.22531 -0.27677098 0.82111526
1.2139 -0.27530399 0.82030249
1.2128501 -0.26287401 0.81820565
1.2097 -0.25235999 0.81612533
1.21079 -0.24299499 0.81601197
1.21628 -0.26773599 0.81486464
1.2148401 -0.25582898 0.81261832
1.20989 -0.250195 0.81188142
1.21023 -0.24092101 0.81166273
1.2101101 -0.23107299 0.81056523
1.22201 -0.24929501 0.80859065
1.21571 -0.242892 0.8073023
1.21663 -0.22941901 0.80625963
1.214 -0.220679 0.804726
1.2277501 -0.23225799 0.80307043
1.2168599 -0.22895001 0.80154729
1.21477 -0.219088 0.8009361
1.2175801 -0.20271601 0.79834306
1.22746 -0.22021401 0.79853499
1.22114 -0.210196 0.79630005
1.21672 -0.200221 0.79403466
1.20157 -0.31476501 0.84615153
1.22207 -0.28544798 0.84554219
1.2181801 -0.28218299 0.84578544
1.19892 -0.31546199 0.84212464
1.2049299 -0.29997298 0.84111565
1.21595 -0.28481799 0.84243155
1.20258 -0.31035399 0.83681852
1.20222 -0.30019799 0.83614951
1.2013401 -0.29256201 0.83539492
1.2036901 -0.30983299 0.83198905
1.20423 -0.297198 0.83148164
1.19982 -0.29024801 0.83032012
1.20605 -0.277946 0.82877141
1.22155 -0.289803 0.82489181
1.2087799 -0.29288098 0.82590556
1.2042199 -0.28623399 0.82626373
1.2042099 -0.27567601 0.82401252
1.20332 -0.26520801 0.82262099
1.2178501 -0.237598 0.82150698
1.22145 -0.28339002 0.82263255
1.21176 -0.27846399 0.82155633
1.20859 -0.267304 0.81932396
1.20647 -0.258129 0.81841707
1.2105 -0.24542201 0.81845969
1.21632 -0.233228 0.81844133
1.20673 -0.26703599 0.81491613
1.20645 -0.259361 0.81476915
1.20857 -0.247481 0.8140232
1.20443 -0.238846 0.81267631
1.2172 -0.25744599 0.81137091
1.20938 -0.253454 0.81029612
1.20543 -0.24300699 0.80816412
1.20376 -0.233109 0.80670148
1.2086 -0.22129101 0.80641347
1.21042 -0.238388 0.80414259
1.20553 -0.23167299 0.80261475
1.20496 -0.22149099 0.80184823
1.20815 -0.206798 0.80044174
1.2106 -0.22589999 0.79837054
1.20702 -0.220248 0.79773796
1.20683 -0.20890899 0.79658705
1.20907 -0.19327199 0.79502267
1.20609 -0.214756 0.7923764
1.2097499 -0.20149499 0.79148936
1.21672 -0.204216 0.78817487
1.20737 -0.201049 0.78632957
1.2027 -0.313923 0.84652436
1.21698 -0.29102698 0.84377152
1.20222 -0.31812799 0.84285492
1.20222 -0.30981299 0.84022981
1.20367 -0.300237 0.84047979
1.2079901 -0.29076201 0.84037012
1.20377 -0.313171 0.83620191
1.2009701 -0.309383 0.8357234
1.20398 -0.30061901 0.83594894
1.20373 -0.29111201 0.83531922
1.21496 -0.30668101 0.8323555
1.20512 -0.305327 0.83187342
1.2036 -0.29588899 0.83111161
1.2012 -0.28847501 0.83051652
1.20495 -0.276793 0.82899153
1.21684 -0.258818 0.82811624
1.21692 -0.299889 0.8292079
1.20596 -0.29493901 0.82753503
1.2020401 -0.286569 0.82662505
1.2065899 -0.27313 0.82430595
1.2080799 -0.262593 0.82460272
1.2084301 -0.254163 0.82405168
1.21119 -0.27835399 0.82189691
1.2055401 -0.27154401 0.81939608
1.20877 -0.26175401 0.81998223
1.2067701 -0.25343299 0.8198908
1.2099401 -0.24558701 0.81985581
1.21101 -0.267129 0.81518626
1.2069401 -0.263147 0.81540245
1.20802 -0.25302699 0.81483293
1.20525 -0.24371201 0.81366682
1.2254599 -0.25659299 0.81089079
1.21867 -0.25342101 0.81077993
1.212 -0.245166 0.80931956
1.20859 -0.23650299 0.80820894
1.20654 -0.22854601 0.80754501
1.21026 -0.21562 0.80554122
1.23422 -0.24496099 0.80780119
1.2238899 -0.239713 0.80590683
1.21079 -0.23527399 0.80415261
1.2099 -0.226999 0.80426377
1.20783 -0.21781 0.80289376
1.2080001 -0.20648199 0.80092299
1.22439 -0.225648 0.80025697
1.21112 -0.22252399 0.79915375
1.2110701 -0.21045299 0.7978797
1.2099401 -0.201187 0.79675645
1.20951 -0.194144 0.79584664
1.22323 -0.213571 0.79462129
1.21445 -0.208873 0.79333031
1.2092099 -0.202732 0.79324043
1.20699 -0.194492 0.79208463
1.22241 -0.201831 0.78894919
1.21365 -0.196945 0.78816324
1.2069499 -0.307502 0.84838486
1.2070099 -0.311463 0.8437103
1.20393 -0.30630502 0.84313768
1.20952 -0.29666701 0.84224719
1.20542 -0.30839002 0.83844674
1.2025 -0.30563298 0.83875883
1.19986 -0.29915199 0.83765793
1.1987799 -0.290158 0.83588594
1.21163 -0.27875602 0.83625442
1.2016101 -0.301478 0.83354354
1.2031 -0.293679 0.83313334
1.20191 -0.286865 0.83147895
1.2056099 -0.28072399 0.83270675
1.21092 -0.29552901 0.82912546
1.2027301 -0.29245701 0.8286106
1.20407 -0.28530499 0.82777464
1.19929 -0.28226298 0.82764435
1.21497 -0.28793401 0.82615972
1.20154 -0.28596398 0.82484651
1.1959701 -0.28278798 0.8239482
1.20969 -0.234947 0.81865501
1.22067 -0.22666201 0.81918162
1.20377 -0.279439 0.82201767
1.21437 -0.231978 0.8160553
1.2085099 -0.230297 0.81524843
1.2108799 -0.23239599 0.8112306
1.2089601 -0.22750999 0.81077254
1.2125499 -0.22032699 0.81040227
1.2085199 -0.23239 0.80532175
1.2092401 -0.22679399 0.80636406
1.20297 -0.222987 0.80654556
1.20566 -0.21310399 0.80475783
1.2228 -0.22554001 0.8014102
1.2142299 -0.22389999 0.80132645
1.2073101 -0.21828501 0.80173737
1.20509 -0.210068 0.80095553
1.2075599 -0.19932501 0.79958272
1.22339 -0.21812201 0.79733104
1.21299 -0.21485399 0.79660386
1.20697 -0.208225 0.79701608
1.20806 -0.198456 0.79514903
1.22268 -0.208214 0.7923286
1.21068 -0.20419599 0.79135954
1.21854 -0.30567899 0.8561067
1.21144 -0.310491 0.8513903
1.2101001 -0.30619499 0.85086304
1.21542 -0.30119801 0.84479785
1.21779 -0.29820201 0.840756
1.21306 -0.29129201 0.83894998
1.2201999 -0.28018001 0.83764094
1.21415 -0.29692301 0.8366434
1.21849 -0.28842199 0.83596069
1.2131 -0.28227898 0.83485627
1.20838 -0.27381501 0.83299387
1.22618 -0.29223901 0.83317262
1.21207 -0.28764799 0.83153993
1.20974 -0.27853599 0.83024549
1.20785 -0.27014601 0.82908684
1.2149199 -0.26024699 0.82892263
1.22104 -0.249357 0.82784724
1.2168599 -0.285384 0.82785678
1.20829 -0.279569 0.82639825
1.2057 -0.27208701 0.82593095
1.20824 -0.26186401 0.82490492
1.2070301 -0.25396001 0.82504052
1.20855 -0.244652 0.82311076
1.21943 -0.27647102 0.82413667
1.20708 -0.269669 0.8217479
1.21 -0.25845599 0.81987959
1.2085199 -0.25148898 0.82087725
1.20432 -0.242751 0.81836462
1.2056 -0.23395799 0.818039
1.2150199 -0.22394399 0.81790972
1.22921 -0.255927 0.81413221
1.21086 -0.25745198 0.81501794
1.20654 -0.249763 0.81532645
1.20207 -0.24241899 0.81442016
1.2024701 -0.233725 0.81372231
1.2101001 -0.22314399 0.81404364
1.2181801 -0.25369799 0.81118929
1.21407 -0.248106 0.81082451
1.2044001 -0.24053699 0.81013435
1.2032599 -0.23109502 0.80887389
1.20065 -0.223851 0.80904609
1.20384 -0.212881 0.8080126
1.21415 -0.199793 0.80655235
1.22746 -0.24433799 0.80835813
1.21306 -0.238538 0.80633444
1.20671 -0.23041999 0.80496132
1.20109 -0.22410601 0.80489177
1.20234 -0.213745 0.80377221
1.2081701 -0.201874 0.80358702
1.2172899 -0.191462 0.80284113
1.21921 -0.224558 0.80118906
1.20432 -0.22017099 0.79995096
1.20462 -0.21044001 0.79878038
1.20419 -0.20368299 0.79975694
1.2066799 -0.194141 0.79846495
1.21487 -0.215059 0.795829
1.21187 -0.20788001 0.79471445
1.20708 -0.20109801 0.79513949
