# .PCD v0.7 - Point Cloud Data file format
VERSION 0.7
FIELDS x y z
SIZE 4 4 4
TYPE F F F
COUNT 1 1 1
WIDTH 383
HEIGHT 1
VIEWPOINT 0 0 0 1 0 0 0
POINTS 383
DATA ascii
1.29117 -0.41047201 1.5010049
1.29354 -0.405357 1.5014889
1.3011301 -0.40775901 1.501649
1.2986 -0.41231999 1.492561
1.29995 -0.40495899 1.4931672
1.33013 -0.398974 1.500874
1.3141201 -0.42966098 1.496753
1.30138 -0.42095101 1.490752
1.30659 -0.41247201 1.4899421
1.30767 -0.405532 1.4904721
1.32151 -0.39923698 1.493999
1.33804 -0.39663899 1.5005982
1.3200101 -0.426272 1.4956381
1.3174499 -0.41623199 1.4910949
1.31976 -0.40601501 1.489561
1.32555 -0.398862 1.4902149
1.33216 -0.39403099 1.4912311
1.3305299 -0.40691298 1.4872141
1.33338 -0.400116 1.488215
1.33841 -0.39299598 1.486129
1.34724 -0.390811 1.490695
1.35093 -0.40908298 1.4890441
1.33998 -0.399593 1.483143
1.34232 -0.39300701 1.482309
1.3442799 -0.38872102 1.482106
1.3502699 -0.401568 1.48035
1.34764 -0.39470199 1.4792861
1.3505499 -0.390531 1.4773542
1.35414 -0.396505 1.4743351
1.3483 -0.39009702 1.4698861
1.2986301 -0.40582299 1.498631
1.29847 -0.40557802 1.494525
1.3112301 -0.40259498 1.4987922
1.2923501 -0.41233599 1.4872479
1.3009 -0.40672001 1.4894971
1.3094299 -0.40150797 1.4933051
1.31602 -0.39762798 1.4934751
1.29856 -0.41365701 1.4856439
1.30493 -0.40672001 1.4851941
1.3128301 -0.40160701 1.4877841
1.31036 -0.39341301 1.483732
1.33097 -0.41866797 1.489607
1.31898 -0.41015598 1.485545
1.31704 -0.401371 1.4835291
1.30567 -0.390365 1.4769369
1.33227 -0.41541499 1.486431
1.32748 -0.40862 1.4838901
1.3353101 -0.41291198 1.48422
1.2903399 -0.41270697 1.4828
1.33259 -0.382314 1.4759741
1.3456501 -0.38429201 1.4817331
1.33789 -0.38403702 1.4749482
1.3400999 -0.38096002 1.474136
1.34184 -0.38548401 1.4710879
1.3222901 -0.393071 1.492468
1.3371899 -0.39723998 1.4991641
1.3267101 -0.39450198 1.4903312
1.3294001 -0.39070901 1.4894501
1.3286301 -0.394595 1.4841532
1.3346001 -0.39029098 1.484367
1.3418601 -0.38685298 1.485514
1.33416 -0.39801899 1.478376
1.33644 -0.39207101 1.4790691
1.3404801 -0.384152 1.4781451
1.3526 -0.382119 1.4805441
1.3414999 -0.40183601 1.474279
1.3369701 -0.39379001 1.472803
1.34403 -0.38780499 1.473461
1.3428501 -0.400594 1.4681571
1.3454 -0.39517298 1.4685119
1.3029699 -0.39608899 1.493065
1.3110601 -0.39505199 1.495859
1.31926 -0.394059 1.498093
1.3054601 -0.39969298 1.490113
1.3077 -0.39423802 1.490715
1.3141701 -0.38991401 1.489885
1.3055701 -0.399225 1.4843401
1.31172 -0.396478 1.4859631
1.31733 -0.38882598 1.483217
1.32381 -0.38198102 1.48198
1.3119299 -0.40104902 1.480725
1.31724 -0.395053 1.479097
1.32375 -0.387407 1.4779681
1.33183 -0.38205501 1.4779351
1.3388699 -0.38094398 1.480095
1.33129 -0.40407601 1.4799401
1.32943 -0.392378 1.474804
1.33237 -0.38334599 1.473302
1.34172 -0.377958 1.472298
1.3377299 -0.39569801 1.4721221
1.3412801 -0.38750303 1.4703381
1.3060601 -0.38100299 1.494158
1.31725 -0.37420601 1.492624
1.3306 -0.37133998 1.489108
1.2809399 -0.38631698 1.4966071
1.29875 -0.381291 1.4924731
1.31285 -0.37511501 1.490501
1.32552 -0.370639 1.488103
1.33092 -0.36587399 1.485321
1.28273 -0.38628399 1.492113
1.29808 -0.381926 1.488979
1.30735 -0.37580502 1.487321
1.32775 -0.37031701 1.482319
1.33895 -0.36264703 1.476943
1.27792 -0.38746202 1.4887201
1.2965699 -0.38211101 1.485589
1.32332 -0.37433201 1.4784011
1.3356799 -0.36666301 1.4738932
1.28433 -0.38917598 1.484277
1.30415 -0.39368999 1.4946851
1.3132401 -0.38881502 1.49352
1.3205 -0.38157502 1.4919831
1.3316001 -0.37665799 1.4889841
1.28304 -0.39101601 1.4958191
1.29834 -0.38668597 1.4944091
1.3100301 -0.38187698 1.4916871
1.3243401 -0.37492901 1.487543
1.3348399 -0.36894903 1.484718
1.2781 -0.39055002 1.4925901
1.2939999 -0.38613099 1.490538
1.31075 -0.37979802 1.486667
1.32463 -0.37290502 1.4823542
1.33575 -0.36745998 1.4802201
1.28021 -0.39026299 1.488094
1.2954899 -0.38446602 1.4859231
1.31373 -0.37761602 1.4819721
1.33138 -0.37237301 1.47649
1.33452 -0.36616001 1.476161
1.28731 -0.39330003 1.4827899
1.2847099 -0.40154302 1.496897
1.29204 -0.39561403 1.4970011
1.2997 -0.39005297 1.49623
1.30758 -0.38251799 1.494675
1.3291401 -0.37939498 1.4895841
1.34872 -0.37867698 1.48474
1.2803199 -0.39326 1.495975
1.2933999 -0.387128 1.494596
1.3020799 -0.38065398 1.492987
1.3190401 -0.37805998 1.488296
1.3396001 -0.374576 1.48392
1.28757 -0.389117 1.489967
1.3000301 -0.381403 1.4884261
1.31785 -0.37773702 1.4832269
1.3356199 -0.37345698 1.479158
1.29321 -0.38877499 1.483531
1.3095 -0.38404998 1.480709
1.3267701 -0.37609902 1.4767472
1.33627 -0.37084901 1.4741031
1.28537 -0.39448202 1.4806021
1.30269 -0.39259499 1.477615
1.2890601 -0.391633 1.4964621
1.2971001 -0.38452801 1.495295
1.3126601 -0.37792099 1.492478
1.3295 -0.373685 1.4893051
1.3503101 -0.376385 1.48409
1.28686 -0.39089 1.4929721
1.3043699 -0.38468301 1.4897782
1.3139 -0.37730202 1.4885681
1.32377 -0.37323701 1.487901
1.3373399 -0.36961898 1.483986
1.28557 -0.39118999 1.4878811
1.29618 -0.38488799 1.486858
1.31371 -0.37984002 1.483301
1.32435 -0.37259603 1.4830021
1.3376801 -0.368754 1.478435
1.29336 -0.39182898 1.483059
1.30256 -0.38408798 1.481891
1.3174499 -0.38057598 1.4784501
1.32696 -0.37127799 1.47686
1.34153 -0.36637199 1.4725549
1.29045 -0.40815398 1.4968631
1.29252 -0.39913502 1.498087
1.3033 -0.39479697 1.4971139
1.3095399 -0.38717997 1.4957089
1.28722 -0.394546 1.495383
1.3004899 -0.392048 1.494629
1.30453 -0.38182598 1.4933881
1.3215801 -0.37898299 1.488795
1.33083 -0.37229002 1.486963
1.2833999 -0.39657003 1.4896591
1.29581 -0.387344 1.4899091
1.3111099 -0.38144001 1.4867231
1.3216901 -0.37582001 1.484484
1.3295701 -0.37142798 1.4837521
1.33938 -0.370765 1.4819281
1.27882 -0.39405 1.485062
1.2915699 -0.38970903 1.483979
1.30435 -0.38130501 1.483194
1.3173699 -0.37574601 1.4814
1.32735 -0.37129399 1.479768
1.33021 -0.36518601 1.480599
1.2885001 -0.39685601 1.479733
1.29882 -0.39209098 1.4788281
1.3210001 -0.376091 1.477209
1.32883 -0.37091202 1.476427
1.3049001 -0.42217401 1.496572
1.30707 -0.42791802 1.497138
1.3185899 -0.42231899 1.49611
1.3108001 -0.426442 1.493872
1.2987399 -0.43599302 1.49274
1.31856 -0.41990399 1.4906551
1.30813 -0.42704701 1.4888879
1.29702 -0.43681401 1.485929
1.31524 -0.41099602 1.4831901
1.3177299 -0.41860598 1.4860021
1.29956 -0.42855799 1.4832519
1.3356301 -0.40518501 1.4825351
1.32556 -0.409058 1.4818469
1.3406 -0.40397799 1.4807471
1.3248 -0.40636399 1.4779531
1.32935 -0.40375701 1.49332
1.3333299 -0.411356 1.4945771
1.3225999 -0.41920799 1.4941831
1.30832 -0.426934 1.493952
1.296 -0.43214101 1.4935549
1.3448399 -0.40705001 1.4928689
1.33907 -0.41074401 1.4919721
1.3287899 -0.416857 1.4912921
1.3148301 -0.42389703 1.4903021
1.2995501 -0.43179598 1.4894681
1.3455701 -0.40029499 1.4876331
1.3466499 -0.405761 1.488256
1.33741 -0.41134101 1.4873841
1.32779 -0.41881803 1.4873061
1.3061099 -0.42394599 1.4852279
1.3586501 -0.40225801 1.48427
1.3499899 -0.40589902 1.483453
1.3332601 -0.41047502 1.482185
1.3142999 -0.41579497 1.4814911
1.35841 -0.40053999 1.4789292
1.3552499 -0.404663 1.4784812
1.3184199 -0.41314399 1.496067
1.3133399 -0.42119801 1.497115
1.3033501 -0.42815399 1.496241
1.3372999 -0.40166301 1.4925971
1.33882 -0.40995499 1.494644
1.32938 -0.41513902 1.4940981
1.31214 -0.42054099 1.4937481
1.3050599 -0.42802101 1.4936371
1.34667 -0.404163 1.4901959
1.33836 -0.409206 1.4910141
1.33065 -0.41327599 1.4895072
1.31864 -0.41880599 1.4896719
1.3061501 -0.42696097 1.489768
1.3482001 -0.39605799 1.483916
1.35032 -0.40154701 1.4846029
1.34277 -0.40792701 1.4859991
1.3257401 -0.41186002 1.4849482
1.30898 -0.41678602 1.4850851
1.3537601 -0.39530602 1.478793
1.3499899 -0.40062001 1.4796201
1.33893 -0.40469003 1.479733
1.3435299 -0.381827 1.468258
1.3521401 -0.39313099 1.4734021
1.3516001 -0.398812 1.474434
1.34083 -0.39151999 1.467433
1.3100301 -0.405233 1.4971091
1.31071 -0.413149 1.4977732
1.2973199 -0.41957599 1.4969341
1.33332 -0.40606201 1.494195
1.32427 -0.41054198 1.4958999
1.32012 -0.41499698 1.4955679
1.3119501 -0.42206401 1.4956031
1.2993801 -0.42920199 1.494769
1.33543 -0.40333802 1.488996
1.32888 -0.40946999 1.491199
1.3217 -0.41769698 1.4916681
1.3080901 -0.42409402 1.490841
1.32555 -0.38024601 1.4767691
1.32824 -0.389173 1.48028
1.33636 -0.40295801 1.4858029
1.3266701 -0.408443 1.486306
1.31639 -0.41883799 1.487569
1.30164 -0.42461699 1.486254
1.33819 -0.38864601 1.476004
1.3276401 -0.39348701 1.478292
1.3354499 -0.38688701 1.473165
1.35541 -0.38754299 1.497489
1.34131 -0.39243999 1.507479
1.33687 -0.39625701 1.511006
1.35734 -0.39170101 1.491873
1.3428301 -0.39613998 1.5031799
1.355 -0.392214 1.4862702
1.3471 -0.39608899 1.493907
1.34886 -0.393143 1.484694
1.34393 -0.39748698 1.4876751
1.3351401 -0.39501098 1.4880991
1.3255701 -0.40050399 1.491817
1.29994 -0.40815103 1.5045651
1.31707 -0.396088 1.494871
1.3110001 -0.40237901 1.495773
1.28966 -0.41010898 1.5060589
1.35513 -0.38667703 1.493471
1.3425599 -0.390977 1.5017221
1.3281399 -0.39293203 1.5116949
1.3527299 -0.391321 1.4903461
1.3380799 -0.39430302 1.500798
1.3486999 -0.39145699 1.4870831
1.34093 -0.39611802 1.491786
1.31144 -0.40314099 1.503335
1.3434399 -0.38571799 1.485424
1.34097 -0.39250401 1.4858569
1.3262601 -0.39931598 1.4923351
1.30718 -0.40412301 1.501642
1.32778 -0.39214501 1.4884272
1.32565 -0.398485 1.4884621
1.30793 -0.403909 1.497262
1.30955 -0.39961103 1.4922949
1.29442 -0.405615 1.499048
1.35324 -0.37737399 1.501725
1.34498 -0.382909 1.5052261
1.3525701 -0.38494098 1.4963189
1.33512 -0.38814601 1.5054331
1.34308 -0.391561 1.4938381
1.32618 -0.395978 1.5030529
1.32081 -0.40127301 1.5048401
1.34729 -0.38583601 1.4857541
1.3413401 -0.39324102 1.4882311
1.3333701 -0.398828 1.491825
1.32064 -0.401122 1.500411
1.3333501 -0.38381901 1.488047
1.33084 -0.391848 1.4886551
1.32407 -0.39784801 1.4912879
1.3216499 -0.403063 1.491945
1.31804 -0.38073897 1.493143
1.3168499 -0.38835201 1.4917401
1.31652 -0.397991 1.4897031
1.30654 -0.40415299 1.4933341
1.3016901 -0.39614499 1.4928571
1.2950799 -0.403088 1.494738
1.35535 -0.37527198 1.496366
1.34326 -0.38115102 1.5020261
1.33206 -0.38613603 1.507259
1.3166701 -0.38580102 1.516669
1.3540699 -0.38257802 1.491811
1.34381 -0.38984099 1.494849
1.32582 -0.39184502 1.505044
1.35528 -0.38428399 1.4836639
1.3412 -0.39110401 1.4893111
1.3290801 -0.39515001 1.4961371
1.3118401 -0.39799199 1.5039129
1.30365 -0.40281299 1.5056211
1.35184 -0.38553399 1.479238
1.34317 -0.39180401 1.4825881
1.33249 -0.396384 1.488077
1.3199201 -0.40133801 1.493022
1.3068601 -0.40690699 1.4970911
1.33158 -0.38744098 1.486176
1.3271401 -0.39756402 1.484668
1.31067 -0.40337002 1.4901489
1.29979 -0.40921101 1.4934191
1.29316 -0.39291501 1.491449
1.30698 -0.40280399 1.4846569
1.3021899 -0.409114 1.4868511
1.28716 -0.39725 1.4895291
1.28935 -0.40658599 1.4869189
1.2796199 -0.395069 1.4895722
1.35689 -0.38214001 1.4924331
1.3480201 -0.38845903 1.4958271
1.35224 -0.38953301 1.4893091
1.33297 -0.39164698 1.4988021
1.32559 -0.399901 1.49863
1.3470501 -0.38839698 1.4857721
1.3422501 -0.39568001 1.488488
1.3300301 -0.40133703 1.491691
1.31513 -0.40332901 1.4978141
1.33919 -0.386632 1.483454
1.3347501 -0.39412701 1.4862151
1.3252901 -0.400172 1.487638
1.31801 -0.406232 1.4901779
1.31153 -0.41152802 1.4908611
1.3150301 -0.36824799 1.4929241
1.32613 -0.379311 1.486082
1.32464 -0.39107299 1.484658
1.31559 -0.40054402 1.4862621
1.30948 -0.40720901 1.487946
1.3016 -0.41303799 1.4878141
1.3125399 -0.37260601 1.4903421
1.30951 -0.37955201 1.490716
1.30739 -0.39483503 1.486196
1.30301 -0.406652 1.484391
1.2980901 -0.41474602 1.4835581
1.29333 -0.40356201 1.483844
