# .PCD v0.7 - Point Cloud Data file format
VERSION 0.7
FIELDS x y z
SIZE 4 4 4
TYPE F F F
COUNT 1 1 1
WIDTH 249
HEIGHT 1
VIEWPOINT 0 0 0 1 0 0 0
POINTS 249
DATA ascii
1.2130101 -0.36071801 1.48175
1.21264 -0.35483003 1.480628
1.2099 -0.34538898 1.477707
1.20665 -0.33546501 1.474261
1.20478 -0.32880902 1.4720361
1.21079 -0.362739 1.476981
1.20954 -0.352981 1.475052
1.209 -0.342906 1.4731841
1.2078099 -0.33434898 1.4710981
1.1977201 -0.32671902 1.464499
1.20884 -0.36169398 1.471452
1.20875 -0.35133898 1.469586
1.20784 -0.34142601 1.4675422
1.2099199 -0.33536801 1.4678371
1.20727 -0.35924399 1.466514
1.2088 -0.349058 1.4656131
1.21129 -0.34158599 1.465717
1.21668 -0.337832 1.4679111
1.20425 -0.35976002 1.4742999
1.20477 -0.352754 1.473302
1.20889 -0.346477 1.4747311
1.20586 -0.33974999 1.471418
1.20471 -0.36321098 1.4711591
1.2043099 -0.353219 1.468707
1.20786 -0.34596699 1.470809
1.20242 -0.33818698 1.4659039
1.20434 -0.362084 1.4665281
1.20558 -0.35478199 1.464635
1.2051101 -0.34564999 1.4648252
1.19683 -0.335796 1.459452
1.2114199 -0.35834 1.464867
1.21015 -0.35084301 1.4634261
1.2023799 -0.36029097 1.4707291
1.19485 -0.35008499 1.4643701
1.19822 -0.357384 1.4649429
1.1926999 -0.347938 1.458853
1.19807 -0.35673901 1.460628
1.18846 -0.344888 1.452678
1.18758 -0.34429902 1.4495211
1.20742 -0.33877999 1.458179
1.2081701 -0.34992099 1.4602442
1.20578 -0.33203301 1.4542301
1.20576 -0.34072 1.455724
1.20529 -0.351778 1.457751
1.20553 -0.33103803 1.4507229
1.20776 -0.33752301 1.4502411
1.20539 -0.349911 1.4525601
1.2059799 -0.360493 1.454308
1.20178 -0.35149398 1.450693
1.20128 -0.34966901 1.4606202
1.2033 -0.35638902 1.4608731
1.20125 -0.34904203 1.457191
1.2042401 -0.354808 1.4567691
1.19898 -0.34284902 1.454185
1.19935 -0.348744 1.4547341
1.2009799 -0.358127 1.4551049
1.18521 -0.360277 1.466293
1.19485 -0.363215 1.46189
1.1832399 -0.35432202 1.462669
1.1917601 -0.35722801 1.4583099
1.17992 -0.359813 1.461622
1.19526 -0.362663 1.453271
1.17423 -0.36757198 1.4670171
1.20683 -0.352247 1.456689
1.20673 -0.35973099 1.453639
1.20367 -0.34892601 1.454993
1.20609 -0.34072399 1.454538
1.20753 -0.327225 1.4546051
1.20943 -0.31803599 1.4550891
1.21126 -0.31026199 1.4544891
1.20323 -0.355111 1.451141
1.20417 -0.345682 1.451961
1.20626 -0.33597001 1.4511521
1.2071199 -0.32480201 1.451571
1.20964 -0.31753299 1.4523941
1.20997 -0.308532 1.4519299
1.21167 -0.29891002 1.4515769
1.21267 -0.288728 1.452051
1.21653 -0.28097799 1.451076
1.21517 -0.27210799 1.4523031
1.217 -0.26738 1.4525491
1.20566 -0.35984099 1.4466571
1.2051101 -0.346706 1.448414
1.2075701 -0.33715099 1.4477911
1.20553 -0.32537499 1.4489341
1.20863 -0.315633 1.4488251
1.2089499 -0.30450702 1.4490491
1.20885 -0.29605499 1.449842
1.21293 -0.28847399 1.4493289
1.21277 -0.27683499 1.449635
1.21552 -0.27121699 1.449882
1.21512 -0.31952602 1.4434791
1.20945 -0.30770501 1.446113
1.20987 -0.29611999 1.4470199
1.2121199 -0.28461099 1.4467691
1.21007 -0.27533999 1.4473981
1.21242 -0.27100599 1.4475491
1.2147599 -0.27236402 1.443724
1.2097499 -0.359225 1.457191
1.20648 -0.35852298 1.4552859
1.20583 -0.34640899 1.4556371
1.2063099 -0.33287603 1.455484
1.2089499 -0.323461 1.455124
1.20303 -0.351246 1.452693
1.20393 -0.34066701 1.4533451
1.2071 -0.333148 1.4523401
1.20735 -0.32318002 1.452909
1.20906 -0.313077 1.452865
1.20788 -0.29953501 1.4537101
1.19881 -0.286742 1.457876
1.2006401 -0.28282699 1.4580491
1.20447 -0.355838 1.448512
1.2041401 -0.34115201 1.4501691
1.20586 -0.327795 1.449911
1.20724 -0.31740999 1.4500061
1.2069499 -0.30746499 1.450742
1.20813 -0.29951 1.4505271
1.20318 -0.28940001 1.4532111
1.2073799 -0.31803399 1.4471941
1.2073799 -0.307643 1.4477481
1.20389 -0.29507402 1.44919
1.2034 -0.28900298 1.4498309
1.19382 -0.284361 1.450402
1.21462 -0.35888499 1.455554
1.20471 -0.3536 1.4553821
1.20244 -0.338792 1.457664
1.2040401 -0.33013198 1.4577099
1.2019401 -0.360984 1.4518631
1.20359 -0.35191399 1.4518881
1.20433 -0.340933 1.4532791
1.20058 -0.328686 1.4564441
1.19077 -0.31654799 1.4604471
1.2 -0.357954 1.449627
1.20285 -0.34813702 1.4495701
1.2009799 -0.33716097 1.451695
1.20309 -0.33113301 1.452621
1.1965899 -0.362342 1.4553829
1.1981 -0.350826 1.455749
1.1956401 -0.34000501 1.4571069
1.19454 -0.35463101 1.452601
1.19673 -0.34654799 1.453042
1.19425 -0.338323 1.454785
1.18804 -0.35091302 1.451857
1.19484 -0.34543401 1.4509289
1.19195 -0.33606499 1.4528852
1.22124 -0.350263 1.4524429
1.22176 -0.33999699 1.4496131
1.22126 -0.34944302 1.4489459
1.22483 -0.336247 1.445092
1.22505 -0.32975101 1.4442301
1.2218 -0.35052502 1.4452851
1.22374 -0.33889702 1.4426309
1.2252201 -0.33008301 1.44129
1.23457 -0.31861001 1.4379021
1.23473 -0.33748502 1.4367871
1.23682 -0.32911301 1.4350951
1.22745 -0.36103198 1.4484171
1.19885 -0.35661203 1.4776791
1.19656 -0.28420699 1.478972
1.1999099 -0.292687 1.4761529
1.20356 -0.30560699 1.47287
1.20068 -0.31570601 1.473798
1.20337 -0.32694399 1.471128
1.2031 -0.34078097 1.4698191
1.2097 -0.35681498 1.467198
1.20417 -0.25812399 1.4712161
1.20553 -0.269427 1.46978
1.20401 -0.28345001 1.470099
1.2052701 -0.29646999 1.4688641
1.20617 -0.306609 1.4675751
1.20509 -0.317341 1.4669161
1.20486 -0.33042198 1.4663041
1.20451 -0.34008703 1.464373
1.20271 -0.35167599 1.4661881
1.20622 -0.36245099 1.4648471
1.20603 -0.25955701 1.4661191
1.20363 -0.27136201 1.467034
1.20429 -0.28057802 1.4649231
1.20333 -0.29176599 1.4650421
1.2040499 -0.30512699 1.4637109
1.20761 -0.31806201 1.459113
1.2040499 -0.32843 1.461967
1.2042401 -0.33718202 1.460659
1.20109 -0.348418 1.4628121
1.20365 -0.36073399 1.461621
1.2054 -0.25579399 1.460948
1.20485 -0.26905 1.461709
1.2036 -0.28338102 1.4614761
1.20683 -0.29710698 1.458794
1.2052799 -0.308604 1.457785
1.20813 -0.31845 1.4549881
1.20237 -0.325822 1.458461
1.19976 -0.25639299 1.4608622
1.1998 -0.34943199 1.4762931
1.21017 -0.31482899 1.467639
1.21383 -0.32516202 1.464403
1.20699 -0.333947 1.468053
1.20857 -0.34891301 1.466578
1.21135 -0.36083901 1.463065
1.2057 -0.26735398 1.46978
1.2091401 -0.28291401 1.4661651
1.2072899 -0.295416 1.466731
1.21573 -0.31385902 1.4605831
1.2152101 -0.32459399 1.459964
1.21207 -0.33581501 1.460457
1.21035 -0.35135701 1.4600641
1.2102101 -0.25633201 1.464707
1.2127301 -0.272549 1.4612271
1.21119 -0.28434899 1.460817
1.2111599 -0.29766899 1.46035
1.21321 -0.31084299 1.457772
1.2129101 -0.32187697 1.4567881
1.21193 -0.332616 1.45573
1.20856 -0.34541401 1.4571359
1.2073001 -0.36083198 1.4560671
1.21372 -0.26081401 1.4578241
1.2087101 -0.269905 1.45883
1.20789 -0.27909499 1.4588519
1.2076499 -0.29029801 1.458271
1.21214 -0.30916899 1.4547782
1.2065101 -0.31917801 1.456531
1.20915 -0.25316399 1.457469
1.2117 -0.267474 1.454187
1.2088799 -0.27780199 1.4547321
1.2072001 -0.31893501 1.4708802
1.21205 -0.330183 1.4665351
1.21348 -0.34432203 1.4638989
1.2188201 -0.29910901 1.4610851
1.21415 -0.30690202 1.4632339
1.2184501 -0.32246798 1.4597821
1.21665 -0.33581403 1.4592611
1.21714 -0.35108602 1.457114
1.21716 -0.27385199 1.460202
1.2196801 -0.29263002 1.4564999
1.21671 -0.306539 1.4572121
1.2164299 -0.318481 1.456145
1.21609 -0.32940301 1.455038
1.21584 -0.34299999 1.4540961
1.21514 -0.358399 1.452926
1.22036 -0.26603499 1.4567261
1.21849 -0.27912101 1.4547241
1.2186799 -0.29506201 1.4524921
1.21455 -0.30403998 1.453446
1.21763 -0.31728202 1.451174
1.2117 -0.32764801 1.4537399
1.2165101 -0.26311898 1.4553131
1.21329 -0.27449101 1.4542841
1.21645 -0.289056 1.4504371
1.2162499 -0.302421 1.4492431
