# .PCD v0.7 - Point Cloud Data file format
VERSION 0.7
FIELDS x y z
SIZE 4 4 4
TYPE F F F
COUNT 1 1 1
WIDTH 375
HEIGHT 1
VIEWPOINT 0 0 0 1 0 0 0
POINTS 375
DATA ascii
1.2760299 -0.342747 1.368647
1.29039 -0.340841 1.374572
1.28183 -0.34400299 1.367756
1.2831199 -0.33828801 1.366799
1.28877 -0.346158 1.3676491
1.24331 -0.34229401 1.366055
1.24971 -0.34408501 1.365912
1.25397 -0.34034199 1.3662581
1.26431 -0.33500701 1.367703
1.26073 -0.34645 1.365896
1.2639 -0.340417 1.3654441
1.2672499 -0.332656 1.364444
1.27195 -0.32763401 1.3647341
1.2763 -0.35121301 1.3666
1.26886 -0.342695 1.3622531
1.27084 -0.33475798 1.361676
1.2709401 -0.325692 1.3597211
1.28294 -0.34731603 1.362993
1.2985899 -0.35255101 1.3659821
1.2911301 -0.342933 1.361302
1.2554799 -0.35375401 1.3790879
1.2635601 -0.35208902 1.381655
1.25471 -0.35322499 1.3744839
1.25922 -0.35047001 1.376819
1.2590699 -0.34183601 1.373224
1.27396 -0.341391 1.3774071
1.25846 -0.35506698 1.3698151
1.25897 -0.348324 1.3706391
1.2631099 -0.34155801 1.370141
1.2671601 -0.33515599 1.368755
1.2675099 -0.36058301 1.3688102
1.2654799 -0.35219201 1.3671041
1.26745 -0.34173 1.365939
1.27209 -0.33282298 1.3639051
1.26792 -0.361377 1.365795
1.2732 -0.35765201 1.366877
1.26912 -0.34325999 1.3612731
1.2737499 -0.33339 1.359679
1.24818 -0.36057401 1.380358
1.26073 -0.35994998 1.383975
1.26852 -0.352999 1.3848881
1.25474 -0.366216 1.3794521
1.25599 -0.35756502 1.376967
1.2628701 -0.34963199 1.3784981
1.2712799 -0.34172699 1.3786811
1.27747 -0.33442199 1.377665
1.25404 -0.36680999 1.372964
1.25802 -0.357658 1.371725
1.26212 -0.349291 1.3724381
1.26519 -0.33885601 1.3714011
1.26834 -0.32891601 1.3692889
1.27811 -0.32707101 1.37155
1.2614701 -0.37298402 1.371708
1.26209 -0.361918 1.368876
1.26652 -0.35179299 1.368035
1.26634 -0.34097999 1.366479
1.2727 -0.33257499 1.365569
1.2739 -0.36985999 1.370672
1.27262 -0.35544202 1.3660671
1.2721801 -0.34078997 1.3617359
1.2845399 -0.34882998 1.363161
1.26044 -0.372621 1.39133
1.25957 -0.35964599 1.3877521
1.26878 -0.35351199 1.388926
1.2535 -0.36720797 1.3836981
1.25791 -0.35757598 1.382643
1.261 -0.347758 1.3815111
1.27257 -0.34505001 1.3832561
1.2528601 -0.36945099 1.376895
1.25773 -0.36106399 1.3781841
1.26083 -0.34846199 1.3752741
1.26897 -0.34198299 1.3772101
1.27598 -0.33356702 1.374086
1.26037 -0.361361 1.3717481
1.2624099 -0.34554499 1.3676751
1.26976 -0.33908698 1.369908
1.2730401 -0.32589802 1.3642269
1.2559201 -0.36986697 1.368544
1.26579 -0.36436999 1.3694642
1.26947 -0.35140899 1.365919
1.27026 -0.33567101 1.3614221
1.2724099 -0.335583 1.355967
1.2860899 -0.33658502 1.380652
1.28485 -0.34375 1.3827951
1.28474 -0.34992698 1.38366
1.28713 -0.35020599 1.3781331
1.2810299 -0.35737401 1.375589
1.2683899 -0.37871498 1.3853132
1.28448 -0.35202 1.368041
1.27064 -0.37353599 1.3776901
1.28142 -0.34786701 1.3649969
1.26913 -0.36684701 1.3734939
1.29265 -0.34874299 1.374532
1.26917 -0.37569699 1.389308
1.29474 -0.34659001 1.369498
1.28187 -0.36564702 1.378491
1.2712101 -0.38232398 1.385587
1.28127 -0.36399299 1.372377
1.27349 -0.381464 1.379413
1.29019 -0.34976798 1.3608081
1.27671 -0.36863601 1.3681601
1.27144 -0.38196701 1.373137
1.2891001 -0.34065202 1.3577591
1.26752 -0.373386 1.369012
1.29216 -0.351053 1.375121
1.28628 -0.36200297 1.378611
1.2927499 -0.34741199 1.371496
1.29196 -0.35843301 1.371521
1.2881 -0.36890599 1.3742042
1.2932601 -0.34609902 1.3650371
1.28924 -0.36062899 1.3667761
1.28451 -0.371894 1.3712581
1.28416 -0.378245 1.3720801
1.25334 -0.30168301 1.3746231
1.26533 -0.302737 1.369011
1.28864 -0.34980202 1.361958
1.28056 -0.366846 1.366689
1.2831199 -0.37348402 1.366519
1.27572 -0.38576499 1.3704431
1.2885201 -0.34251598 1.37836
1.28628 -0.35225898 1.3809981
1.27766 -0.36319402 1.386467
1.288 -0.334999 1.37405
1.2941099 -0.34735098 1.3725541
1.29036 -0.35847899 1.3757091
1.28736 -0.36861598 1.377002
1.2791101 -0.37810501 1.3812391
1.29257 -0.35487202 1.3686349
1.28826 -0.36714 1.371618
1.2843801 -0.37901402 1.373517
1.2937399 -0.34714198 1.3620871
1.2886701 -0.36031398 1.3646411
1.2828 -0.37372899 1.368605
1.27861 -0.385079 1.370739
1.28509 -0.34126899 1.36292
1.2808299 -0.353302 1.365296
1.27512 -0.363969 1.3680191
1.2793499 -0.373418 1.3652201
1.27758 -0.383405 1.366351
1.2375599 -0.36226398 1.39063
1.2411699 -0.349911 1.3908391
1.24632 -0.339836 1.391647
1.25221 -0.33570498 1.390959
1.23271 -0.318865 1.398405
1.23657 -0.359023 1.3876541
1.23989 -0.34855598 1.387138
1.24128 -0.33846298 1.389881
1.24358 -0.33057898 1.391294
1.2386 -0.32237598 1.3934159
1.23692 -0.35699999 1.3826071
1.24212 -0.348629 1.381651
1.24291 -0.34076101 1.3837562
1.24064 -0.33106801 1.3880371
1.2347599 -0.36228999 1.378145
1.24028 -0.34997898 1.37871
1.2434601 -0.34252799 1.379017
1.24479 -0.33642501 1.380453
1.2478299 -0.34484902 1.3746161
1.2393299 -0.36319402 1.38862
1.2411699 -0.35747102 1.388978
1.24009 -0.35838902 1.3857189
1.26302 -0.31616199 1.379375
1.23545 -0.35610402 1.383083
1.26213 -0.31570101 1.3764701
1.2666301 -0.31269601 1.375258
1.2624199 -0.31545699 1.3722641
1.26538 -0.31119499 1.371299
1.25981 -0.31256902 1.3683441
1.26272 -0.30809799 1.3675121
1.26487 -0.33193198 1.3804761
1.25667 -0.32780799 1.379904
1.26561 -0.325582 1.3777729
1.24203 -0.32439601 1.381363
1.25254 -0.326334 1.377305
1.26151 -0.32327598 1.3749951
1.26984 -0.31675899 1.372345
1.24183 -0.32369301 1.37774
1.2567099 -0.32490599 1.370593
1.26694 -0.32074299 1.3678191
1.27004 -0.313526 1.368036
1.26928 -0.330181 1.359182
1.26817 -0.32157502 1.360852
1.2443399 -0.365071 1.372956
1.2432801 -0.36361697 1.36931
1.2418901 -0.36360902 1.3659601
1.24391 -0.36265099 1.370755
1.2535601 -0.36582699 1.3745121
1.24244 -0.36075401 1.3657761
1.25334 -0.361967 1.3699471
1.2407299 -0.358652 1.3599471
1.2365 -0.35260502 1.3560851
1.2408299 -0.35610902 1.357056
1.25299 -0.36687699 1.3608509
1.24152 -0.35421798 1.354022
1.26627 -0.37473097 1.380716
1.26855 -0.364887 1.3796331
1.2734101 -0.352038 1.3765451
1.2841001 -0.33610401 1.370726
1.26452 -0.36985803 1.3786501
1.2681301 -0.35910198 1.375994
1.2781301 -0.34298801 1.370275
1.26178 -0.371732 1.37482
1.27018 -0.355582 1.369907
1.2603099 -0.370603 1.3701252
1.27633 -0.34916499 1.3628
1.26958 -0.37004298 1.381496
1.26675 -0.36436298 1.382138
1.27018 -0.35332298 1.379974
1.27504 -0.34292197 1.3767101
1.26138 -0.367419 1.3814402
1.26449 -0.35856497 1.379518
1.26986 -0.346668 1.376078
1.2815601 -0.33275798 1.3693451
1.2598001 -0.36872301 1.3777671
1.2665401 -0.35557702 1.374064
1.2753501 -0.34155899 1.368974
1.2611799 -0.366851 1.372732
1.27463 -0.349475 1.3668081
1.2825 -0.37417498 1.38288
1.29022 -0.38506198 1.386135
1.25641 -0.35239398 1.369485
1.27982 -0.36397099 1.377708
1.29401 -0.37568501 1.382987
1.29301 -0.384693 1.3827841
1.29026 -0.39349702 1.3841251
1.26275 -0.34790099 1.3676339
1.26661 -0.353028 1.368939
1.2938299 -0.36756098 1.377818
1.29457 -0.37579 1.378552
1.29322 -0.38401499 1.378369
1.29128 -0.393536 1.379829
1.2603199 -0.348084 1.3628269
1.28046 -0.35644901 1.367823
1.2923599 -0.366871 1.372945
1.29256 -0.37516299 1.373873
1.2867301 -0.38595 1.374301
1.27842 -0.35094798 1.3632569
1.28048 -0.35521802 1.363428
1.28282 -0.361992 1.3656501
1.27223 -0.35417598 1.3587101
1.28053 -0.382155 1.3855491
1.29205 -0.378227 1.3841259
1.28882 -0.38483298 1.385159
1.28776 -0.39205301 1.385982
1.27864 -0.35452703 1.369241
1.29379 -0.37343898 1.378932
1.29488 -0.38325 1.382041
1.28821 -0.39231998 1.3818899
1.28968 -0.34369799 1.366583
1.2969501 -0.35183102 1.370121
1.2828799 -0.35849601 1.369357
1.2958701 -0.36897701 1.3750281
1.29554 -0.37945998 1.377818
1.2938499 -0.389579 1.379527
1.28888 -0.399892 1.378575
1.28747 -0.35574698 1.3660589
1.27404 -0.37608799 1.381327
1.2768 -0.36810797 1.3765961
1.2818401 -0.37971199 1.3807251
1.27829 -0.38804099 1.3811841
1.29015 -0.338857 1.3683
1.2854201 -0.35852799 1.372323
1.2761 -0.36448002 1.372054
1.27522 -0.37356898 1.37363
1.27544 -0.38452801 1.376217
1.2960401 -0.35592601 1.36941
1.27587 -0.36150002 1.3673481
1.2646199 -0.37006599 1.36711
1.2970599 -0.35558498 1.36502
1.29399 -0.35206902 1.3593041
1.2871001 -0.35828999 1.3767129
1.27441 -0.36421901 1.37635
1.25964 -0.37145197 1.3755721
1.29747 -0.35005 1.37274
1.29123 -0.358181 1.3742881
1.27923 -0.36223599 1.3738091
1.26605 -0.36729401 1.372344
1.29559 -0.355663 1.369933
1.28423 -0.362872 1.3710409
1.2628701 -0.36687002 1.368533
1.2907801 -0.35277301 1.3642681
1.28011 -0.35568199 1.38032
1.27819 -0.363166 1.381044
1.25506 -0.36529598 1.377697
1.2931399 -0.35004503 1.3764321
1.29084 -0.35801497 1.3784781
1.28623 -0.364557 1.3786861
1.26643 -0.36651403 1.3759131
1.2950799 -0.35886201 1.374046
1.28476 -0.365343 1.373365
1.2627 -0.36796299 1.370589
1.2928101 -0.35771999 1.3671161
1.28521 -0.36395401 1.3673831
1.24635 -0.36473 1.364181
1.2912199 -0.35597697 1.3617461
1.27891 -0.35773101 1.360558
1.28736 -0.34936902 1.392903
1.28731 -0.356029 1.3892441
1.26614 -0.36210999 1.4000881
1.2866 -0.354085 1.385206
1.27095 -0.36209401 1.394444
1.26436 -0.36980399 1.395908
1.2870101 -0.353331 1.37982
1.26964 -0.36509401 1.3898761
1.26632 -0.376414 1.3886441
1.29405 -0.34369701 1.371363
1.2996601 -0.35359001 1.383069
1.2912101 -0.36267897 1.386794
1.28293 -0.36970001 1.390236
1.3001199 -0.361417 1.378118
1.29144 -0.37061501 1.3820931
1.28668 -0.37797299 1.3826021
1.2982401 -0.36003199 1.373505
1.29294 -0.36883098 1.376502
1.28339 -0.377729 1.38037
1.29054 -0.360502 1.373708
1.28509 -0.37208802 1.376369
1.2757 -0.38291302 1.3782321
1.29187 -0.34156299 1.369899
1.28771 -0.35028303 1.37207
1.2900701 -0.34868199 1.390637
1.28933 -0.35978001 1.3902
1.28144 -0.36641899 1.3931371
1.29436 -0.35864201 1.3838811
1.29038 -0.36825502 1.384765
1.2903999 -0.378986 1.38201
1.2821201 -0.38673303 1.38314
1.29828 -0.356684 1.3762469
1.29057 -0.36545199 1.3793249
1.28644 -0.37587002 1.3798401
1.28668 -0.38723901 1.377437
1.2927699 -0.35865101 1.3732151
1.28623 -0.368801 1.374732
1.28636 -0.381421 1.37357
1.2819 -0.39033401 1.374444
1.2866499 -0.34793702 1.373652
1.27684 -0.356473 1.3775171
1.27542 -0.36505499 1.376821
1.27601 -0.375099 1.3755481
1.29342 -0.348452 1.387989
1.2877699 -0.35597697 1.390047
1.28686 -0.36771801 1.3881791
1.27974 -0.37783599 1.389098
1.29601 -0.35050097 1.3827161
1.29433 -0.36235499 1.381696
1.29059 -0.37405601 1.38074
1.2880701 -0.384929 1.379881
1.29645 -0.35307801 1.375441
1.29197 -0.36528501 1.376384
1.29343 -0.375615 1.373871
1.2860401 -0.38288501 1.3756061
1.29058 -0.34908 1.372292
1.2881199 -0.36015201 1.3728751
1.28694 -0.37333199 1.371644
1.28074 -0.38345298 1.371246
1.27855 -0.34331903 1.3755701
1.27816 -0.35264197 1.37459
1.27528 -0.364052 1.3744659
1.27114 -0.37738499 1.3727601
1.29956 -0.355551 1.3796279
1.29442 -0.366045 1.3808399
1.29301 -0.378638 1.378678
1.28222 -0.38788602 1.382031
1.29774 -0.354599 1.3759551
1.2958 -0.36755797 1.375841
1.2902299 -0.37678599 1.3765041
1.28487 -0.38610199 1.376687
1.3003 -0.355986 1.3700781
1.2940899 -0.36307299 1.371969
1.28771 -0.375835 1.372191
1.28028 -0.387054 1.3723489
1.2915199 -0.35072398 1.371501
1.28425 -0.36218202 1.3726201
1.27741 -0.37104401 1.3731492
1.27876 -0.38520598 1.368844
