# .PCD v0.7 - Point Cloud Data file format
VERSION 0.7
FIELDS x y z
SIZE 4 4 4
TYPE F F F
COUNT 1 1 1
WIDTH 749
HEIGHT 1
VIEWPOINT 0 0 0 1 0 0 0
POINTS 749
DATA ascii
1.26396 -0.25845 0.51111901
1.26016 -0.25651199 0.50804901
1.26369 -0.245922 0.50572902
1.26933 -0.236 0.50418305
1.27416 -0.228359 0.50244302
1.27528 -0.22269699 0.50212502
1.258 -0.260014 0.50482202
1.25616 -0.25000298 0.50325006
1.2571499 -0.24107401 0.50257802
1.26363 -0.234432 0.50241107
1.2640799 -0.226263 0.50122303
1.27398 -0.222022 0.49907702
1.25564 -0.24892099 0.49813104
1.25588 -0.24175501 0.49803704
1.2587301 -0.23229401 0.49815002
1.2664 -0.22451401 0.49611005
1.2678 -0.219763 0.49622703
1.2688301 -0.24875601 0.48945206
1.25586 -0.24121401 0.49279004
1.25585 -0.234081 0.49358901
1.25551 -0.22466899 0.49248204
1.27185 -0.22059299 0.48996404
1.25875 -0.23895399 0.48774102
1.25378 -0.23190399 0.48904306
1.25969 -0.22437701 0.48553702
1.25796 -0.217264 0.485596
1.26099 -0.22925501 0.48210305
1.2569799 -0.219842 0.48124304
1.25826 -0.21430799 0.48042503
1.25989 -0.21013799 0.47931701
1.26064 -0.21905899 0.47626102
1.25867 -0.21232401 0.47567099
1.25731 -0.20730899 0.47516003
1.26069 -0.210144 0.47043103
1.2588099 -0.20370501 0.46956405
1.2693801 -0.20166402 0.46184501
1.2646099 -0.19287701 0.46070603
1.26731 -0.184484 0.45778406
1.26803 -0.190898 0.45505202
1.2669001 -0.18379 0.45486301
1.27789 -0.189281 0.44575703
1.2718199 -0.183351 0.44843501
1.24966 -0.25612801 0.51514208
1.2528 -0.247969 0.51307797
1.25855 -0.23951401 0.50977701
1.2532901 -0.25493401 0.510454
1.25245 -0.24784599 0.50998706
1.25318 -0.238038 0.50783402
1.25765 -0.23141399 0.50632703
1.25122 -0.24347201 0.50540406
1.25231 -0.23465799 0.50230807
1.25631 -0.22928101 0.50255305
1.26656 -0.227226 0.500808
1.25128 -0.23846501 0.49899805
1.25044 -0.231878 0.49751306
1.25543 -0.227226 0.497172
1.2535501 -0.221734 0.49910003
1.2547899 -0.231824 0.49286002
1.25344 -0.224898 0.49224305
1.25753 -0.21951701 0.49135101
1.26213 -0.22497199 0.48554704
1.2569001 -0.216217 0.48570603
1.2684 -0.212156 0.48189202
1.26757 -0.21586901 0.47755703
1.26086 -0.207381 0.47888306
1.26657 -0.202171 0.47677001
1.27897 -0.21542999 0.46870503
1.26748 -0.206984 0.47178605
1.26458 -0.19915199 0.47263104
1.26727 -0.19469699 0.47203299
1.27693 -0.206926 0.46359104
1.26788 -0.198172 0.46615005
1.2611699 -0.18955 0.46792904
1.28898 -0.207219 0.45503604
1.27667 -0.19867501 0.45826405
1.26955 -0.18928301 0.46018705
1.26642 -0.181811 0.46015203
1.2844701 -0.198368 0.45134002
1.2741001 -0.188806 0.45363003
1.26495 -0.180039 0.45643204
1.26692 -0.174641 0.45458204
1.27395 -0.186168 0.44792902
1.25818 -0.25616601 0.51315504
1.2545099 -0.2502 0.50876802
1.26104 -0.24611999 0.50712907
1.25506 -0.2563 0.50631106
1.2528399 -0.247199 0.50521302
1.25853 -0.24221399 0.50321603
1.26156 -0.23850299 0.50327003
1.2588 -0.24637899 0.49975601
1.25825 -0.238162 0.49796501
1.25815 -0.23454599 0.49917701
1.2661901 -0.239163 0.49181002
1.26208 -0.231536 0.49176103
1.2697001 -0.23023199 0.48424903
1.26937 -0.22396798 0.48316401
1.28339 -0.23095399 0.47582901
1.2744499 -0.223222 0.47808802
1.2719001 -0.21354701 0.47658402
1.27586 -0.20780599 0.47436807
1.2734799 -0.21803302 0.47358605
1.27135 -0.21009399 0.47270003
1.26604 -0.20187099 0.47280106
1.26789 -0.205257 0.46882504
1.26473 -0.19843501 0.46878901
1.26614 -0.19373101 0.46723002
1.26969 -0.20224501 0.46260402
1.26447 -0.19610399 0.46430102
1.26942 -0.190176 0.45997003
1.2667401 -0.19323799 0.45799404
1.27706 -0.18889299 0.452335
1.2823501 -0.18506201 0.45105502
1.27573 -0.19249399 0.44896403
1.27503 -0.18569201 0.44759503
1.25825 -0.25630701 0.51626104
1.24792 -0.25642002 0.51479304
1.25193 -0.24971201 0.512959
1.26044 -0.24334 0.51001102
1.27736 -0.241485 0.50505906
1.25358 -0.24673299 0.50714606
1.25849 -0.242265 0.506706
1.2625 -0.234034 0.50467199
1.26849 -0.230524 0.50356102
1.25842 -0.244468 0.49972901
1.25916 -0.23837499 0.50059599
1.2604901 -0.23075701 0.50022203
1.26673 -0.227764 0.49885902
1.26492 -0.23860201 0.49258605
1.2624099 -0.22951999 0.49408704
1.26429 -0.22229099 0.49263406
1.27829 -0.24265699 0.48338303
1.26903 -0.231546 0.48597604
1.2660199 -0.22194201 0.48711902
1.26824 -0.217307 0.48695102
1.2764499 -0.23284599 0.47886902
1.26738 -0.22103901 0.48075905
1.26617 -0.21489799 0.48230603
1.2709401 -0.2193 0.47334003
1.2696199 -0.21254101 0.47410804
1.27458 -0.217337 0.46588105
1.2745099 -0.21140301 0.46651
1.2837 -0.20875901 0.46377504
1.27929 -0.218841 0.46104604
1.2741101 -0.20901699 0.46178302
1.2816901 -0.20463601 0.45922202
1.2869501 -0.20142299 0.45800602
1.27386 -0.196684 0.45507804
1.28065 -0.19338301 0.45372304
1.26942 -0.18994899 0.44896904
1.27349 -0.18618299 0.44928104
1.27053 -0.188593 0.44323003
1.25586 -0.258544 0.51732904
1.2688099 -0.25745299 0.51438707
1.2594399 -0.25917998 0.51223105
1.26042 -0.250182 0.51204604
1.2705799 -0.24468201 0.50843602
1.25846 -0.25580499 0.50846899
1.26859 -0.249888 0.50532907
1.26773 -0.238289 0.50403005
1.27643 -0.233064 0.50167304
1.2861501 -0.230703 0.49941704
1.2677101 -0.24457 0.49949205
1.27293 -0.23635201 0.49785101
1.2755001 -0.22918501 0.49785903
1.28302 -0.22768401 0.49625504
1.27748 -0.246924 0.49053302
1.27457 -0.237653 0.49156404
1.27712 -0.22939301 0.49215102
1.28311 -0.22637199 0.49109101
1.2820101 -0.240777 0.48438704
1.2751499 -0.22827999 0.48566604
1.2830299 -0.225861 0.485102
1.27397 -0.22502799 0.48046103
1.2801499 -0.221029 0.47751504
1.27689 -0.22075199 0.47285002
1.27753 -0.214099 0.47116202
1.2871499 -0.216002 0.46953803
1.2764601 -0.209998 0.46597505
1.27984 -0.20753001 0.46525204
1.2698001 -0.20296301 0.46152303
1.274 -0.20037201 0.46057102
1.28397 -0.20115101 0.45817104
1.26992 -0.194511 0.45649302
1.27343 -0.189532 0.45400903
1.2714 -0.190254 0.44953403
1.27211 -0.18276699 0.44777301
1.2975 -0.26235101 0.50906008
1.29952 -0.26792499 0.509606
1.2914101 -0.25626698 0.50355703
1.29918 -0.25752801 0.50395805
1.3009801 -0.26431 0.50506806
1.29617 -0.23972401 0.49827102
1.3010299 -0.244637 0.49916604
1.2996899 -0.25330901 0.49879402
1.30211 -0.258228 0.49875504
1.2989999 -0.23680599 0.49528003
1.3034199 -0.23920299 0.49433699
1.3026199 -0.24839801 0.49404004
1.2934899 -0.260627 0.49156705
1.3023 -0.23375 0.49086601
1.30285 -0.23953699 0.48919702
1.3011099 -0.24763599 0.48824006
1.30231 -0.23362601 0.48617703
1.3006799 -0.24031201 0.48486802
1.29545 -0.24964501 0.48343304
1.2993 -0.23521601 0.48250502
1.2938499 -0.21207 0.45957202
1.2965699 -0.205017 0.45743203
1.3009599 -0.20654801 0.45854604
1.30687 -0.196136 0.45401105
1.30168 -0.204925 0.45464003
1.3005 -0.192614 0.44883502
1.3078901 -0.19269699 0.44938102
1.3108901 -0.19630399 0.44992504
1.31152 -0.194956 0.44324702
1.29193 -0.26479799 0.51528102
1.2914101 -0.27006799 0.51377404
1.2801199 -0.25785401 0.50612402
1.2924 -0.25979602 0.50929606
1.29476 -0.26731002 0.50955504
1.2882401 -0.243817 0.50280702
1.29233 -0.24868999 0.50373304
1.29474 -0.25712699 0.50528407
1.29233 -0.265847 0.50483602
1.29536 -0.23914601 0.50026703
1.29591 -0.24350999 0.49914902
1.2951699 -0.25146499 0.49976104
1.2947 -0.23740201 0.49432305
1.29922 -0.240991 0.495316
1.29037 -0.249723 0.49319899
1.2942901 -0.233431 0.48755205
1.29704 -0.237728 0.48907906
1.2777101 -0.23535401 0.48013201
1.29211 -0.232352 0.48250306
1.2877699 -0.23885299 0.48178604
1.28562 -0.228999 0.476071
1.2860899 -0.23326001 0.47697601
1.28747 -0.223419 0.46911904
1.2873 -0.22908001 0.47130907
1.29245 -0.214167 0.46493405
1.29423 -0.217512 0.46585205
1.28633 -0.22556801 0.46535102
1.30007 -0.208527 0.46210504
1.2982601 -0.21292801 0.46185103
1.2964599 -0.207467 0.45656902
1.29775 -0.209172 0.45476401
1.28861 -0.18885799 0.44676402
1.29844 -0.19092 0.44877204
1.2972 -0.201582 0.45021102
1.29338 -0.20819001 0.44898805
1.30075 -0.190355 0.44677603
1.29624 -0.199147 0.44596505
1.2969099 -0.22985099 0.48910201
1.2837601 -0.23127399 0.48463804
1.2910899 -0.23159701 0.48517904
1.29019 -0.22719 0.48121002
1.28758 -0.23175 0.480876
1.28004 -0.22483101 0.47486603
1.29159 -0.22404301 0.47622705
1.2888499 -0.229652 0.47612602
1.29627 -0.215545 0.472285
1.29392 -0.22209999 0.47276801
1.29057 -0.227134 0.47159103
1.2977901 -0.207831 0.46814805
1.3004899 -0.21025699 0.46779403
1.29887 -0.216683 0.46821305
1.3026199 -0.20402901 0.46437505
1.30279 -0.207945 0.46353802
1.30118 -0.213028 0.46315706
1.3043801 -0.19943701 0.45824403
1.30661 -0.20432501 0.45973805
1.3061399 -0.18679501 0.45251805
1.3035201 -0.195586 0.45332605
1.3047099 -0.20069799 0.45443603
1.3061099 -0.19101299 0.44981003
1.28143 -0.262335 0.51621509
1.29541 -0.2642 0.51896304
1.29239 -0.25779 0.51407802
1.29444 -0.26397198 0.51483899
1.29573 -0.269272 0.51342201
1.2930701 -0.244029 0.50677103
1.3018899 -0.248954 0.50954306
1.2967399 -0.25999099 0.50973505
1.2929201 -0.26932898 0.50837207
1.30124 -0.23669299 0.50453502
1.3039399 -0.24118499 0.50616002
1.29871 -0.249768 0.50506705
1.29522 -0.259608 0.50407803
1.2909199 -0.26790002 0.50375307
1.29962 -0.23541401 0.49959207
1.30037 -0.24112801 0.50135505
1.2965699 -0.24924101 0.49972901
1.29273 -0.257992 0.49949303
1.29678 -0.23427001 0.49446002
1.2988499 -0.23902701 0.49533904
1.2853501 -0.24999501 0.493404
1.29607 -0.232555 0.48916504
1.29441 -0.237407 0.488805
1.2897099 -0.227874 0.48264802
1.29419 -0.230452 0.48338905
1.2918299 -0.23492001 0.48299202
1.29671 -0.22240299 0.47798702
1.29758 -0.226996 0.47935304
1.2999099 -0.214366 0.47366303
1.3028301 -0.21674401 0.47344002
1.3011501 -0.22203501 0.47369403
1.30472 -0.20997499 0.46938601
1.30474 -0.21473801 0.46939504
1.2935201 -0.22193199 0.46709207
1.3004299 -0.202068 0.46270406
1.30507 -0.208202 0.46525106
1.30396 -0.21288401 0.46482304
1.2946899 -0.19535601 0.45706704
1.3010499 -0.19763599 0.45817903
1.30116 -0.20555401 0.46016601
1.28903 -0.21488801 0.45864704
1.30244 -0.188109 0.45341903
1.30317 -0.19541501 0.45527005
1.30601 -0.19095699 0.45001304
1.29782 -0.27076399 0.52295202
1.29711 -0.26877701 0.51817507
1.29931 -0.27353299 0.51847702
1.2885699 -0.25161201 0.50856102
1.2995399 -0.25552499 0.51074499
1.30076 -0.26512 0.51374507
1.29922 -0.27184701 0.51343608
1.29493 -0.232866 0.50469506
1.3059 -0.236728 0.50636303
1.30197 -0.24702901 0.50761408
1.3029201 -0.25337401 0.508542
1.29925 -0.262283 0.50937504
1.2960601 -0.27138999 0.50995904
1.3000799 -0.23193701 0.50218201
1.3053501 -0.23608999 0.50294703
1.30457 -0.242682 0.50378603
1.3031 -0.250808 0.50530702
1.2965699 -0.230799 0.49665001
1.3042599 -0.23451701 0.49860802
1.3068299 -0.239933 0.49987602
1.30336 -0.245823 0.49991304
1.2975301 -0.22909001 0.49223205
1.29851 -0.233209 0.49246705
1.3022701 -0.238409 0.49388406
1.29763 -0.22785601 0.48723403
1.2956101 -0.23314899 0.48678407
1.29207 -0.238314 0.48608804
1.29073 -0.22286801 0.48093805
1.29545 -0.22649401 0.48151603
1.2942901 -0.231497 0.48091301
1.2975999 -0.218593 0.47662503
1.2961099 -0.22440201 0.47629502
1.2880701 -0.230436 0.47438803
1.29915 -0.209548 0.47104505
1.3006599 -0.21530099 0.47222304
1.29373 -0.22326 0.47179902
1.2837199 -0.23042999 0.47052002
1.29408 -0.20322399 0.46567303
1.30425 -0.205975 0.46767104
1.2997999 -0.21276501 0.46785301
1.3046601 -0.19776899 0.46245205
1.30542 -0.202409 0.46256906
1.2944 -0.18310301 0.453426
1.29884 -0.188584 0.45525903
1.3092301 -0.194157 0.45786104
1.30441 -0.19946301 0.45576704
1.30559 -0.18717501 0.45229203
1.3086799 -0.193755 0.45249602
1.30865 -0.19801301 0.45140904
1.31109 -0.193424 0.44854602
1.30838 -0.196964 0.44723904
1.29123 -0.25953099 0.52791405
1.2830701 -0.261466 0.52429205
1.2904601 -0.251306 0.52212602
1.27984 -0.262824 0.51936603
1.2839501 -0.25043699 0.51667005
1.3075501 -0.22089 0.50644803
1.28197 -0.26587299 0.51442605
1.2845799 -0.25578502 0.51257503
1.28713 -0.24435601 0.50885606
1.29741 -0.229148 0.50628108
1.30268 -0.218915 0.50441301
1.29821 -0.25367001 0.50418103
1.2875 -0.25198701 0.50585699
1.2879201 -0.243081 0.50382304
1.2910401 -0.232438 0.50179803
1.3010899 -0.22046101 0.50053507
1.30129 -0.243276 0.49749604
1.29054 -0.23990999 0.49837905
1.29011 -0.23122601 0.49661803
1.29079 -0.22329599 0.49479103
1.29654 -0.23463899 0.49163902
1.2908299 -0.22922599 0.49150506
1.29093 -0.21893901 0.48728302
1.2935801 -0.21245199 0.486884
1.2923199 -0.224196 0.483852
1.28984 -0.21695299 0.48156902
1.2875301 -0.212139 0.48160401
1.29668 -0.21827298 0.47638306
1.2877499 -0.21816401 0.47808003
1.28979 -0.20939301 0.47567302
1.29345 -0.19995199 0.47227204
1.29526 -0.210051 0.47059703
1.29242 -0.20365299 0.46877602
1.2954601 -0.19299299 0.46389502
1.3133099 -0.1934 0.45509502
1.2983201 -0.197007 0.46041003
1.2966299 -0.188943 0.45783901
1.29721 -0.18082501 0.45592201
1.30927 -0.18893699 0.45166004
1.2964799 -0.189631 0.45418003
1.2817 -0.26136401 0.52660704
1.28022 -0.25859201 0.52127904
1.2960401 -0.23582199 0.51176101
1.2808599 -0.262687 0.515764
1.28022 -0.256861 0.516231
1.28089 -0.246003 0.51389903
1.27864 -0.235925 0.51158106
1.28736 -0.22625999 0.50936007
1.28654 -0.25867799 0.51051903
1.28101 -0.252231 0.510333
1.2801601 -0.24232799 0.50902903
1.27298 -0.23649999 0.50803202
1.28161 -0.22805901 0.50717002
1.28311 -0.24928699 0.50442004
1.2734101 -0.243765 0.50479299
1.26877 -0.23677799 0.50341403
1.27065 -0.231052 0.50401205
1.27212 -0.24260001 0.49891502
1.26828 -0.237847 0.499365
1.2657399 -0.230489 0.49753106
1.27829 -0.23624 0.49129599
1.2674099 -0.234981 0.49342403
1.27019 -0.225127 0.49017105
1.27737 -0.216043 0.48711002
1.2730401 -0.23060499 0.48759103
1.2671 -0.22690099 0.48778003
1.2774 -0.21477501 0.48293304
1.2831799 -0.205631 0.47924399
1.27431 -0.22124901 0.48187006
1.28666 -0.205872 0.47362304
1.2860401 -0.201215 0.47316402
1.29957 -0.20202999 0.46489704
1.29287 -0.19992501 0.46537304
1.2886599 -0.196198 0.46620405
1.2976601 -0.196224 0.46001002
1.2910899 -0.192295 0.45986003
1.2914 -0.18226601 0.45749906
1.29541 -0.18831401 0.45416903
1.2898599 -0.18245099 0.45349303
1.28431 -0.257213 0.52640605
1.27692 -0.25588301 0.52178705
1.2775199 -0.259985 0.51662004
1.2790101 -0.25364599 0.51646304
1.28368 -0.242195 0.51276898
1.2940601 -0.22921601 0.508479
1.28907 -0.22424699 0.50850904
1.28377 -0.25635099 0.51159006
1.2807699 -0.250395 0.51122403
1.28491 -0.240245 0.50784904
1.2847501 -0.23100799 0.50658804
1.28891 -0.22322901 0.50493103
1.2862601 -0.24493 0.50490105
1.2842599 -0.23717301 0.50337905
1.28554 -0.229601 0.50102401
1.28313 -0.22325 0.50057602
1.28466 -0.23433201 0.49754402
1.28511 -0.227109 0.49621305
1.2835801 -0.22016899 0.49415505
1.2870599 -0.215161 0.494075
1.29417 -0.228633 0.48890305
1.28491 -0.22532 0.49043503
1.2837501 -0.217897 0.48858804
1.27894 -0.21519899 0.49074304
1.29053 -0.222323 0.48376101
1.2846299 -0.217107 0.48345903
1.2830499 -0.210785 0.48298806
1.28791 -0.21353799 0.47670704
1.2843201 -0.208133 0.47677201
1.28618 -0.20027 0.47445905
1.29897 -0.206662 0.46807206
1.2869201 -0.20497999 0.47057602
1.2853799 -0.19907801 0.47042701
1.2910899 -0.188187 0.465754
1.30171 -0.19770999 0.46172801
1.2901 -0.19387199 0.46329904
1.28871 -0.184632 0.46084702
1.28927 -0.17701299 0.45922905
1.29123 -0.190863 0.45688304
1.2907801 -0.184641 0.45665506
1.29934 -0.263055 0.521492
1.30435 -0.27123502 0.52369201
1.29995 -0.24656999 0.51462805
1.2947999 -0.25057599 0.51542902
1.30435 -0.26091599 0.51863104
1.3065699 -0.26856002 0.51931798
1.3058 -0.277841 0.52122003
1.31142 -0.24859199 0.51236802
1.30892 -0.25393802 0.51430899
1.3075 -0.26175299 0.51551902
1.3080499 -0.269041 0.51553804
1.30371 -0.27592501 0.51625705
1.3197999 -0.249338 0.50858998
1.31504 -0.25362501 0.50978005
1.31147 -0.261042 0.51130402
1.3117599 -0.26730499 0.51065099
1.31683 -0.24696399 0.50277799
1.31876 -0.25286698 0.50524801
1.31373 -0.258881 0.50534302
1.3072701 -0.26306701 0.50397706
1.30591 -0.232705 0.49281704
1.31756 -0.242631 0.49682403
1.3133999 -0.25056899 0.49895704
1.30881 -0.256524 0.49893802
1.31085 -0.228407 0.48971802
1.31146 -0.233759 0.49078903
1.31151 -0.24158701 0.49244103
1.31251 -0.249902 0.49439102
1.29457 -0.252684 0.49289802
1.30144 -0.21655101 0.48075807
1.31347 -0.226276 0.48492202
1.3121201 -0.23379801 0.48735604
1.30547 -0.23879699 0.48740703
1.31505 -0.21875799 0.478879
1.3074299 -0.222054 0.47776902
1.3099 -0.230047 0.48167104
1.3108701 -0.21016198 0.47204804
1.31056 -0.216471 0.47326201
1.30687 -0.22107001 0.47315201
1.30541 -0.225096 0.473609
1.3125999 -0.20056999 0.46423903
1.31787 -0.208198 0.46779799
1.31153 -0.212878 0.46812505
1.3078599 -0.21954501 0.46882603
1.29233 -0.22046499 0.46609604
1.3032299 -0.178798 0.455199
1.31161 -0.186516 0.45711601
1.31659 -0.197598 0.46039203
1.31204 -0.20525499 0.46241403
1.30972 -0.212971 0.46392304
1.29838 -0.21583501 0.46251103
1.3107001 -0.185682 0.45306304
1.3165699 -0.193876 0.45619002
1.3153501 -0.20154801 0.45733503
1.31048 -0.209345 0.45901901
1.31505 -0.193027 0.45119202
1.3134199 -0.20036301 0.45248604
1.31747 -0.192838 0.44597104
1.3034199 -0.27266499 0.52630705
1.3001699 -0.250029 0.51712906
1.30866 -0.262216 0.52073705
1.30558 -0.26912099 0.52136904
1.30655 -0.23777901 0.51226705
1.31373 -0.24665099 0.51410103
1.3091 -0.25394601 0.51614404
1.3084599 -0.261987 0.51688707
1.30644 -0.27006999 0.51728106
1.30408 -0.27662799 0.51781702
1.31218 -0.239507 0.50966805
1.3091099 -0.243476 0.50847799
1.31054 -0.25357598 0.51142204
1.30984 -0.263354 0.51274103
1.30364 -0.26836598 0.51177508
1.3020799 -0.272926 0.51186806
1.3117501 -0.23838 0.50385803
1.3096601 -0.24274799 0.50398302
1.3090601 -0.24959999 0.50500202
1.30908 -0.26014298 0.50706506
1.30397 -0.26591501 0.507173
1.30685 -0.234007 0.49632004
1.30899 -0.24207599 0.49874604
1.30998 -0.25176799 0.50123203
1.3039999 -0.25684601 0.50150704
1.30925 -0.22803 0.490895
1.3093801 -0.23365401 0.49151
1.3067501 -0.23987199 0.49302903
1.30559 -0.24685699 0.49532601
1.3011501 -0.213773 0.48104504
1.3085201 -0.22428 0.48454303
1.3099201 -0.23196501 0.48676604
1.3097301 -0.238157 0.48831302
1.30101 -0.205038 0.47528604
1.30899 -0.21438499 0.47802001
1.3055201 -0.22039101 0.47806206
1.30829 -0.229784 0.48202202
1.30202 -0.232196 0.48118904
1.3105299 -0.207882 0.47314301
1.30714 -0.21251601 0.47233403
1.3064901 -0.21958999 0.47376207
1.3052001 -0.22563601 0.47594506
1.29233 -0.17787701 0.45807305
1.30101 -0.18794201 0.46067402
1.3121201 -0.20414101 0.46640205
1.3120199 -0.21222 0.46829605
1.3055201 -0.21659401 0.46909806
1.3065 -0.18224701 0.45720902
1.3103 -0.19218901 0.45903602
1.31065 -0.20141701 0.46150604
1.31073 -0.20942 0.46405503
1.29811 -0.21198499 0.46364501
1.3096001 -0.18311399 0.45317802
1.3136901 -0.191374 0.45415202
1.31232 -0.19914301 0.45728102
1.31727 -0.192572 0.45106402
1.2947501 -0.26180801 0.52184802
1.30705 -0.27557001 0.52582604
1.3010299 -0.23333901 0.51308
1.3004299 -0.239408 0.51390702
1.29917 -0.24791999 0.51582503
1.3076301 -0.26351899 0.51899201
1.3020599 -0.27134299 0.519867
1.3090601 -0.23738199 0.51068306
1.3111999 -0.245002 0.51205802
1.30682 -0.25129801 0.51374102
1.30765 -0.260526 0.51388603
1.3057801 -0.26906902 0.51486701
1.30304 -0.27721101 0.51655108
1.3119299 -0.238123 0.50528204
1.3127 -0.24458799 0.50739598
1.3115 -0.25394198 0.50929105
1.30849 -0.26297 0.50996804
1.30159 -0.26783401 0.50936103
1.29073 -0.269068 0.50842005
1.31151 -0.23667 0.49907005
1.3126301 -0.24349301 0.50177306
1.3114901 -0.25116 0.50382304
1.30709 -0.26010099 0.50465602
1.2904601 -0.26151699 0.50330001
1.3097999 -0.23298599 0.49217004
1.30959 -0.240339 0.49599403
1.3077999 -0.24899401 0.49858505
1.29433 -0.25463101 0.49923104
1.29733 -0.21053401 0.48120606
1.30759 -0.221837 0.48434803
1.3092599 -0.23061301 0.48669106
1.30801 -0.23796499 0.49038804
1.31016 -0.21521799 0.479653
1.3064901 -0.219019 0.48007804
1.30638 -0.225701 0.48080102
1.30672 -0.23309499 0.48217607
1.31295 -0.20473699 0.47031006
1.3099099 -0.211151 0.47346404
1.30759 -0.217797 0.47514603
1.3050101 -0.22535601 0.47538102
1.2982299 -0.227906 0.47494903
1.31947 -0.203862 0.46629104
1.31328 -0.21010901 0.46844304
1.30679 -0.217122 0.46904504
1.29265 -0.21843201 0.46832407
1.31673 -0.185978 0.45755506
1.3191 -0.193542 0.45963302
1.31575 -0.20086099 0.46133003
1.3095 -0.20789301 0.46226704
1.30062 -0.21227199 0.46294102
1.31784 -0.18627501 0.45416105
1.31946 -0.19347601 0.45522803
1.31741 -0.20137501 0.45657703
1.30876 -0.205394 0.45721203
1.32075 -0.19437701 0.45074001
1.31425 -0.19805901 0.45109203
1.2869201 -0.260088 0.52645105
1.29295 -0.26309401 0.52390802
1.30952 -0.23797399 0.51305306
1.3073801 -0.24277501 0.51372099
1.30431 -0.24983101 0.51469207
1.30121 -0.26327199 0.51802003
1.3134599 -0.240188 0.51022905
1.3096601 -0.24416201 0.51094401
1.3081 -0.25410199 0.51174301
1.30457 -0.26233 0.51210701
1.29933 -0.269357 0.51431906
1.31285 -0.24069901 0.50544703
1.31287 -0.24826799 0.50715804
1.30751 -0.25465 0.50613403
1.30328 -0.26234999 0.50798702
1.29956 -0.26533702 0.50800604
1.3119501 -0.23901899 0.49795303
1.31231 -0.247008 0.50127202
1.31016 -0.25284401 0.50022101
1.3027 -0.25800401 0.50201005
1.3026401 -0.220507 0.48615402
1.30774 -0.231665 0.48946601
1.30958 -0.24344102 0.49446106
1.30441 -0.248071 0.49439803
1.3008901 -0.20900899 0.47905803
1.3080001 -0.22109699 0.48266205
1.30537 -0.227148 0.48385802
1.30318 -0.236581 0.48743805
1.29181 -0.238966 0.487872
1.30413 -0.19863501 0.470438
1.31153 -0.21364701 0.47629601
1.3089501 -0.220745 0.47901604
1.3008901 -0.223583 0.47938302
1.2974 -0.182586 0.46273902
1.3094001 -0.19690001 0.46618804
1.30822 -0.205529 0.46811202
1.3073699 -0.21583299 0.47279403
1.3105099 -0.190742 0.46137005
1.31146 -0.19795099 0.46209201
1.30696 -0.20341101 0.46175706
1.30349 -0.20841199 0.46305802
1.31638 -0.192872 0.45545104
1.31064 -0.19839001 0.45689905
1.30531 -0.20265499 0.45655501
1.2949001 -0.202344 0.45551404
1.31856 -0.18958201 0.44859204
1.31453 -0.19766501 0.45130202
1.30193 -0.198746 0.45088002
1.31455 -0.19717899 0.44702703
1.3294901 -0.19992299 0.44552502
1.28847 -0.25799501 0.52560008
1.29933 -0.22714001 0.51552504
1.29483 -0.230413 0.51543003
1.29344 -0.240205 0.51687104
1.2982601 -0.25978801 0.52167803
1.3015699 -0.272576 0.52440906
1.29616 -0.22596599 0.51194501
1.30215 -0.237482 0.51325202
1.30478 -0.250745 0.51528102
1.30527 -0.26307699 0.51748103
1.30913 -0.274569 0.52019101
1.3044901 -0.23255 0.50750101
1.30512 -0.241162 0.50920701
1.30839 -0.25260201 0.51043004
1.3152499 -0.26688498 0.51371306
1.29996 -0.227101 0.49960503
1.30718 -0.239766 0.50275004
1.31533 -0.25457701 0.506069
1.30179 -0.215664 0.48866704
1.3059 -0.226908 0.49256906
1.30855 -0.23813699 0.49685302
1.29836 -0.202383 0.48109406
1.3060299 -0.215619 0.48440304
1.3067 -0.22288601 0.48541802
1.3082401 -0.232252 0.48879203
1.30782 -0.209033 0.47897103
1.30944 -0.216444 0.47940904
1.30849 -0.22245501 0.47999406
1.31308 -0.21118401 0.47379103
1.3138499 -0.21732301 0.47358203
1.31639 -0.22490299 0.474812
1.30896 -0.18167101 0.45769301
1.3114799 -0.190497 0.45958406
1.31575 -0.20628001 0.46539003
1.3166901 -0.21559499 0.46818307
1.31207 -0.18344401 0.45486405
1.31846 -0.19527701 0.45724803
1.3242999 -0.20912799 0.46137506
1.31841 -0.19220899 0.45143002
1.3294799 -0.197852 0.44893801
