# .PCD v0.7 - Point Cloud Data file format
VERSION 0.7
FIELDS x y z
SIZE 4 4 4
TYPE F F F
COUNT 1 1 1
WIDTH 211
HEIGHT 1
VIEWPOINT 0 0 0 1 0 0 0
POINTS 211
DATA ascii
1.25743 -0.26386699 0.71748567
1.26068 -0.25575799 0.71709895
1.26054 -0.24569799 0.71621901
1.2551301 -0.271 0.71392411
1.25696 -0.26302299 0.71494162
1.25632 -0.25300398 0.71427554
1.26013 -0.245093 0.71317917
1.26203 -0.238234 0.7126509
1.25559 -0.26156601 0.71092135
1.25585 -0.251012 0.71068156
1.26078 -0.24296801 0.70953715
1.26239 -0.23595101 0.70928895
1.26579 -0.23212601 0.70898879
1.25801 -0.26558301 0.70742261
1.25905 -0.252958 0.70739728
1.26368 -0.243861 0.70665741
1.26495 -0.236297 0.70660299
1.2660099 -0.231499 0.70649117
1.25421 -0.26598302 0.71993124
1.25418 -0.25582701 0.72007006
1.25694 -0.246273 0.71994215
1.2603199 -0.23713601 0.72013766
1.2564 -0.27023 0.71748739
1.25668 -0.25665 0.71694076
1.2579 -0.245033 0.7165879
1.26167 -0.23732701 0.71740019
1.2554901 -0.26586398 0.71484405
1.25896 -0.255438 0.71331906
1.26161 -0.247585 0.71281165
1.2611001 -0.23643699 0.71322411
1.25984 -0.26549399 0.71882975
1.2632099 -0.25395501 0.7178604
1.2604901 -0.23934999 0.71730077
1.2602401 -0.26047701 0.71590877
1.26025 -0.249942 0.7152552
1.26038 -0.239793 0.71485031
1.26079 -0.26094499 0.71315002
1.2594399 -0.24719499 0.71285272
1.25798 -0.23521401 0.71289802
1.25667 -0.26226801 0.722583
1.26184 -0.25386101 0.72220808
1.25701 -0.23662099 0.72220731
1.25799 -0.262696 0.71882159
1.2564399 -0.24656799 0.71939963
1.25872 -0.23747601 0.71951067
1.25928 -0.26267499 0.71388549
1.25614 -0.24901199 0.71514159
1.25823 -0.237534 0.71581042
1.2590699 -0.26614299 0.71089762
1.25635 -0.252179 0.71161872
1.2579499 -0.23834999 0.71190745
1.25611 -0.267196 0.72125113
1.2523999 -0.25212801 0.72158837
1.2578601 -0.243039 0.72105074
1.2540001 -0.26547 0.71821982
1.2564701 -0.25444999 0.71807432
1.25569 -0.23712999 0.7172448
1.25655 -0.26600301 0.71404856
1.25524 -0.24945401 0.71324134
1.2605001 -0.23987101 0.71237975
1.26279 -0.259783 0.70980978
1.2607 -0.244893 0.70946687
1.24603 -0.243029 0.71460336
1.24553 -0.25675499 0.71477818
1.2499501 -0.26452601 0.71455652
1.25128 -0.274481 0.71415728
1.24649 -0.237186 0.71112853
1.24877 -0.251012 0.71134549
1.24918 -0.26450598 0.71184134
1.2455001 -0.236323 0.70689547
1.24884 -0.247125 0.70722079
1.24962 -0.263044 0.70806473
1.2501999 -0.23413099 0.70415014
1.23772 -0.25995702 0.70517814
1.2273 -0.28746 0.72044402
1.24357 -0.238585 0.71546906
1.2418699 -0.25308901 0.71544057
1.23992 -0.265203 0.7161479
1.24131 -0.27736798 0.71661925
1.24607 -0.23227699 0.71273553
1.2418 -0.248083 0.71214622
1.24115 -0.26422799 0.71299672
1.23698 -0.28107202 0.71268564
1.2442299 -0.23459201 0.70881706
1.24185 -0.24592501 0.7085169
1.2420501 -0.258389 0.70953774
1.23937 -0.27425501 0.70977759
1.2327 -0.240275 0.70600182
1.2324901 -0.255943 0.72170085
1.24111 -0.25943899 0.72090644
1.23443 -0.27189699 0.72101629
1.24509 -0.27763599 0.72022706
1.2413601 -0.238508 0.71692842
1.23971 -0.250595 0.71842802
1.24288 -0.25684401 0.71775937
1.24235 -0.26867202 0.71737027
1.2412 -0.28290001 0.71698684
1.24347 -0.233034 0.71345705
1.24376 -0.24698201 0.71446085
1.24139 -0.25920901 0.71429181
1.24245 -0.26726401 0.7131204
1.2437301 -0.277336 0.71293634
1.24194 -0.23337999 0.71068853
1.24476 -0.242736 0.71115774
1.24243 -0.25747499 0.71113855
1.2414 -0.27068001 0.71027219
1.23888 -0.23516899 0.71993202
1.2408299 -0.245341 0.71920282
1.2383699 -0.25616801 0.71918237
1.24192 -0.26421201 0.7188797
1.2438301 -0.27388 0.71811569
1.2393399 -0.23494899 0.7171585
1.24152 -0.24449199 0.71537584
1.2412 -0.25618601 0.71623391
1.24169 -0.267037 0.716111
1.2444999 -0.27645501 0.71517539
1.23999 -0.233597 0.71289575
1.2404799 -0.244734 0.71120423
1.24026 -0.253948 0.71220154
1.24199 -0.26458099 0.71234292
1.24124 -0.27461499 0.71186453
1.23824 -0.23650999 0.70930594
1.2345999 -0.247003 0.70867574
1.24028 -0.25488198 0.70911402
1.23127 -0.26771799 0.70941442
1.23781 -0.23297399 0.72124583
1.2443 -0.242108 0.72123665
1.23957 -0.25156298 0.72181922
1.2432599 -0.25862399 0.72130805
1.24483 -0.264615 0.72068709
1.24349 -0.233475 0.71846002
1.2419699 -0.243277 0.7181282
1.24332 -0.25208402 0.71884227
1.24558 -0.26031402 0.71831858
1.24649 -0.26497498 0.71787924
1.24445 -0.23961201 0.71451533
1.24318 -0.25041902 0.71479475
1.24429 -0.25860202 0.71518224
1.24655 -0.26404601 0.71466929
1.24464 -0.23939301 0.71168798
1.2452999 -0.247981 0.71168512
1.24334 -0.25802201 0.71203685
1.24183 -0.264388 0.71177667
1.23979 -0.28429198 0.71362901
1.2385601 -0.27311599 0.71609902
1.2404599 -0.263419 0.71488136
1.2398601 -0.25220501 0.71705544
1.2388099 -0.243957 0.71881515
1.2381999 -0.28261501 0.71039999
1.23805 -0.273148 0.71190363
1.23844 -0.26330701 0.7113384
1.23957 -0.25468099 0.71198243
1.24061 -0.245353 0.71247232
1.2384 -0.23526199 0.71462584
1.22901 -0.289675 0.71265054
1.2358299 -0.28105399 0.70807248
1.2351201 -0.26825601 0.70912355
1.23678 -0.25926599 0.70756525
1.23762 -0.25026 0.7081247
1.23812 -0.24065599 0.70898062
1.24008 -0.26113701 0.69982165
1.23752 -0.25305799 0.70294654
1.237 -0.243699 0.70472366
1.2351999 -0.233171 0.70754397
1.25737 -0.24208799 0.71901804
1.25852 -0.26587099 0.71851432
1.26136 -0.25071201 0.71379822
1.26166 -0.23863702 0.70995474
1.2558399 -0.231774 0.71200907
1.2641001 -0.26016301 0.70854586
1.26061 -0.25005502 0.70919091
1.25747 -0.241798 0.70895821
1.2546 -0.272836 0.71286058
1.2625099 -0.253133 0.70329285
1.26553 -0.26276699 0.70815378
1.25743 -0.260378 0.71292824
1.25572 -0.250662 0.71131998
1.25612 -0.236295 0.7082392
1.25889 -0.26806998 0.70948601
1.25686 -0.25956601 0.70785213
1.25588 -0.248172 0.70657325
1.2553 -0.24032 0.7051084
1.2544301 -0.263145 0.70393872
1.25326 -0.25382501 0.70424372
1.25588 -0.2705 0.70076776
1.25834 -0.26015499 0.69613922
1.2556701 -0.25205401 0.71677613
1.25397 -0.24650998 0.71660078
1.2577 -0.234347 0.71059555
1.2564701 -0.26791999 0.71302277
1.2544399 -0.25556099 0.71325362
1.25519 -0.244776 0.71026158
1.25545 -0.23248899 0.70737642
1.2546 -0.266027 0.70962614
1.25378 -0.255288 0.70812392
1.25541 -0.24389099 0.70451963
1.25562 -0.23345199 0.70292234
1.2529 -0.26413602 0.70622742
1.2535601 -0.254913 0.70378011
1.25046 -0.234244 0.72414422
1.2540799 -0.243356 0.7244693
1.25333 -0.25298402 0.72450721
1.2538301 -0.26406202 0.72436202
1.25289 -0.23726101 0.7221064
1.25508 -0.246875 0.72241271
1.25559 -0.25661698 0.72204
1.25392 -0.26783299 0.72230935
1.2519799 -0.23438999 0.71958411
1.25305 -0.245755 0.72003251
1.25143 -0.254769 0.71977836
1.25332 -0.26455799 0.71999288
