# .PCD v0.7 - Point Cloud Data file format
VERSION 0.7
FIELDS x y z
SIZE 4 4 4
TYPE F F F
COUNT 1 1 1
WIDTH 73
HEIGHT 1
VIEWPOINT 0 0 0 1 0 0 0
POINTS 73
DATA ascii
1.21112 -0.36467201 0.66556799
1.20977 -0.354534 0.66466606
1.2084 -0.36149502 0.66023904
1.20855 -0.3527 0.66009802
1.21044 -0.34718299 0.66147101
1.20548 -0.36393699 0.67342705
1.20592 -0.35677299 0.67360997
1.20737 -0.35031798 0.67364007
1.20543 -0.36466399 0.66808808
1.20656 -0.35982499 0.668001
1.20715 -0.351179 0.66808206
1.20218 -0.363051 0.66367102
1.20406 -0.35751498 0.66257703
1.20947 -0.35000899 0.66085404
1.21439 -0.34331799 0.66042101
1.20928 -0.36626703 0.67320997
1.20786 -0.35435599 0.67329705
1.20639 -0.36609402 0.66742206
1.2068 -0.357025 0.66796404
1.21056 -0.34624001 0.66786605
1.20605 -0.37165797 0.66217202
1.20328 -0.36207402 0.66237205
1.20439 -0.35117298 0.66277504
1.2052799 -0.34232602 0.66299707
1.21343 -0.33792198 0.66228503
1.20605 -0.36078799 0.67748606
1.2089701 -0.36963502 0.67090803
1.20365 -0.35826302 0.67231005
1.21095 -0.35299399 0.67044502
1.20542 -0.36875901 0.66366303
1.20632 -0.361323 0.66610998
1.2112499 -0.35379201 0.66404206
1.2137899 -0.342906 0.66237503
1.21084 -0.350932 0.67203403
1.21205 -0.37361199 0.66555303
1.20697 -0.35932899 0.66626203
1.20674 -0.348775 0.66663003
1.21208 -0.342076 0.66598505
1.20735 -0.35021001 0.66103202
1.21219 -0.334521 0.66109103
1.20767 -0.34066001 0.68281907
1.21004 -0.334813 0.68362105
1.20995 -0.331092 0.68212205
1.2053601 -0.34578201 0.67410606
1.2036099 -0.341041 0.67777306
1.2066001 -0.335976 0.67687201
1.20618 -0.33138999 0.67698306
1.20073 -0.34527501 0.66729403
1.20263 -0.34112099 0.67064101
1.2016101 -0.33594 0.67096901
1.1982499 -0.34068599 0.66409403
1.19972 -0.33713901 0.660007
1.2087899 -0.34359401 0.67651606
1.20732 -0.339129 0.67879403
1.21137 -0.33414102 0.67833304
1.2142299 -0.32915401 0.67780107
1.20446 -0.34255099 0.67153001
1.20736 -0.33847901 0.67209208
1.21165 -0.33412701 0.668814
1.20398 -0.34355998 0.66013998
1.20622 -0.33864602 0.66375303
1.20909 -0.33493099 0.66057402
1.20872 -0.342462 0.67739809
1.2048401 -0.34173802 0.66932905
1.20943 -0.33905399 0.67010003
1.20818 -0.33886701 0.66209602
1.20573 -0.34039101 0.67561805
1.2071099 -0.336326 0.67859507
1.21047 -0.3337 0.67768908
1.20479 -0.341488 0.66559905
1.2052701 -0.336178 0.67161202
1.20937 -0.33419299 0.66653705
1.20498 -0.33669201 0.66104805
