# .PCD v0.7 - Point Cloud Data file format
VERSION 0.7
FIELDS x y z
SIZE 4 4 4
TYPE F F F
COUNT 1 1 1
WIDTH 220
HEIGHT 1
VIEWPOINT 0 0 0 1 0 0 0
POINTS 220
DATA ascii
1.12643 -0.37354901 0.41792503
1.12098 -0.371889 0.41403905
1.11928 -0.36488602 0.41473806
1.12498 -0.37552601 0.40574801
1.11037 -0.36285198 0.41267502
1.12707 -0.359878 0.40816104
1.1102901 -0.36312699 0.40763301
1.11724 -0.35693902 0.40617701
1.10988 -0.35578302 0.40475303
1.12378 -0.35355201 0.39799404
1.1130201 -0.36917999 0.43180603
1.10948 -0.36666802 0.43071002
1.12532 -0.37109402 0.42593205
1.1023999 -0.36865002 0.43541503
1.11915 -0.37332401 0.43100402
1.06209 -0.352613 0.44125405
1.0890499 -0.36245999 0.43550304
1.11068 -0.36915299 0.43095303
1.0397201 -0.34669602 0.44179302
1.04891 -0.34660199 0.44140601
1.07043 -0.35460898 0.436533
1.1065899 -0.36738899 0.42719203
1.02712 -0.33833 0.44284701
1.04331 -0.34427202 0.43991506
1.06625 -0.353122 0.43445405
1.02136 -0.33494899 0.44235003
1.03776 -0.34141299 0.43857604
1.1231999 -0.37687501 0.41158104
1.05268 -0.35364202 0.446309
1.06918 -0.356635 0.44303605
1.09017 -0.36328 0.43782401
1.03107 -0.34790599 0.44684902
1.03203 -0.340648 0.44853604
1.04949 -0.34550098 0.44502705
1.08391 -0.36036998 0.43651703
1.11746 -0.37305698 0.42679605
1.02017 -0.337679 0.44681305
1.0311 -0.33975497 0.44552603
1.04045 -0.34083501 0.44281304
1.0574501 -0.34681198 0.43972802
1.11999 -0.37421501 0.42241603
1.0231099 -0.33465302 0.44277903
1.0363201 -0.33938599 0.43963
1.11692 -0.37491101 0.41912705
1.02571 -0.335094 0.44145405
1.03666 -0.33797199 0.44228104
1.0412101 -0.34353501 0.44122604
1.03053 -0.332984 0.43917003
1.03971 -0.33720797 0.43870205
1.04643 -0.34084901 0.43755302
1.0288301 -0.33075902 0.43336704
1.03749 -0.33801299 0.43238404
1.05127 -0.336777 0.43327805
1.03154 -0.331063 0.42751601
1.03641 -0.33628899 0.42675504
1.02369 -0.33211398 0.42212105
1.04286 -0.32990301 0.42404601
1.1008999 -0.35101798 0.44373104
1.0709 -0.330899 0.44836003
1.07144 -0.32352102 0.44733003
1.09693 -0.35301101 0.44247803
1.09223 -0.34965599 0.44269204
1.09366 -0.33835998 0.44093001
1.0825499 -0.332351 0.44279402
1.0696 -0.32949102 0.44588605
1.0592099 -0.32760102 0.44707802
1.09525 -0.353223 0.44006005
1.09224 -0.34931701 0.43992203
1.0870401 -0.34254798 0.44005302
1.0818599 -0.33335602 0.439821
1.0734401 -0.32945001 0.44181103
1.06927 -0.32066602 0.44034204
1.05899 -0.31535 0.44081002
1.0534301 -0.31003299 0.44033104
1.05428 -0.303689 0.43890303
1.09647 -0.35200599 0.43696201
1.0915 -0.348914 0.43757102
1.0846499 -0.34466898 0.43829402
1.07872 -0.33834302 0.43870002
1.07675 -0.32664901 0.43737602
1.06777 -0.31883299 0.43662503
1.05739 -0.31582201 0.43771201
1.0481 -0.31072 0.43822706
1.0643699 -0.31069499 0.43262103
1.0471801 -0.31124499 0.43546104
1.03265 -0.309623 0.43722403
1.03667 -0.307062 0.43354201
1.12149 -0.35233003 0.44394505
1.11474 -0.350223 0.44495204
1.1089 -0.34536499 0.44501701
1.1152301 -0.37165299 0.44106004
1.11427 -0.36531502 0.44201303
1.11368 -0.357048 0.44337404
1.10438 -0.35407102 0.44493702
1.09488 -0.35034999 0.44622105
1.08789 -0.34547099 0.44684303
1.0770301 -0.33941701 0.44742301
1.07839 -0.33160499 0.44602302
1.11906 -0.37137002 0.43673003
1.1143299 -0.36760199 0.43846905
1.1094899 -0.35974702 0.44009101
1.09849 -0.35408401 0.442274
1.0904499 -0.34953201 0.44410104
1.08289 -0.34456903 0.44419804
1.0731601 -0.34028199 0.44503403
1.06248 -0.33749902 0.44735301
1.05225 -0.332674 0.44704804
1.12352 -0.37038299 0.43129402
1.1158299 -0.36900398 0.43434104
1.11124 -0.36243698 0.434672
1.10076 -0.35559398 0.43731204
1.0885501 -0.35056999 0.44055003
1.0798301 -0.34395599 0.43999302
1.06634 -0.33968201 0.44280902
1.0576999 -0.33553502 0.44445202
1.04908 -0.33239201 0.44458404
1.04523 -0.32615101 0.44340503
1.122 -0.371185 0.42871404
1.11945 -0.36707902 0.42957202
1.11387 -0.36121398 0.43059105
1.10544 -0.35583198 0.43271005
1.09196 -0.34948701 0.43553001
1.0834 -0.34137601 0.43486404
1.07083 -0.338909 0.43733606
1.0561399 -0.33558801 0.44058001
1.04728 -0.329402 0.44059205
1.03789 -0.325537 0.44131103
1.03942 -0.31803802 0.439392
1.0796601 -0.33514899 0.431934
1.0686699 -0.33214802 0.43390602
1.04891 -0.32988301 0.43699703
1.04071 -0.32390702 0.43682203
1.03161 -0.32011902 0.43800202
1.04445 -0.32029301 0.43154603
1.03124 -0.319235 0.43382603
1.03449 -0.31527701 0.42882201
1.0354199 -0.306366 0.423958
1.1297899 -0.36051998 0.43859804
1.1166999 -0.35550702 0.44178402
1.10517 -0.34906301 0.44430202
1.09585 -0.34177601 0.44598305
1.08763 -0.33631599 0.44743004
1.1229 -0.36006302 0.43765602
1.1096901 -0.35416803 0.44045705
1.09699 -0.34855998 0.44395202
1.0859101 -0.34502301 0.44663402
1.08097 -0.33928299 0.44672203
1.06919 -0.33540002 0.44926304
1.05885 -0.33011699 0.44981304
1.11897 -0.358623 0.43403405
1.10911 -0.35348499 0.43606004
1.10013 -0.349718 0.43950203
1.0899299 -0.34433201 0.44164303
1.07968 -0.33891299 0.44265601
1.06524 -0.33476698 0.44636604
1.05209 -0.331043 0.44905004
1.04563 -0.325351 0.44893402
1.0434201 -0.31714702 0.44755402
1.12672 -0.36005002 0.42753804
1.11515 -0.35356098 0.43045503
1.09918 -0.34892899 0.43517503
1.0866799 -0.34275398 0.43760705
1.0734301 -0.337753 0.44043502
1.06199 -0.334539 0.44322601
1.05241 -0.33036399 0.445241
1.0401 -0.325335 0.44648603
1.0360299 -0.32037398 0.44783202
1.02903 -0.31579301 0.44748104
1.1291699 -0.35151002 0.42324302
1.11473 -0.3468 0.42734104
1.0989701 -0.34220099 0.43137205
1.07977 -0.338581 0.43607205
1.06214 -0.333175 0.43945202
1.0447899 -0.32944697 0.44213605
1.03544 -0.32492101 0.44339004
1.03238 -0.319913 0.44493303
1.05159 -0.32696998 0.43676004
1.0402 -0.32381499 0.43836603
1.0271 -0.31991398 0.44141304
1.04491 -0.322346 0.43431702
1.0295501 -0.31948099 0.43677804
1.1241601 -0.35563001 0.43748403
1.10658 -0.35047501 0.44240302
1.09218 -0.34400901 0.44589302
1.08579 -0.33713502 0.446859
1.11637 -0.353847 0.43710002
1.10007 -0.34840402 0.44159302
1.08799 -0.34426898 0.44487602
1.07997 -0.33916301 0.44621804
1.0685199 -0.33293203 0.44858801
1.05847 -0.32536802 0.44987905
1.0571901 -0.31929198 0.44931602
1.12181 -0.35487702 0.43172702
1.1044 -0.34913701 0.43637803
1.08674 -0.343842 0.44151902
1.07828 -0.33868501 0.44325104
1.0722699 -0.333372 0.44434303
1.05887 -0.32763699 0.44740403
1.0476 -0.321982 0.44953102
1.05126 -0.31635401 0.44802302
1.1307701 -0.356042 0.42591405
1.10774 -0.34976301 0.43194905
1.09136 -0.34408101 0.43589202
1.07794 -0.33758301 0.43930802
1.06376 -0.33110297 0.44220704
1.05187 -0.32551301 0.44513905
1.04375 -0.321455 0.447097
1.0411 -0.316879 0.44662204
1.0991 -0.343003 0.43090802
1.0879101 -0.33755502 0.43328404
1.06812 -0.33133802 0.43730804
1.0522 -0.32610598 0.44077602
1.0441101 -0.32099301 0.443221
1.035 -0.31623802 0.44367704
1.05922 -0.32315499 0.43448403
1.04166 -0.31988701 0.43887103
1.02859 -0.31460801 0.44138005
1.05024 -0.31759799 0.43256605
1.0332199 -0.314475 0.43641803
1.04633 -0.313972 0.43057501
