# .PCD v0.7 - Point Cloud Data file format
VERSION 0.7
FIELDS x y z
SIZE 4 4 4
TYPE F F F
COUNT 1 1 1
WIDTH 940
HEIGHT 1
VIEWPOINT 0 0 0 1 0 0 0
POINTS 940
DATA ascii
1.38142 -0.40532601 0.55014801
1.3993201 -0.40860298 0.54783702
1.4079601 -0.402722 0.54633802
1.37788 -0.40357798 0.54676902
1.38894 -0.40442902 0.54646605
1.40387 -0.40253899 0.54334605
1.43032 -0.40461898 0.53860205
1.44725 -0.401124 0.53443003
1.37546 -0.39984599 0.54276901
1.39106 -0.404594 0.54128104
1.4049499 -0.40254501 0.53747505
1.4227099 -0.40160301 0.53514504
1.44453 -0.40129298 0.53136706
1.3956599 -0.40440899 0.53528702
1.4161201 -0.40473598 0.53073502
1.43416 -0.402738 0.52812201
1.4542999 -0.40293702 0.52362406
1.3958701 -0.39606899 0.531856
1.4479201 -0.40842399 0.52054304
1.4525399 -0.40814099 0.51558
1.3336099 -0.32820201 0.47667903
1.3349 -0.32768002 0.47119603
1.33989 -0.318607 0.46979904
1.3406 -0.326305 0.46408901
1.34246 -0.31440601 0.46372402
1.34172 -0.306723 0.46500102
1.3418 -0.33901799 0.46041602
1.3509101 -0.33093497 0.45698205
1.3516201 -0.32137501 0.45710003
1.3492999 -0.311064 0.45910904
1.33938 -0.29803199 0.46275103
1.36357 -0.32999402 0.45080903
1.36111 -0.320557 0.45241901
1.34498 -0.41427699 0.54084206
1.3569299 -0.41276002 0.54122603
1.37573 -0.40964499 0.54164201
1.3886099 -0.41340199 0.54068106
1.34232 -0.40649799 0.53659004
1.3530099 -0.40649602 0.53802902
1.3653901 -0.40799001 0.53845507
1.38442 -0.40661299 0.53853905
1.4042 -0.40452 0.53821301
1.41248 -0.40780801 0.53841603
1.42436 -0.41129902 0.53705901
1.42801 -0.41858301 0.53496301
1.3465199 -0.403133 0.53236604
1.3576601 -0.404506 0.53320801
1.37491 -0.40427601 0.53365302
1.3954201 -0.40152302 0.53407907
1.40676 -0.40457401 0.53342104
1.4178799 -0.40750399 0.53441405
1.4300599 -0.41013801 0.53379601
1.4449 -0.407745 0.532462
1.4603599 -0.40786201 0.53030306
1.34013 -0.403613 0.52452707
1.35113 -0.40571299 0.52604103
1.36888 -0.404773 0.52708203
1.38288 -0.40772301 0.52710605
1.3996401 -0.407987 0.52763605
1.4155499 -0.406818 0.52917904
1.42996 -0.40913799 0.52887505
1.45058 -0.40631199 0.52782702
1.33991 -0.40981999 0.51758605
1.3577499 -0.41082698 0.51918203
1.37331 -0.41289398 0.51988107
1.3912399 -0.41233298 0.52067405
1.41433 -0.40873 0.52260703
1.4360001 -0.407388 0.52296501
1.45678 -0.404948 0.52327204
1.33635 -0.41235101 0.51128405
1.34856 -0.41513801 0.51118398
1.36546 -0.41696998 0.51278204
1.38095 -0.41723999 0.51432699
1.3955499 -0.41811699 0.51467001
1.4147301 -0.41701698 0.51635003
1.4448301 -0.40884602 0.51889801
1.33395 -0.41331699 0.50508904
1.34632 -0.416729 0.50549906
1.35733 -0.41962299 0.50632906
1.37314 -0.42270002 0.50845999
1.38719 -0.42622003 0.50974202
1.33052 -0.41323102 0.49914506
1.34113 -0.41921902 0.50083506
1.34961 -0.42770198 0.50183505
1.3436501 -0.36192 0.46730903
1.3545899 -0.35874501 0.46662503
1.3617301 -0.349112 0.46332103
1.3648801 -0.35031602 0.46334004
1.37612 -0.335915 0.45873204
1.37388 -0.34276199 0.45962802
1.3794299 -0.330493 0.45326003
1.3764701 -0.33730498 0.45317104
1.36497 -0.33470798 0.44673303
1.37802 -0.32923698 0.44888702
1.37834 -0.333253 0.44844902
1.37201 -0.32815301 0.44488603
1.3699601 -0.333857 0.44379002
1.3742501 -0.32529098 0.44271404
1.3681901 -0.402942 0.54024804
1.3821601 -0.40374601 0.54108405
1.4016 -0.40278 0.54161203
1.34715 -0.40652001 0.53516698
1.3708701 -0.40255299 0.53708005
1.3916 -0.40165901 0.53868103
1.4087801 -0.40083301 0.539141
1.4194901 -0.403386 0.53876001
1.43625 -0.405191 0.53785503
1.4389 -0.414363 0.53567302
1.3462 -0.40610099 0.53013402
1.3680099 -0.40413502 0.53149003
1.38711 -0.40235698 0.53349304
1.40467 -0.40240201 0.53464806
1.41722 -0.40352499 0.53554606
1.4309801 -0.40507197 0.534899
1.44824 -0.40528402 0.53458101
1.4614999 -0.40918598 0.53294104
1.34281 -0.40632001 0.52393705
1.3586 -0.40724602 0.52537405
1.37726 -0.40702301 0.52651405
1.3964101 -0.40678397 0.52778101
1.4214301 -0.40281898 0.530204
1.4405099 -0.40311798 0.53037703
1.45619 -0.40399799 0.53026301
1.3484801 -0.41069198 0.51843607
1.3655 -0.411915 0.51937103
1.3848599 -0.41208801 0.52003103
1.4119099 -0.40667599 0.52320206
1.4351401 -0.40409499 0.52500403
1.4509399 -0.40405801 0.52592802
1.4614 -0.40769902 0.524728
1.3373101 -0.41027501 0.51130605
1.35329 -0.41239202 0.51266402
1.3702999 -0.41281399 0.51401705
1.38218 -0.41374698 0.51474702
1.3959399 -0.41304699 0.51663303
1.4198599 -0.41141102 0.51937503
1.4512199 -0.40532601 0.52134603
1.33252 -0.41058299 0.50583601
1.34319 -0.41453898 0.50612104
1.3599 -0.41529399 0.50856405
1.37112 -0.417723 0.50991005
1.33667 -0.41810101 0.50182402
1.3499299 -0.41981202 0.50382102
1.3404801 -0.36357498 0.46667206
1.34566 -0.35507801 0.46355203
1.35586 -0.35469601 0.46356502
1.3404201 -0.349733 0.45829502
1.35668 -0.34781799 0.45987403
1.35483 -0.35457599 0.45843101
1.34864 -0.34312698 0.45414403
1.36282 -0.34104303 0.455614
1.34264 -0.33878502 0.44908401
1.3533701 -0.33837003 0.44920802
1.348 -0.34698898 0.44706804
1.33996 -0.33778703 0.442027
1.3426199 -0.341948 0.44111905
1.33604 -0.33811298 0.43603602
1.34022 -0.33163601 0.43119201
1.40668 -0.275729 0.43535203
1.4094901 -0.26959199 0.43410805
1.4123501 -0.27079299 0.43391204
1.41425 -0.264952 0.43140101
1.41655 -0.266298 0.43133903
1.39946 -0.266489 0.42374602
1.4129201 -0.26197299 0.42598101
1.4021801 -0.27123401 0.42119902
1.4090899 -0.26098698 0.42008403
1.4044099 -0.26135001 0.41470301
1.3493201 -0.40740299 0.54501903
1.36092 -0.406847 0.54536903
1.35867 -0.40103802 0.54268801
1.37068 -0.402235 0.543042
1.37411 -0.40830201 0.54282403
1.3915 -0.40992802 0.54238003
1.4097 -0.41004902 0.54235101
1.3589 -0.40104598 0.53839105
1.3726401 -0.40175 0.53942704
1.38164 -0.406757 0.53920203
1.40325 -0.40700099 0.54013705
1.4157801 -0.40813801 0.54044604
1.42656 -0.40935099 0.53975803
1.43659 -0.41595101 0.53748405
1.35166 -0.40102002 0.53237003
1.37142 -0.40225399 0.53427607
1.3829499 -0.40729401 0.53350699
1.40034 -0.40608102 0.53617102
1.41558 -0.40811598 0.53651404
1.43562 -0.40781501 0.53634405
1.45198 -0.40869099 0.53564298
1.4568801 -0.416522 0.534554
1.46061 -0.42586601 0.53252906
1.34017 -0.40437099 0.52612305
1.3529401 -0.40804902 0.526326
1.37444 -0.40952802 0.52693701
1.40311 -0.40612802 0.530577
1.4240199 -0.40703601 0.531546
1.44376 -0.405209 0.53297907
1.4533401 -0.40739301 0.53185499
1.3384 -0.40644902 0.51946205
1.3585 -0.408858 0.520818
1.37517 -0.41014901 0.52181304
1.39466 -0.40875 0.52413905
1.41541 -0.408526 0.52593303
1.4423699 -0.40521199 0.52816999
1.4619299 -0.405101 0.52859205
1.33602 -0.40767601 0.51360804
1.34443 -0.41133898 0.51381302
1.3652999 -0.41225898 0.51754302
1.38594 -0.41108 0.51997805
1.4010899 -0.41332 0.52104104
1.4273399 -0.40990001 0.52315104
1.4574699 -0.40606099 0.52461106
1.3305 -0.41567099 0.50728905
1.33241 -0.42137799 0.50754905
1.3335201 -0.344832 0.45541003
1.3364799 -0.33429298 0.45218402
1.33919 -0.34119499 0.45272702
1.3371899 -0.32768601 0.44914302
1.35112 -0.32470599 0.44983003
1.34372 -0.33380002 0.44885606
1.35572 -0.31817201 0.44831702
1.35412 -0.32251 0.44744202
1.36181 -0.31490499 0.44690803
1.4103799 -0.271595 0.44291505
1.42081 -0.26199901 0.44288403
1.4209 -0.265443 0.44295901
1.42731 -0.25732902 0.44039902
1.4239399 -0.262512 0.43972903
1.4247301 -0.253353 0.436589
1.4266901 -0.255925 0.43636501
1.42794 -0.258944 0.43576503
1.43054 -0.249056 0.43382904
1.43401 -0.250655 0.43332905
1.42014 -0.26237199 0.43074203
1.4337699 -0.23828699 0.42793101
1.43731 -0.241859 0.42943904
1.43786 -0.24503 0.42796403
1.4402699 -0.24236999 0.42359203
1.3577499 -0.40602699 0.54241705
1.36104 -0.41307098 0.54237902
1.3817799 -0.41083899 0.54376006
1.3947001 -0.41222399 0.54361701
1.3409899 -0.40926898 0.53783804
1.3702099 -0.40806401 0.54070699
1.3955799 -0.40745699 0.54184502
1.4151199 -0.40615001 0.54202104
1.3424201 -0.40826902 0.53450304
1.39449 -0.40401199 0.53774101
1.40979 -0.40434301 0.53897703
1.42039 -0.405718 0.53925604
1.43011 -0.407718 0.53836
1.38825 -0.406351 0.53028303
1.40553 -0.405155 0.53350604
1.41903 -0.40683702 0.53524703
1.4374001 -0.40693298 0.534666
1.4363201 -0.41494501 0.53364402
1.44279 -0.42301399 0.53159302
1.45566 -0.42903 0.53084701
1.44644 -0.44197398 0.52860105
1.37185 -0.410108 0.52238905
1.39472 -0.40804902 0.52657104
1.4165199 -0.40827999 0.52967703
1.43699 -0.40775901 0.53116804
1.44218 -0.41430199 0.53060704
1.46093 -0.41773498 0.53001302
1.4554601 -0.44312599 0.52657205
1.3434199 -0.410133 0.51518601
1.36481 -0.41133499 0.51747102
1.37929 -0.41236901 0.52008706
1.3941901 -0.41384497 0.52198303
1.43151 -0.41023898 0.52741104
1.4507401 -0.41447699 0.52700704
1.3398499 -0.41076499 0.50963902
1.35358 -0.41303101 0.51237601
1.3715301 -0.413831 0.51529002
1.37797 -0.41855702 0.51614702
1.33207 -0.409821 0.50402802
1.3408099 -0.41557801 0.50639701
1.3436301 -0.33523101 0.45663205
1.35965 -0.32188401 0.45531705
1.35552 -0.327411 0.45410302
1.33532 -0.34426898 0.45094106
1.37248 -0.31385401 0.45389104
1.3563499 -0.32554099 0.45142204
1.40026 -0.29326901 0.45407203
1.37761 -0.31006399 0.45211804
1.4161301 -0.27890801 0.452232
1.41548 -0.28213701 0.45173004
1.4169201 -0.271644 0.44834101
1.41935 -0.27559 0.44951904
1.42005 -0.27790201 0.44810802
1.4136599 -0.263289 0.44232503
1.42468 -0.26476601 0.44538105
1.4222599 -0.271936 0.44545403
1.4183099 -0.277253 0.44281903
1.42291 -0.26042101 0.44122604
1.4211999 -0.26606598 0.44156703
1.42216 -0.27093101 0.44048503
1.41396 -0.277861 0.43759501
1.42678 -0.257743 0.43671703
1.4234599 -0.26429999 0.43756005
1.4225399 -0.26873899 0.43593103
1.42676 -0.254208 0.43102303
1.42721 -0.26069701 0.43329102
1.4177099 -0.267501 0.43010303
1.42838 -0.24513201 0.42705604
1.43048 -0.25059998 0.42840004
1.42759 -0.257072 0.42853203
1.43313 -0.24133401 0.42512202
1.4297999 -0.24852699 0.42520103
1.35741 -0.411244 0.54555804
1.35642 -0.40657601 0.54320407
1.3719901 -0.40777999 0.54474604
1.35513 -0.405341 0.54029304
1.3666201 -0.40995702 0.54124308
1.36543 -0.41615501 0.54024506
1.3392301 -0.406039 0.53528506
1.3587199 -0.41013598 0.53771603
1.38183 -0.41229802 0.538077
1.3703301 -0.419292 0.53758001
1.40944 -0.407648 0.53545403
1.4138901 -0.411116 0.53437304
1.43836 -0.42442501 0.53309202
1.43716 -0.43181702 0.53221506
1.4154401 -0.40773702 0.53107804
1.43215 -0.40692902 0.53286803
1.4425999 -0.41176498 0.53256398
1.45026 -0.41946602 0.53222406
1.44556 -0.42856601 0.53121603
1.4480901 -0.433254 0.53046602
1.33759 -0.415456 0.51410204
1.40504 -0.40907699 0.52508706
1.4321699 -0.40776002 0.52900505
1.45321 -0.40834799 0.53049302
1.4583099 -0.41458499 0.52964604
1.45875 -0.423507 0.52940404
1.4527 -0.432125 0.52830803
1.45759 -0.435994 0.52693003
1.3438499 -0.415014 0.51174003
1.3729401 -0.413147 0.51697105
1.4060899 -0.41080102 0.52268404
1.33209 -0.414969 0.50643504
1.34953 -0.41732299 0.51025099
1.33618 -0.34332401 0.46366203
1.3362399 -0.33897302 0.45926502
1.33909 -0.34232602 0.45976704
1.3942 -0.299799 0.46269304
1.4027499 -0.302176 0.46396905
1.4003501 -0.30694202 0.46364704
1.3964599 -0.29194501 0.45961502
1.40826 -0.294943 0.462419
1.40836 -0.30042499 0.46186504
1.4018101 -0.30629599 0.46121302
1.41293 -0.28729701 0.45923504
1.4101199 -0.29448402 0.45916602
1.40966 -0.29996699 0.45860702
1.4097199 -0.30345699 0.45851105
1.4126101 -0.28004199 0.45447102
1.41559 -0.28443101 0.45549703
1.41453 -0.29057699 0.45619905
1.4118899 -0.29752898 0.45534405
1.4071801 -0.30287999 0.45367405
1.41014 -0.271146 0.44888103
1.42156 -0.27358299 0.45159602
1.4165601 -0.281454 0.45196304
1.4166499 -0.28829101 0.45222801
1.4089 -0.296592 0.45051402
1.42153 -0.26748401 0.44850606
1.4203399 -0.27142298 0.44734105
1.41931 -0.27891701 0.44811505
1.41582 -0.286924 0.44786304
1.4193699 -0.25969401 0.44150901
1.42342 -0.264373 0.44395602
1.42417 -0.27028099 0.44446304
1.41556 -0.27854002 0.44329804
1.42914 -0.25638101 0.44015804
1.42494 -0.263217 0.44066104
1.42328 -0.26863599 0.44055703
1.43107 -0.248878 0.43580705
1.4304601 -0.25346601 0.43641803
1.4300301 -0.25835198 0.43686402
1.4295599 -0.239613 0.42965803
1.4364799 -0.243622 0.43230003
1.4325501 -0.25073001 0.43252903
1.43435 -0.254271 0.43167201
1.4344001 -0.243964 0.42876104
1.43419 -0.249229 0.42783204
1.4282899 -0.254318 0.42569405
1.43431 -0.241935 0.42387903
1.43494 -0.24716999 0.42326504
1.42558 -0.24733101 0.41692001
1.3685299 -0.38986501 0.55178303
1.3635401 -0.392156 0.54962105
1.3582801 -0.38978803 0.54947603
1.35431 -0.386778 0.54939604
1.3575 -0.39595002 0.54587704
1.34893 -0.394813 0.54709208
1.34655 -0.39099997 0.54649103
1.35212 -0.40123099 0.53974503
1.34606 -0.39709401 0.54175401
1.34136 -0.414711 0.53544205
1.3497599 -0.402729 0.53531706
1.3417 -0.415512 0.52983505
1.33873 -0.41013598 0.53049707
1.33926 -0.41571701 0.52395403
1.33419 -0.41016498 0.52454704
1.34264 -0.412615 0.516994
1.3345101 -0.41041303 0.51820207
1.3354201 -0.40803 0.51221001
1.45818 -0.397825 0.54318899
1.44204 -0.394398 0.54496706
1.41168 -0.39504299 0.54897302
1.39503 -0.39076197 0.55072105
1.3830099 -0.386287 0.55134904
1.4613 -0.4122 0.53764004
1.46367 -0.40320098 0.53911299
1.4485401 -0.401068 0.54102403
1.42696 -0.39789903 0.54355502
1.3993801 -0.39735803 0.54719603
1.38026 -0.39411098 0.54912901
1.35869 -0.393213 0.55047905
1.3435401 -0.39249402 0.55194205
1.45901 -0.41394901 0.53348207
1.45242 -0.40960398 0.53537703
1.4283099 -0.407662 0.53843302
1.4066 -0.40421599 0.54131103
1.3891001 -0.40029401 0.54341704
1.36871 -0.39762101 0.54529798
1.35195 -0.39536399 0.54670501
1.3417599 -0.39301398 0.54815102
1.45541 -0.41470501 0.52917105
1.43953 -0.41339698 0.53096408
1.4018201 -0.41356602 0.53652704
1.39116 -0.40875 0.53848004
1.38082 -0.40322399 0.53844404
1.3593299 -0.40025502 0.54018104
1.33926 -0.39866501 0.54397804
1.45727 -0.41377899 0.52446902
1.4369 -0.414781 0.52670598
1.4085801 -0.41519299 0.52997702
1.3870599 -0.41176999 0.53351802
1.36938 -0.40778598 0.53354806
1.36598 -0.400839 0.533535
1.4182299 -0.41203499 0.52478808
1.3848701 -0.41227999 0.52815104
1.36508 -0.409832 0.52908903
1.3521299 -0.40557498 0.53043205
1.3554801 -0.41137001 0.52597702
1.34113 -0.40727001 0.52560401
1.34374 -0.41061199 0.52099109
1.4296299 -0.38813701 0.54957306
1.42047 -0.38641101 0.55026901
1.42267 -0.39284199 0.54726303
1.4114599 -0.38990799 0.54823405
1.3988099 -0.38747102 0.54931504
1.4517599 -0.39730799 0.53825605
1.4197099 -0.39542302 0.54273605
1.3937 -0.39381 0.54606605
1.3708999 -0.392546 0.54830205
1.34312 -0.394878 0.550556
1.4544799 -0.40726298 0.533234
1.43021 -0.403144 0.53599805
1.40448 -0.39916301 0.538625
1.3746201 -0.39675799 0.54349107
1.3548501 -0.39469397 0.54612601
1.44227 -0.41057202 0.52945799
1.41076 -0.407047 0.53345305
1.3900599 -0.40434101 0.53444898
1.3902 -0.39680001 0.53594804
1.3412499 -0.39931598 0.54249799
1.45807 -0.41186798 0.52379304
1.4000101 -0.408831 0.52978808
1.37506 -0.40738097 0.53120607
1.36909 -0.40090501 0.53320205
1.34082 -0.400372 0.53514802
1.3674999 -0.409583 0.52804303
1.35237 -0.405406 0.52885103
1.34278 -0.39949298 0.52947307
1.3506799 -0.41085801 0.52356005
1.34571 -0.406708 0.52405405
1.3472301 -0.409805 0.51817405
1.33442 -0.40855801 0.52086002
1.45424 -0.392827 0.54468507
1.4347099 -0.392322 0.54737502
1.42896 -0.38834202 0.547571
1.44841 -0.39612702 0.54185402
1.42504 -0.39433399 0.54536706
1.40848 -0.39228001 0.54669702
1.4530799 -0.40773401 0.53519607
1.43924 -0.39981097 0.53841406
1.4140601 -0.396586 0.54180306
1.3938299 -0.39526799 0.54348207
1.46016 -0.41642103 0.52948105
1.44699 -0.40804401 0.53276408
1.42393 -0.40313998 0.53574908
1.4028101 -0.39821899 0.53770101
1.38025 -0.39813501 0.539626
1.45065 -0.411102 0.52853501
1.39546 -0.404585 0.53466707
1.3861001 -0.40085998 0.53435302
1.36912 -0.39991799 0.53549302
1.37762 -0.40698397 0.53158003
1.3666701 -0.40449101 0.53102303
1.36608 -0.399519 0.53087598
1.36754 -0.408829 0.52703303
1.35718 -0.40660098 0.52692705
1.3452001 -0.40254903 0.52877903
1.3598 -0.40911499 0.52262902
1.34796 -0.406618 0.52403903
1.34232 -0.405449 0.51983607
1.34399 -0.40428397 0.51511204
1.3892701 -0.288811 0.46727905
1.4008 -0.27888098 0.46403202
1.4140199 -0.267654 0.46064305
1.3916299 -0.28776899 0.46339604
1.4029201 -0.27840799 0.46021104
1.40976 -0.268646 0.45813304
1.4150701 -0.26076701 0.45643902
1.39043 -0.28718999 0.45944202
1.4011799 -0.27968201 0.45695004
1.40746 -0.26990801 0.454126
1.41465 -0.25779802 0.45022503
1.4079801 -0.27402902 0.45008904
1.41678 -0.26265299 0.44593903
1.42099 -0.25111401 0.44141603
1.42851 -0.23937 0.43855405
1.44327 -0.25696501 0.43188003
1.4236599 -0.25792 0.43765503
1.4259501 -0.24706399 0.43459702
1.4261099 -0.23927 0.43474403
1.43778 -0.25310901 0.42980805
1.4366499 -0.24376601 0.42790204
1.39385 -0.29316798 0.46979806
1.3874099 -0.29449201 0.46805203
1.39457 -0.28713 0.46647203
1.40327 -0.27682102 0.46304604
1.38668 -0.29549998 0.463725
1.3944401 -0.28768599 0.46264005
1.3998599 -0.27842501 0.46118805
1.4054401 -0.266251 0.45702904
1.42327 -0.25067499 0.45055202
1.3867199 -0.295578 0.459849
1.39106 -0.28906 0.45841703
1.40365 -0.27556401 0.454555
1.4082899 -0.264238 0.45255402
1.41476 -0.25305998 0.44909105
1.4240601 -0.240871 0.44516003
1.4025199 -0.29072902 0.45281401
1.4042599 -0.281831 0.45059502
1.40414 -0.272499 0.44863704
1.4091901 -0.26309699 0.44777906
1.4159199 -0.251872 0.44376305
1.4168401 -0.270069 0.44266403
1.4147099 -0.259238 0.44121304
1.4233 -0.237876 0.43478104
1.42351 -0.24364401 0.43177003
1.33614 -0.40426102 0.53682208
1.3495101 -0.405756 0.53338903
1.3379899 -0.41165298 0.53393805
1.33998 -0.417817 0.53423506
1.3454601 -0.39717901 0.52902603
1.3622301 -0.40753102 0.53003401
1.34661 -0.41480801 0.52965504
1.35765 -0.42276502 0.53003001
1.3744299 -0.40284002 0.52859503
1.39009 -0.407253 0.52914405
1.34386 -0.415654 0.52373606
1.3603101 -0.42372501 0.52616805
1.37963 -0.43139499 0.52782601
1.4006799 -0.405368 0.52733606
1.4103999 -0.40858501 0.527134
1.3315899 -0.41608897 0.51727301
1.3348399 -0.41945302 0.517452
1.3889101 -0.43419102 0.52577806
1.4285899 -0.40791598 0.52576506
1.42775 -0.40993598 0.52566004
1.3295399 -0.41644001 0.51240706
1.44839 -0.40968201 0.52316004
1.4421201 -0.41136003 0.52385503
1.4549099 -0.41209203 0.52075702
1.36472 -0.35503101 0.48592502
1.36245 -0.36325401 0.48706099
1.34706 -0.368873 0.48531005
1.37985 -0.34228697 0.48236102
1.3789799 -0.34996301 0.48466301
1.37238 -0.35603699 0.48471203
1.3634501 -0.36274502 0.483749
1.3434 -0.36951301 0.48066506
1.45187 -0.41201499 0.50193202
1.38765 -0.33497298 0.47900903
1.3829401 -0.341474 0.47984099
1.37745 -0.34873298 0.48094505
1.37202 -0.35617599 0.48106706
1.3705701 -0.36147201 0.48041001
1.39237 -0.31540501 0.47300103
1.4027801 -0.326336 0.47663102
1.3914399 -0.33288503 0.47620606
1.38603 -0.33979902 0.47684303
1.3801301 -0.346389 0.47733802
1.3746899 -0.35360298 0.47706604
1.3689301 -0.35791197 0.47582105
1.40327 -0.31002101 0.47100803
1.4063499 -0.317606 0.47298202
1.40105 -0.32386002 0.47220704
1.3999801 -0.33094701 0.47404903
1.3914701 -0.33704603 0.47387803
1.3803301 -0.346259 0.474356
1.36778 -0.35233298 0.47276103
1.4063499 -0.302421 0.46668404
1.4085201 -0.30998799 0.46840805
1.4052 -0.31745002 0.46925804
1.40274 -0.322705 0.46840104
1.4007001 -0.32903901 0.46984002
1.40821 -0.28376201 0.45909703
1.4149499 -0.29394799 0.46261704
1.4108299 -0.301902 0.46420401
1.41271 -0.307899 0.46452603
1.40584 -0.31539401 0.46500805
1.4033099 -0.32284302 0.46580803
1.39072 -0.32648498 0.46448603
1.4202299 -0.27248502 0.45607606
1.4219099 -0.27903199 0.45747802
1.41563 -0.28571501 0.45851403
1.4153199 -0.29180101 0.45877305
1.4142599 -0.299743 0.46030504
1.41436 -0.30833998 0.46187004
1.4043801 -0.31568101 0.46211103
1.4294701 -0.272668 0.454317
1.4258901 -0.27781701 0.45381203
1.41931 -0.28515801 0.45511106
1.41754 -0.29287001 0.45624104
1.41118 -0.29779398 0.45589906
1.42742 -0.26427799 0.44803104
1.42984 -0.271355 0.44984901
1.42638 -0.27688801 0.45014104
1.42581 -0.282848 0.45122901
1.42093 -0.28995702 0.45260605
1.43564 -0.25764501 0.44365105
1.43294 -0.26451299 0.44548503
1.43154 -0.270345 0.44635904
1.4285201 -0.27626899 0.44709504
1.42242 -0.28185901 0.44731402
1.4364901 -0.24941999 0.43798405
1.4362199 -0.25499701 0.43981904
1.4341201 -0.26058599 0.44079804
1.4312199 -0.26863399 0.44281703
1.42651 -0.27601299 0.44406903
1.44267 -0.242236 0.43368405
1.4416901 -0.248282 0.43561605
1.43876 -0.25391901 0.43613601
1.43907 -0.26106799 0.43832803
1.44047 -0.24665001 0.43146503
1.43573 -0.25121999 0.42994905
1.43461 -0.25660899 0.43145803
1.4385699 -0.244645 0.42561302
1.43366 -0.25081199 0.42507103
1.43558 -0.244537 0.42109403
1.42773 -0.249478 0.42044902
1.34732 -0.398774 0.544393
1.35298 -0.39592099 0.54080403
1.34769 -0.399948 0.54048002
1.35961 -0.3969 0.53663504
1.34911 -0.39955899 0.535613
1.35374 -0.395955 0.53149706
1.3392 -0.39830601 0.52864802
1.33263 -0.41316798 0.527134
1.34554 -0.39492199 0.52506506
1.3464501 -0.41874999 0.52631205
1.33058 -0.41845298 0.52491605
1.3421299 -0.39385799 0.51905107
1.3348 -0.42042401 0.52294803
1.37875 -0.35304001 0.49047604
1.3844299 -0.358087 0.49202904
1.39183 -0.36341202 0.49385303
1.38432 -0.33647999 0.48531401
1.3865401 -0.34277001 0.48644906
1.3830099 -0.351291 0.487881
1.3861099 -0.35776699 0.49010199
1.39315 -0.32192799 0.48049399
1.39531 -0.32790601 0.48195207
1.3914701 -0.336101 0.48341101
1.38525 -0.34287101 0.48323104
1.3769701 -0.34773701 0.48237702
1.3873399 -0.355955 0.48620805
1.40093 -0.305599 0.47490704
1.40213 -0.31220698 0.47584701
1.3988099 -0.32235101 0.47846305
1.39433 -0.32909098 0.47974405
1.3902299 -0.335798 0.47947404
1.3793499 -0.34153301 0.47805604
1.3756399 -0.346953 0.47920305
1.4066299 -0.29944199 0.47133502
1.41285 -0.307302 0.47396603
1.4059801 -0.31139201 0.47313604
1.3968101 -0.31756699 0.47279799
1.3920399 -0.326792 0.47524604
1.3844099 -0.333381 0.47448105
1.37256 -0.338494 0.47373801
1.37705 -0.34553501 0.47591102
1.4200301 -0.291336 0.46613503
1.4135699 -0.300194 0.468748
1.41017 -0.306615 0.47021005
1.4025301 -0.31147599 0.46882302
1.39834 -0.317404 0.46884704
1.3930701 -0.32374802 0.47064102
1.41694 -0.27389899 0.45986301
1.4197 -0.28117701 0.46150902
1.42231 -0.28906301 0.46300203
1.41782 -0.29691201 0.46363404
1.40929 -0.30489901 0.46502504
1.40223 -0.31154901 0.46521202
1.38343 -0.31404498 0.46394503
1.4217399 -0.26658198 0.45528102
1.42858 -0.27555799 0.45853004
1.42461 -0.28182501 0.45897201
1.42274 -0.28976101 0.45940402
1.4187199 -0.296011 0.45904601
1.4107499 -0.301249 0.45958802
1.40793 -0.30768099 0.46115804
1.425 -0.25906602 0.44963002
1.42816 -0.266826 0.45265201
1.42761 -0.27432901 0.45409703
1.42504 -0.28213701 0.45436504
1.4186301 -0.28848699 0.45407704
1.4137501 -0.29533002 0.45513603
1.3997501 -0.298774 0.45492303
1.4304401 -0.251845 0.44454503
1.43376 -0.26000202 0.44731402
1.43179 -0.267905 0.44969302
1.4268899 -0.27385199 0.44897202
1.4220901 -0.280588 0.44895703
1.40887 -0.28374901 0.44798005
1.4251699 -0.24094601 0.43740001
1.4376401 -0.2518 0.44206902
1.43365 -0.25673401 0.44204703
1.4299001 -0.26495799 0.44365001
1.4246299 -0.27228001 0.44353303
1.4155999 -0.27648601 0.44336501
1.43756 -0.243486 0.43622804
1.4351 -0.24955601 0.43699303
1.43339 -0.257566 0.43796304
1.4246401 -0.263493 0.43781501
1.41207 -0.26663199 0.43689305
1.43811 -0.242367 0.43167102
1.43422 -0.24911 0.43229604
1.4278101 -0.25564101 0.43302104
1.4184599 -0.26128301 0.43364605
1.4357201 -0.24160601 0.42717305
1.4325399 -0.246574 0.42764905
1.41397 -0.40136397 0.54855502
1.4091001 -0.40574402 0.54879004
1.3810201 -0.40276501 0.54570103
1.43927 -0.40796903 0.54809403
1.4187 -0.40647301 0.54764205
1.3858 -0.403054 0.54406202
1.3478 -0.40059701 0.54003
1.4495599 -0.405779 0.54445601
1.4459599 -0.40830398 0.54523003
1.42839 -0.40775299 0.54534507
1.35738 -0.399721 0.537301
1.46357 -0.408241 0.54162806
1.4548199 -0.409412 0.54242605
1.44453 -0.40968299 0.54229707
1.3405099 -0.40267 0.52938199
1.3436799 -0.412 0.52805901
1.46429 -0.41029799 0.53877902
1.3569299 -0.41012201 0.52520502
1.35113 -0.41441199 0.52493399
1.3309101 -0.416087 0.52244103
1.3616201 -0.40689602 0.52215302
1.36754 -0.41250402 0.523085
1.35072 -0.41395301 0.52101904
1.33087 -0.41678199 0.51707
1.37045 -0.41346699 0.52147901
1.3354201 -0.41325802 0.51352006
1.3395 -0.40880501 0.50208402
1.39246 -0.32136101 0.48082802
1.4029601 -0.32882801 0.48298505
1.4006599 -0.30747101 0.47541404
1.40816 -0.31672898 0.47781402
1.40607 -0.324743 0.48003602
1.4063201 -0.32910901 0.48102906
1.4162899 -0.30538601 0.47305703
1.4132299 -0.311115 0.47419804
1.4074 -0.317305 0.47442999
1.40626 -0.32418001 0.47688603
1.4197 -0.287402 0.46513405
1.42088 -0.29381502 0.46675706
1.4163901 -0.30230799 0.46893501
1.4123 -0.30998302 0.46937102
1.4043601 -0.314821 0.46789703
1.40616 -0.32162997 0.47106403
1.42171 -0.26590598 0.45673406
1.42628 -0.27649099 0.45923603
1.42584 -0.28871599 0.46314803
1.42187 -0.29571301 0.46469903
1.4177699 -0.302564 0.46457604
1.40614 -0.30764201 0.46270904
1.40705 -0.31578299 0.46434903
1.4 -0.317536 0.46423802
1.42207 -0.260093 0.45323902
1.42939 -0.269205 0.45530206
1.42656 -0.27617398 0.45545104
1.42373 -0.28363299 0.45790103
1.4200101 -0.292537 0.45915204
1.41194 -0.29958901 0.45806104
1.4052901 -0.30518901 0.45776004
1.3996201 -0.31125399 0.45944005
1.39784 -0.31631902 0.46055204
1.4311301 -0.262243 0.45003304
1.4295 -0.26927999 0.45055202
1.4292301 -0.27741802 0.45224601
1.42276 -0.283117 0.45302606
1.41778 -0.29217601 0.45366803
1.4059199 -0.29697701 0.45326003
1.39228 -0.30030099 0.45293602
1.4307699 -0.25203699 0.44209701
1.43366 -0.26175898 0.44489706
1.42953 -0.267986 0.44612303
1.42656 -0.275289 0.44778702
1.42235 -0.28420499 0.44927001
1.40748 -0.28801799 0.44860202
1.4337399 -0.243293 0.43570304
1.43726 -0.25293198 0.43859401
1.4364301 -0.260782 0.44099003
1.43367 -0.268208 0.44332004
1.42161 -0.273559 0.44386205
1.43655 -0.24209699 0.43169102
1.43769 -0.249685 0.43303302
1.43592 -0.257339 0.43618301
1.43998 -0.242855 0.42762202
1.4381599 -0.24865299 0.42843503
1.4402001 -0.24207501 0.42304906
1.43189 -0.24338499 0.42199105
1.34013 -0.407029 0.54009902
1.34119 -0.41264901 0.52859801
1.32981 -0.414729 0.52910399
1.34589 -0.41305697 0.52325606
1.33578 -0.415847 0.52320504
1.3566201 -0.41233599 0.51998603
1.3420399 -0.41147998 0.51800102
1.33492 -0.41567299 0.51845205
1.34916 -0.408108 0.51398802
1.3323101 -0.41515598 0.51351202
1.3389101 -0.40143201 0.50555003
1.33836 -0.39338502 0.49809206
1.3501401 -0.388908 0.48921907
1.40482 -0.29971501 0.47536102
1.4096299 -0.305931 0.47664604
1.3399401 -0.384029 0.48430002
1.41563 -0.294853 0.47073203
1.4157801 -0.30335799 0.47376502
1.4209501 -0.310532 0.47565502
1.41942 -0.28789699 0.46588907
1.4192599 -0.29634801 0.46839103
1.41843 -0.30260098 0.46981606
1.4203501 -0.266599 0.45614001
1.42343 -0.27795899 0.45969802
1.42002 -0.28654301 0.46190804
1.4225501 -0.29669499 0.46423301
1.42946 -0.30601299 0.46656007
1.41575 -0.257099 0.45073605
1.42247 -0.26751101 0.45336705
1.42321 -0.27788499 0.45570904
1.42213 -0.28705099 0.45744103
1.42531 -0.296087 0.45993903
1.42398 -0.25913799 0.44693303
1.4244701 -0.26886401 0.44871604
1.42237 -0.27815101 0.45133305
1.42327 -0.28531 0.45261604
1.4266499 -0.25847 0.44172904
1.42633 -0.26807299 0.44450906
1.42356 -0.27541199 0.44682103
1.41263 -0.276512 0.44616103
1.4253501 -0.245672 0.43411502
1.42612 -0.254756 0.43673301
1.42301 -0.263762 0.44033504
1.42778 -0.23713399 0.42811403
1.42642 -0.24484101 0.43039402
1.4283999 -0.24140601 0.42612502
1.34815 -0.39961702 0.55398202
1.3957601 -0.410974 0.55114102
1.37446 -0.41040698 0.55193102
1.3493299 -0.406506 0.55175501
1.4357001 -0.40985402 0.54829806
1.42617 -0.415849 0.54915804
1.4095799 -0.41779301 0.54910707
1.38491 -0.41384202 0.54836106
1.3608299 -0.41126302 0.54747903
1.45479 -0.403979 0.54421204
1.45479 -0.41133597 0.54561102
1.44124 -0.41346499 0.54666001
1.43547 -0.41808999 0.54606003
1.41828 -0.419994 0.54504305
1.3964 -0.41950801 0.54458308
1.3697 -0.41586101 0.542826
1.3410699 -0.41189602 0.54082203
1.46047 -0.41200802 0.54207206
1.44862 -0.41505298 0.54268909
1.4390601 -0.42226899 0.54167604
1.4319501 -0.42948899 0.54184103
1.40763 -0.42515302 0.54043603
1.3781301 -0.41981 0.53810704
1.3516201 -0.41694099 0.53589201
1.46035 -0.41336 0.53840905
1.4458299 -0.41329497 0.537907
1.4607401 -0.43656501 0.53834206
1.4414799 -0.43268201 0.53883606
1.41644 -0.42859 0.53684705
1.3843499 -0.422245 0.53378302
1.3578501 -0.41865897 0.53098208
1.3326499 -0.41743499 0.52816999
1.45463 -0.43928701 0.53586406
1.3933901 -0.423549 0.53150201
1.35946 -0.41510502 0.52645403
1.344 -0.41570899 0.52439404
1.3297099 -0.41671398 0.52167207
1.3330799 -0.41113603 0.51646203
1.34864 -0.37692797 0.49276
1.3415101 -0.38041902 0.49413002
1.3651401 -0.37845698 0.49057102
1.3562 -0.378003 0.48886302
1.34489 -0.38235801 0.49012902
1.36325 -0.37587002 0.48637104
1.36037 -0.37901101 0.48540604
1.3508201 -0.38208303 0.485176
1.3616999 -0.37556899 0.48296905
1.3550301 -0.378755 0.48223603
1.33946 -0.38022399 0.48041403
1.4208599 -0.246571 0.44523904
1.4247099 -0.25495601 0.44713703
1.43574 -0.268491 0.45008701
1.4332401 -0.23511499 0.43764403
1.4332001 -0.24541301 0.44138405
1.42821 -0.25082502 0.44394803
1.4324601 -0.25991401 0.44589603
1.4344701 -0.24062701 0.43588704
1.4322 -0.249286 0.43925706
1.4335999 -0.23988099 0.43209904
1.44136 -0.25432101 0.43681103
