# .PCD v0.7 - Point Cloud Data file format
VERSION 0.7
FIELDS x y z
SIZE 4 4 4
TYPE F F F
COUNT 1 1 1
WIDTH 114
HEIGHT 1
VIEWPOINT 0 0 0 1 0 0 0
POINTS 114
DATA ascii
1.14045 -0.33565602 1.312041
1.13783 -0.33095902 1.311671
1.13823 -0.337666 1.305037
1.14274 -0.33336103 1.309379
1.1413 -0.32949102 1.3068359
1.14206 -0.34493199 1.3020941
1.13862 -0.33998901 1.2996771
1.1401 -0.33419299 1.302325
1.1392 -0.33644298 1.2955611
1.1357399 -0.32587299 1.319591
1.13274 -0.32941502 1.313683
1.1331099 -0.32678002 1.3124241
1.13 -0.33113098 1.3048379
1.12985 -0.32730401 1.3049231
1.13316 -0.33787498 1.300776
1.12998 -0.33335602 1.298013
1.13062 -0.32921699 1.299737
1.13073 -0.33854902 1.294212
1.13043 -0.33436799 1.29362
1.13279 -0.331536 1.2940811
1.1297699 -0.32117802 1.317698
1.12641 -0.32399502 1.311246
1.12483 -0.31935498 1.3066051
1.1364601 -0.346659 1.30634
1.12094 -0.32333001 1.3006821
1.12395 -0.318903 1.300943
1.1271601 -0.31615201 1.300511
1.1258399 -0.344789 1.2992221
1.1278701 -0.33886102 1.299279
1.12711 -0.329519 1.2985741
1.1289001 -0.32256499 1.2981861
1.1396099 -0.32200599 1.2999631
1.12537 -0.34404001 1.2942981
1.12448 -0.33815497 1.2930261
1.13085 -0.333004 1.295103
1.1440001 -0.32958901 1.298668
1.13508 -0.33381402 1.291189
1.13239 -0.32780701 1.319765
1.12835 -0.32210499 1.314556
1.1240699 -0.32297501 1.3085611
1.1277699 -0.322128 1.3072101
1.12683 -0.32687101 1.301649
1.1275901 -0.32302397 1.3013021
1.1311799 -0.33620998 1.2992239
1.13018 -0.33163798 1.2971181
1.1328601 -0.32814202 1.297453
1.1316301 -0.33852902 1.2945731
1.1368099 -0.337183 1.294554
1.13151 -0.32565799 1.311677
1.13774 -0.33475301 1.3126721
1.1311901 -0.325804 1.30847
1.14344 -0.331157 1.3129791
1.13044 -0.330302 1.305083
1.12982 -0.32629901 1.303007
1.12975 -0.33312699 1.296931
1.13376 -0.33128798 1.298198
1.13071 -0.33673599 1.2915452
1.13283 -0.33321899 1.291335
1.13098 -0.33373797 1.315726
1.1299 -0.33934501 1.3161031
1.1285701 -0.34601101 1.3171381
1.1258399 -0.34329799 1.314599
1.13789 -0.34385201 1.3082299
1.1239901 -0.35475102 1.3164239
1.1441001 -0.33437198 1.3098609
1.146 -0.32999402 1.3033819
1.14837 -0.33495399 1.301071
1.12914 -0.30759099 1.319599
1.12326 -0.30689999 1.318671
1.13465 -0.31981501 1.302947
1.12563 -0.31162301 1.3102059
1.12471 -0.305455 1.3134841
1.13721 -0.32680401 1.295157
1.12639 -0.31843901 1.3028781
1.12611 -0.312177 1.3058151
1.1265301 -0.30860502 1.3049361
1.13167 -0.325555 1.2940781
1.12499 -0.31947201 1.2990041
1.12579 -0.314179 1.299794
1.12802 -0.310635 1.2983929
1.1297699 -0.32606602 1.2887851
1.12711 -0.32057801 1.293031
1.12713 -0.31628001 1.2926331
1.1305799 -0.32701501 1.282988
1.1310199 -0.323275 1.283954
1.13368 -0.32035598 1.2824091
1.12673 -0.30949101 1.316614
1.12564 -0.30907699 1.3133121
1.12238 -0.30217898 1.3176831
1.1230301 -0.29802901 1.3176849
1.12556 -0.31219998 1.3055329
1.1252201 -0.30537 1.310159
1.13317 -0.305033 1.306056
1.1347799 -0.322025 1.2942171
1.1307 -0.31662101 1.2969561
1.1278399 -0.31018001 1.3011971
1.13499 -0.32423601 1.2885441
1.13322 -0.31842199 1.2916341
1.14026 -0.31790599 1.288529
1.12956 -0.317819 1.307005
1.12091 -0.30635798 1.316378
1.12594 -0.30397499 1.314218
1.13006 -0.30154899 1.312516
1.12571 -0.31732699 1.3035921
1.12678 -0.31184301 1.3068671
1.1276699 -0.307484 1.3066831
1.12932 -0.320299 1.2967911
1.13028 -0.316158 1.2979431
1.136 -0.314816 1.295261
1.13018 -0.321096 1.2912221
1.13412 -0.31986901 1.288548
1.1331301 -0.33098498 1.292482
1.1164399 -0.35915902 1.3103399
1.11068 -0.357719 1.313481
