# .PCD v0.7 - Point Cloud Data file format
VERSION 0.7
FIELDS x y z
SIZE 4 4 4
TYPE F F F
COUNT 1 1 1
WIDTH 1589
HEIGHT 1
VIEWPOINT 0 0 0 1 0 0 0
POINTS 1589
DATA ascii
2.2146499 -0.836514 3.18275
2.1429 -0.69617701 3.2383099
2.1297998 -0.70127296 3.2504301
2.1258299 -0.734541 3.24701
2.1399601 -0.74326402 3.2359698
2.19841 -0.80682296 3.1844201
2.19783 -0.81649804 3.1841199
2.1989 -0.82579398 3.1845398
2.1981001 -0.83476996 3.1842902
2.1441901 -0.696531 3.2273998
2.1336901 -0.70166296 3.2349403
2.12257 -0.73396301 3.24002
2.1310101 -0.74287599 3.2321999
2.1229501 -0.75124395 3.2360699
2.1724401 -0.79193801 3.1927001
2.1858099 -0.80227095 3.1831799
2.1866999 -0.81355399 3.1825299
2.1935401 -0.82567298 3.1786499
2.1797302 -0.833803 3.1862702
2.1403899 -0.69587195 3.2202499
2.1280601 -0.70131797 3.22698
2.12095 -0.73457903 3.2311201
2.1207299 -0.74424499 3.2281101
2.1191299 -0.753793 3.2274201
2.1779201 -0.79277498 3.1799297
2.18121 -0.80240303 3.1781299
2.1816702 -0.81282997 3.1756599
2.18047 -0.82458395 3.1770301
2.16119 -0.83315599 3.1903303
2.1618202 -0.60785002 3.1975701
2.13326 -0.69491994 3.2135901
2.12609 -0.70070195 3.2179198
2.1185899 -0.73517901 3.2202499
2.1196401 -0.74466699 3.2180099
2.11431 -0.75374395 3.2222497
2.1152 -0.76359802 3.21911
2.1633799 -0.78828299 3.1790197
2.1731 -0.80178702 3.17346
2.16907 -0.81392998 3.1756299
2.16311 -0.82453597 3.1805701
2.1409199 -0.83253199 3.1981499
2.15347 -0.60706198 3.1965802
2.1621799 -0.61556703 3.18911
2.1463401 -0.620278 3.2001398
2.13446 -0.69478798 3.2012701
2.12605 -0.70074898 3.2070701
2.0692301 -0.71396798 3.2426002
2.10253 -0.73164999 3.2205701
2.1182899 -0.74324304 3.2096
2.11431 -0.75396401 3.2117701
2.13802 -0.77080101 3.19085
2.15818 -0.78578204 3.17328
2.1606901 -0.79829496 3.1710498
2.16557 -0.81067598 3.16872
2.1591799 -0.82063103 3.1720099
2.0985801 -0.89174896 3.2103698
2.1142199 -0.90274501 3.1995001
2.1426699 -0.60615897 3.1965301
2.1593299 -0.61751097 3.18208
2.1726198 -0.63095599 3.1670098
2.1251299 -0.69213796 3.1966698
2.13309 -0.70067805 3.1905799
2.0695798 -0.71413398 3.23528
2.0882401 -0.72657502 3.2201099
2.10483 -0.741436 3.2089398
2.11325 -0.75446504 3.2020898
2.15151 -0.776932 3.1697602
2.1544001 -0.78723198 3.1673701
2.1455801 -0.79750395 3.1713097
2.15432 -0.80970705 3.1665399
2.1510201 -0.81882596 3.1659303
2.11431 -0.89083099 3.1895599
2.1248598 -0.90231001 3.1835401
2.1465199 -0.61722696 3.1823599
2.1577201 -0.62901503 3.1705999
2.16694 -0.639346 3.1613801
2.13046 -0.684205 3.1823101
2.1136701 -0.68951499 3.1954603
2.1294501 -0.70001101 3.1824501
2.06899 -0.71454298 3.2267301
2.0829201 -0.725986 3.2128997
2.09203 -0.73755598 3.20734
2.1050599 -0.75044799 3.1960998
2.14452 -0.77643305 3.1632099
2.1492701 -0.78627604 3.1610801
2.1384399 -0.79593498 3.1664503
2.1470599 -0.80892897 3.1602001
2.1504099 -0.81854898 3.15522
2.10815 -0.87633497 3.1829801
2.1078799 -0.88734001 3.1833801
2.11742 -0.89945704 3.1790302
2.09428 -0.90577006 3.1939399
2.15206 -0.63030398 3.16396
2.1498101 -0.63885397 3.16414
2.1393299 -0.68428499 3.1650598
2.1224799 -0.69060099 3.1791
2.12462 -0.70164198 3.17349
2.0796402 -0.71539199 3.2070599
2.0731699 -0.72468698 3.21031
2.0955801 -0.73877406 3.1924298
2.1052999 -0.75265402 3.18314
2.1449299 -0.77455103 3.1529999
2.1373899 -0.78421897 3.1581101
2.1366901 -0.79758906 3.15871
2.14889 -0.80921698 3.1479402
2.14872 -0.81787699 3.1468601
2.08742 -0.85064399 3.1875098
2.10501 -0.86196101 3.17535
2.1031799 -0.87395304 3.1772101
2.1036 -0.88496804 3.17663
2.1052401 -0.89585799 3.1775098
2.13521 -0.62987 3.1640699
2.1429801 -0.64014101 3.1579499
2.1388099 -0.64936203 3.1588399
2.1712999 -0.67754 3.1299
2.1516399 -0.68400401 3.1447496
2.1313698 -0.69268304 3.16047
2.11888 -0.70397401 3.1671801
2.0955701 -0.71259999 3.1850202
2.07775 -0.72398806 3.1971698
2.0871801 -0.737288 3.1872199
2.10165 -0.75135499 3.1758301
2.12518 -0.768601 3.1577599
2.1167998 -0.78054297 3.1619501
2.1354499 -0.79578102 3.1488099
2.1444399 -0.80741304 3.1406202
2.08518 -0.82241201 3.1767402
2.0968299 -0.84875298 3.17221
2.1018801 -0.86071199 3.16852
2.10427 -0.873052 3.1666999
2.0878599 -0.88365501 3.1800501
2.1176 -0.62791002 3.16749
2.1319299 -0.639211 3.15587
2.1354899 -0.65059 3.1516101
2.12535 -0.65853 3.15749
2.1499701 -0.681144 3.1365802
2.1422501 -0.692074 3.1408701
2.1194601 -0.703049 3.1568298
2.09448 -0.71394801 3.17523
2.07163 -0.724702 3.1908998
2.0896299 -0.73882598 3.1752899
2.10165 -0.75368696 3.16484
2.1194401 -0.76972997 3.1500299
2.1109099 -0.78112704 3.15711
2.1369801 -0.79670799 3.13642
2.1400599 -0.80562103 3.13358
2.07075 -0.82023102 3.1795397
2.0829 -0.83271301 3.17207
2.09758 -0.84695101 3.1616001
2.0959802 -0.85961097 3.1626198
2.0864999 -0.87069803 3.1706202
2.1205499 -0.63881999 3.1549101
2.1275899 -0.64987898 3.1481702
2.1257699 -0.66305804 3.14642
2.13973 -0.68084997 3.1340899
2.13925 -0.69250101 3.1330402
2.12234 -0.70184898 3.1435299
2.09705 -0.71266699 3.1616998
2.07212 -0.72384804 3.1802697
2.0859101 -0.738864 3.1668999
2.1080401 -0.75571299 3.1483898
2.1076601 -0.76825899 3.1482401
2.1136501 -0.78188598 3.1434901
2.1327 -0.79556197 3.1298699
2.0934501 -0.80941397 3.1538301
2.08231 -0.82076102 3.1637299
2.0864 -0.83280897 3.1598797
2.09196 -0.84601098 3.1553199
2.0811 -0.85700601 3.1641901
2.11885 -0.65178597 3.1432002
2.1238 -0.66347098 3.1373796
2.1190701 -0.67528296 3.13819
2.1252902 -0.69124395 3.1333001
2.1217501 -0.70263803 3.13412
2.09957 -0.71141195 3.14888
2.0785899 -0.723683 3.1635199
2.0869901 -0.73957604 3.1543398
2.10499 -0.75434303 3.1407402
2.10427 -0.76721299 3.14025
2.1188099 -0.78198701 3.1288898
2.10569 -0.79438102 3.1373401
2.08618 -0.80626297 3.15031
2.08675 -0.81897002 3.1500001
2.0831199 -0.83194602 3.15168
2.06971 -0.84295601 3.1621201
2.0929699 -0.64955801 3.1486297
2.10496 -0.66101402 3.1411297
2.09619 -0.67245597 3.1428399
2.1124401 -0.68832606 3.1311903
2.11216 -0.70268703 3.1309099
2.0880299 -0.71413201 3.14641
2.0777001 -0.72583097 3.1529901
2.0859199 -0.73813105 3.1443398
2.0966902 -0.75260496 3.1365697
2.1013498 -0.76638496 3.1309099
2.1064501 -0.78083003 3.12708
2.0990601 -0.79307997 3.13182
2.0880599 -0.80487704 3.1394098
2.0821099 -0.81827104 3.1422799
2.0776899 -0.82982999 3.1459501
2.0787802 -0.64737397 3.1475298
2.08933 -0.65930605 3.1403
2.0885899 -0.67169601 3.1379602
2.09674 -0.68547797 3.1315398
2.1071699 -0.70096499 3.12305
2.0907202 -0.71261197 3.1337702
2.0773301 -0.72510099 3.1423998
2.0911999 -0.740731 3.13047
2.09761 -0.75525999 3.1245098
2.0997 -0.76917803 3.1219201
2.1078999 -0.78143698 3.1158302
2.0898101 -0.79197502 3.1284699
2.08096 -0.80517304 3.13309
2.0794599 -0.81622499 3.1333001
2.05212 -0.61228901 3.15453
2.05369 -0.64392996 3.1562202
2.07376 -0.65571702 3.1416497
2.08285 -0.66899699 3.1326098
2.0806398 -0.67988294 3.1340399
2.1043401 -0.69977403 3.1134901
2.0935202 -0.71202397 3.12098
2.0766201 -0.72226501 3.1330297
2.08162 -0.73565 3.1273999
2.0810401 -0.74936998 3.1258802
2.09707 -0.76594901 3.1126897
2.0959198 -0.78096199 3.1144202
2.08286 -0.793459 3.1231399
2.07391 -0.80414999 3.12799
2.0541401 -0.81219202 3.1413202
2.06934 -0.61529601 3.1348999
2.05162 -0.61959702 3.1468201
2.07179 -0.65822899 3.13309
2.0846701 -0.67106104 3.1212299
2.08167 -0.68236196 3.1219699
2.0999999 -0.69881302 3.1058099
2.0942101 -0.71189499 3.1088898
2.0789101 -0.72347397 3.1210299
2.0838799 -0.73777497 3.115
2.0874701 -0.75167602 3.1105201
2.0983901 -0.76609498 3.1001399
2.0968401 -0.77913201 3.1024201
2.08061 -0.79187202 3.1151397
2.0644999 -0.80266798 3.12695
2.11954 -0.82213098 3.0796599
2.0655901 -0.61566502 3.1293201
2.0608799 -0.62201196 3.1314001
2.0778701 -0.672732 3.1153901
2.0867701 -0.686822 3.1068101
2.0943201 -0.701074 3.0998499
2.09305 -0.71326602 3.0989802
2.0801601 -0.725021 3.1083701
2.0827 -0.73947197 3.1056702
2.0885401 -0.75261396 3.099
2.1003399 -0.76694506 3.0885401
2.0955999 -0.77773398 3.0934
2.0991499 -0.79102302 3.08973
2.12694 -0.80924302 3.0671999
2.1289001 -0.82279998 3.0667498
2.0724499 -0.87296999 3.0980701
2.05758 -0.88605398 3.10917
2.0680499 -0.90082496 3.1046801
2.0554299 -0.61467099 3.12677
2.0680399 -0.62510604 3.1147199
2.0669999 -0.67150396 3.1096201
2.0798199 -0.68384695 3.1012201
2.08586 -0.69758695 3.0959699
2.0883901 -0.71023697 3.09373
2.08851 -0.72278506 3.0917499
2.0835099 -0.73777097 3.0936401
2.0928102 -0.75409299 3.08548
2.1007099 -0.76785499 3.0785401
2.0966401 -0.779284 3.0827899
2.1184599 -0.79515404 3.0650702
2.1298699 -0.80849802 3.0569098
2.131 -0.82047498 3.0562501
2.12691 -0.83170801 3.0577803
2.0704601 -0.849823 3.0910299
2.06041 -0.86052203 3.0982099
2.0563099 -0.87397599 3.10199
2.0529699 -0.88634902 3.10449
2.0620501 -0.89853501 3.1005599
2.0670099 -0.627244 3.1068101
2.0576899 -0.63431096 3.1094401
2.04948 -0.66805494 3.1098199
2.0671601 -0.68054903 3.0998402
2.0731599 -0.69365996 3.09445
2.08477 -0.70967901 3.0858002
2.07886 -0.72342002 3.08741
2.0766201 -0.73574603 3.0868299
2.08516 -0.74926299 3.0810299
2.0939901 -0.76394898 3.07371
2.0994902 -0.77964598 3.06919
2.1197999 -0.79429901 3.0548103
2.11731 -0.80641502 3.05633
2.1096601 -0.81906301 3.0598497
2.0920599 -0.82894897 3.06952
2.04724 -0.84722102 3.0980401
2.05619 -0.85936201 3.0922799
2.05685 -0.87140101 3.0924401
2.0459599 -0.88387001 3.0997601
2.0385699 -0.89584804 3.1066902
2.0588601 -0.62872702 3.1010101
2.06198 -0.63929999 3.0953901
2.03196 -0.65353996 3.11288
2.0409801 -0.66555297 3.1061201
2.06288 -0.68122703 3.0918701
2.07709 -0.69839203 3.0808899
2.07761 -0.71200204 3.0800202
2.0755301 -0.72448099 3.0786903
2.0826402 -0.73830801 3.0740302
2.0864 -0.75118399 3.0697298
2.0953901 -0.76649004 3.0618298
2.1015601 -0.77951795 3.0577199
2.0996201 -0.791668 3.0589099
2.0908401 -0.80523401 3.0631299
2.0722301 -0.81749898 3.0739899
2.0510201 -0.83107698 3.08637
2.04216 -0.84508699 3.09147
2.04374 -0.85763198 3.0914099
2.0515602 -0.86939502 3.0870099
2.0411501 -0.88129503 3.0926199
2.0380201 -0.89358103 3.0940199
2.05441 -0.64076698 3.0906298
2.0441799 -0.65078497 3.0964398
2.0297 -0.66111296 3.1056101
2.04969 -0.67623496 3.0904102
2.0712399 -0.69432604 3.0734799
2.07266 -0.71063501 3.0726199
2.0669 -0.72245795 3.0751002
2.0757401 -0.73646301 3.0683398
2.0927699 -0.75308603 3.0543201
2.0940599 -0.76566803 3.0532401
2.0906701 -0.77766001 3.0554199
2.07412 -0.79049897 3.0647602
2.0585001 -0.80335701 3.0738099
2.0381799 -0.81629997 3.0855999
2.0269899 -0.82865405 3.0928199
2.0271699 -0.84148002 3.0914397
2.0306599 -0.85625196 3.08971
2.03508 -0.86989701 3.08792
2.0171201 -0.883937 3.09676
2.05093 -0.64168197 3.0808201
2.0524001 -0.65199095 3.08076
2.0345399 -0.66171098 3.09306
2.05036 -0.67782402 3.0792499
2.0722301 -0.69367796 3.06195
2.0708399 -0.70778197 3.0622299
2.0740099 -0.72299796 3.06147
2.08025 -0.73787999 3.05387
2.0882401 -0.75159895 3.0478699
2.0878201 -0.76391798 3.0480402
2.07534 -0.777035 3.05458
2.0469 -0.78859001 3.072
2.0365899 -0.80148596 3.07759
2.0276198 -0.81336099 3.0821803
2.0167799 -0.82714796 3.0895998
2.0107 -0.85395104 3.0929601
2.0130601 -0.86947995 3.0901802
2.0432401 -0.64113802 3.0752599
2.0485299 -0.65164495 3.0725298
2.04286 -0.66354501 3.07707
2.0527401 -0.67866498 3.0672801
2.0665901 -0.69440001 3.0557897
2.0716701 -0.708992 3.05022
2.06866 -0.72205496 3.0539598
2.0783 -0.73588401 3.0448401
2.07956 -0.74967498 3.0441198
2.06791 -0.76273805 3.0501199
2.05375 -0.77539599 3.0580599
2.0334301 -0.78743303 3.0704801
2.02964 -0.80073601 3.0727003
2.01408 -0.81383204 3.08289
2.0287299 -0.63940203 3.07531
2.0454099 -0.65167701 3.0641
2.0480001 -0.66443199 3.0630798
2.0516801 -0.67939794 3.0573599
2.06758 -0.69635302 3.0443499
2.0703199 -0.70925599 3.0420399
2.0718699 -0.72259694 3.0404902
2.07443 -0.73718697 3.0385699
2.0724001 -0.74975306 3.0381598
2.0504501 -0.761325 3.0508201
2.0355799 -0.77342904 3.0598102
2.0158799 -0.78559798 3.0731702
2.0034101 -0.79904699 3.08248
2.0399201 -0.65221703 3.0575299
2.0443101 -0.66495699 3.05393
2.05494 -0.68135804 3.0444901
2.06212 -0.69521499 3.0376399
2.0674 -0.70918196 3.0346801
2.0687699 -0.72192103 3.03266
2.06546 -0.73451304 3.0341198
2.05603 -0.74770498 3.0381501
2.02632 -0.75901002 3.0569599
2.0157599 -0.771043 3.0645599
2.0216799 -0.650199 3.06057
2.0444999 -0.66495299 3.0431299
2.0422699 -0.67603797 3.0441198
2.0554099 -0.69063598 3.03333
2.06141 -0.70521301 3.02794
2.0626199 -0.720532 3.0267301
2.0560801 -0.73438597 3.0292301
2.04406 -0.74474996 3.0357001
2.0109501 -0.76002604 3.0608301
2.0441401 -0.66757399 3.0311499
2.0459499 -0.677665 3.0315599
2.0574601 -0.69293296 3.0215302
2.0599401 -0.70809901 3.0178499
2.05475 -0.72206706 3.0209799
2.04107 -0.732669 3.02947
2.02127 -0.73880696 3.0407898
2.03655 -0.66718501 3.02596
2.04849 -0.67926103 3.0180199
2.05687 -0.69494104 3.01141
2.0570099 -0.70682901 3.0102499
2.05339 -0.71748805 3.01211
2.03966 -0.72860801 3.0215101
2.04439 -0.66856903 3.0113099
2.05073 -0.67875201 3.0065198
2.0450501 -0.68949699 3.0092301
2.05198 -0.70456398 3.0044599
2.0341299 -0.71419901 3.0153303
2.03947 -0.66683096 3.0042799
2.0445499 -0.67820901 3.0002999
2.05351 -0.692922 2.9949701
2.04649 -0.70300597 2.9974701
2.06303 -0.61615503 2.9811201
2.0549099 -0.62400502 2.9848499
2.0357101 -0.66444504 2.99615
2.04215 -0.67732805 2.9900901
2.0447199 -0.69062501 2.9902301
2.0413599 -0.70023 2.9891801
2.07078 -0.61794996 2.9693
2.0697501 -0.62612599 2.9698701
2.05601 -0.636877 2.9755297
2.03739 -0.65057701 2.9865301
2.0364799 -0.66389704 2.9854102
2.0357699 -0.67621303 2.9852302
2.03969 -0.68928903 2.98193
2.0427401 -0.70010203 2.9791999
2.0780499 -0.62030602 2.9568398
2.0642998 -0.62716901 2.9642599
2.05265 -0.63835502 2.9683001
2.0476 -0.65151101 2.97102
2.04089 -0.66453695 2.9732099
2.03512 -0.67623001 2.97716
2.0358701 -0.688357 2.9731798
2.0346899 -0.69853896 2.9748902
2.0552001 -0.62678099 2.9605601
2.05597 -0.63824701 2.95768
2.0466099 -0.65006602 2.9616601
2.03883 -0.66295403 2.9652698
2.0332699 -0.67568702 2.9683599
2.0366099 -0.68816203 2.9632401
2.0313201 -0.697559 2.9657898
2.02858 -0.634633 2.9636297
2.0452099 -0.64944297 2.9525597
2.0414901 -0.662907 2.95362
2.0321 -0.67644697 2.9586298
2.03034 -0.68899399 2.9583001
2.0253701 -0.69897103 2.9586298
1.9861 -0.70918602 2.9752898
2.0209 -0.63512903 2.9576001
2.02759 -0.64644504 2.9521999
2.0389199 -0.66193098 2.9449701
2.0318499 -0.67555398 2.9481499
2.02439 -0.68935603 2.9516799
2.0072701 -0.70131898 2.9584198
1.97998 -0.710006 2.9714003
2.0027499 -0.47391301 2.9716799
2.0223 -0.63662601 2.9469597
2.0194199 -0.64562798 2.9477899
2.0351701 -0.66012901 2.9368398
2.0325301 -0.67491603 2.9375401
2.0232699 -0.68813002 2.94189
2.0080299 -0.70033205 2.9495301
2.0004401 -0.71285701 2.9521399
1.97691 -0.72258699 2.9629102
1.9755599 -0.76835197 2.95771
1.97987 -0.77992404 2.9544599
2.02281 -0.47918901 2.9539301
2.0003901 -0.48350298 2.9644501
1.9886301 -0.49294898 2.9677398
2.02684 -0.63761503 2.9338598
2.0225401 -0.64643598 2.93749
2.0376101 -0.660142 2.9259198
2.0357299 -0.67376196 2.9252698
2.02423 -0.68709296 2.9313898
2.0113201 -0.699561 2.93788
1.9991701 -0.711137 2.9444001
1.99554 -0.72483003 2.9435198
1.98137 -0.73881304 2.9497101
1.9823101 -0.75640798 2.9477601
1.99165 -0.77070999 2.9424601
1.99492 -0.78213096 2.93979
1.9975301 -0.793809 2.9360399
1.9662 -0.81281096 2.9498599
2.0039899 -0.48478499 2.95596
2.0048199 -0.49673599 2.9513502
1.9919901 -0.50668401 2.95557
2.0352001 -0.63909304 2.9193799
2.0236099 -0.64661795 2.9272602
2.0372999 -0.66140294 2.9168501
2.0394599 -0.67474097 2.9132502
2.0261199 -0.68588901 2.9205298
2.0123501 -0.69815803 2.9275901
1.99786 -0.711375 2.9347498
1.9897799 -0.72503901 2.9363298
1.9902201 -0.73776102 2.9370699
1.9763299 -0.75204599 2.9434998
1.98489 -0.76714301 2.93891
1.98255 -0.78085297 2.9391198
1.97666 -0.79497397 2.9397001
1.98238 -0.80985397 2.9352899
1.95516 -0.82333702 2.94877
1.94012 -0.83401299 2.95643
1.9373599 -0.84352201 2.95736
2.00844 -0.48820201 2.9430799
2.0032601 -0.49770501 2.9423902
1.99643 -0.50898302 2.9442797
1.9772201 -0.51764703 2.9528
2.0459199 -0.64193398 2.9047699
2.03494 -0.64939302 2.9112501
2.03952 -0.66350001 2.90522
2.0324299 -0.67695701 2.9082098
2.0184901 -0.68892801 2.91538
2.00337 -0.70042604 2.92331
1.99446 -0.71264803 2.9260101
1.99231 -0.72522599 2.92716
1.9845599 -0.73581594 2.93224
1.9533501 -0.75374603 2.9491301
1.96698 -0.76668 2.9415197
1.96552 -0.781955 2.9406703
1.96436 -0.79465598 2.9399798
1.9839101 -0.80817705 2.9282598
1.96139 -0.82297701 2.9380798
1.95373 -0.835778 2.9416101
1.96419 -0.85220301 2.93203
2.0061998 -0.48957297 2.9334698
1.9977901 -0.499167 2.9356399
1.99923 -0.51290101 2.9328001
1.99575 -0.52332503 2.93437
1.9941499 -0.53765798 2.9310102
1.97935 -0.54953802 2.93557
2.04656 -0.65333998 2.89482
2.0398099 -0.66301805 2.8960998
2.03303 -0.67489302 2.8980601
2.0206699 -0.68672502 2.9053602
2.00087 -0.69821298 2.9150801
1.9811 -0.70835501 2.9249499
1.97528 -0.72149497 2.9298797
1.94821 -0.814484 2.9379699
1.94586 -0.82453698 2.9386201
1.9570199 -0.83824402 2.9312799
1.96418 -0.85291296 2.9250801
2.01192 -0.490854 2.9223299
1.9963001 -0.49815899 2.9271898
1.9898399 -0.50957197 2.9290302
1.9935001 -0.52509397 2.9258599
1.99362 -0.53872502 2.9232199
1.99392 -0.55199599 2.9204102
1.9726199 -0.56066698 2.9302599
1.98298 -0.57391101 2.9215698
2.0597799 -0.65658206 2.8796802
2.0344501 -0.66320097 2.8902001
2.03299 -0.67600095 2.88802
2.01824 -0.68707395 2.8968101
1.9935299 -0.69651604 2.9100599
1.94696 -0.85166705 2.92872
1.96662 -0.49313998 2.9313202
1.9819299 -0.50763202 2.9233201
1.98897 -0.52225101 2.9192901
1.9896899 -0.53742498 2.9165199
1.9941901 -0.55271196 2.9109998
1.9905701 -0.56518698 2.9120998
1.9857001 -0.57631499 2.9111903
2.0276601 -0.66326106 2.8838897
2.0324202 -0.67378098 2.8799403
2.02442 -0.68576205 2.8825097
2.00841 -0.695292 2.8925598
1.9426401 -0.48694199 2.9357002
1.9641 -0.50340402 2.9229999
1.97961 -0.522376 2.9135499
1.9912399 -0.54132801 2.9049401
1.98971 -0.55470699 2.9049401
1.98577 -0.566719 2.9046698
1.9898599 -0.58058703 2.8986499
2.0097501 -0.59559101 2.8856299
2.0306001 -0.66514701 2.87324
2.0256 -0.67481202 2.8738203
2.02757 -0.68677694 2.87098
2.0127201 -0.69465399 2.8810499
1.94875 -0.48720601 2.9261298
1.9367 -0.49380198 2.9316001
1.9712801 -0.52085 2.90733
1.98015 -0.53700298 2.9011099
1.9874699 -0.554497 2.8962798
1.99291 -0.56983799 2.8915398
1.99028 -0.58129102 2.8898101
1.99927 -0.59501803 2.8831799
2.02247 -0.665362 2.8670397
2.02967 -0.676543 2.8625
2.0341599 -0.68735498 2.8569
2.0050001 -0.69386399 2.8779299
1.9730201 -0.51242101 2.9002802
1.96515 -0.52052999 2.90289
1.9680001 -0.53281599 2.8996899
1.9808099 -0.55106997 2.8903399
1.98625 -0.56840003 2.8854902
1.9939301 -0.58446699 2.8788598
2.0057402 -0.59911996 2.8703601
2.0078199 -0.60840201 2.86885
2.0197501 -0.66477895 2.85763
2.02774 -0.676332 2.85391
2.0378001 -0.68946296 2.84656
2.0186701 -0.69565302 2.8561401
1.95652 -0.54224402 2.8977201
1.9826601 -0.56845999 2.8772497
1.9829401 -0.57980502 2.8767102
1.9949499 -0.59513301 2.8679299
2.0023899 -0.60880697 2.86147
2.0355999 -0.66750395 2.8406501
2.0248301 -0.67530197 2.8457198
2.03547 -0.68929499 2.8396201
2.0352001 -0.70095497 2.83899
2.0547199 -0.71931702 2.82478
2.0548301 -0.73235804 2.8236401
2.06216 -0.74545598 2.8189898
2.06708 -0.75810504 2.8147399
1.97018 -0.56938201 2.87409
1.98606 -0.58198601 2.8659301
1.99507 -0.59688997 2.85813
2.00263 -0.61098403 2.8514001
2.0118201 -0.62286496 2.84565
2.01915 -0.67526299 2.8391199
2.03655 -0.68928301 2.8295503
2.0415602 -0.70430702 2.8263597
2.06108 -0.72068602 2.81411
2.0654202 -0.73453301 2.81177
2.07177 -0.74880701 2.8076
2.08056 -0.76076502 2.8009901
2.0773802 -0.76896101 2.8023999
1.9832001 -0.58410704 2.8577302
1.9991601 -0.59959799 2.8456202
2.0030601 -0.61356604 2.84233
2.0086999 -0.62444699 2.8385301
2.0195398 -0.67689496 2.8297
2.02934 -0.68797302 2.82341
2.0380099 -0.70222002 2.8188801
2.05165 -0.71691203 2.8118799
2.0624001 -0.73122299 2.80478
2.06919 -0.74790001 2.8002801
2.0824201 -0.76135302 2.7929699
2.0767701 -0.77002698 2.7948999
1.99028 -0.58690202 2.8436701
1.9901299 -0.59628701 2.8406599
1.99879 -0.61024201 2.8353
2.0053101 -0.62482101 2.8303101
2.0339 -0.68088603 2.8141401
2.0258999 -0.68856299 2.81656
2.02842 -0.69947505 2.8145502
2.05461 -0.71763605 2.8011498
2.0648398 -0.73467302 2.79353
2.06933 -0.74906194 2.79052
2.0725901 -0.76083505 2.7899899
2.0776899 -0.77317202 2.7839098
1.9924999 -0.58759898 2.8329999
1.9931901 -0.59783602 2.8302801
2.00384 -0.61339802 2.8226199
2.00067 -0.62602901 2.8228302
2.01074 -0.63657498 2.8177803
2.02684 -0.69019896 2.80848
2.0280299 -0.700221 2.8074
2.07584 -0.72534597 2.78057
2.07248 -0.73504305 2.7818201
2.0625701 -0.74624497 2.7857401
2.0697401 -0.76198995 2.7816699
2.0746801 -0.77505994 2.7769501
2.0691199 -0.784872 2.77806
1.96418 -0.51990598 2.83672
1.9874099 -0.58693004 2.82622
1.99814 -0.59929901 2.81826
2.00086 -0.61181903 2.81462
2.0032899 -0.62543601 2.81306
2.0012801 -0.63608003 2.8133399
2.01668 -0.68849701 2.80637
2.0268202 -0.69875902 2.80109
2.1063399 -0.72748297 2.75599
2.08917 -0.73508698 2.76633
2.0671 -0.762613 2.7741001
2.06899 -0.77321899 2.7731597
2.0760899 -0.78530294 2.7677801
1.97868 -0.52414 2.8237298
1.97141 -0.53077102 2.8256598
1.99312 -0.58772898 2.8138001
2.0011599 -0.60042399 2.8066299
2.0046699 -0.61557901 2.8042498
2.0036399 -0.62791002 2.80392
2.0041702 -0.63748199 2.8027101
2.09302 -0.71720999 2.7558002
2.11444 -0.72712195 2.7431901
2.10761 -0.73411006 2.7483001
2.05792 -0.76536906 2.76952
2.06587 -0.77467203 2.7662799
2.0808001 -0.78824598 2.7567499
1.98206 -0.52573699 2.8150299
1.99489 -0.53871703 2.80568
2.0121899 -0.55657798 2.79386
2.0200701 -0.57398105 2.7887299
2.00299 -0.586896 2.7985902
2.00565 -0.59961396 2.7944098
1.99804 -0.612441 2.79831
1.99755 -0.62518799 2.7987399
2.0036399 -0.63650697 2.7940302
2.0710299 -0.778189 2.7545898
1.99717 -0.53187799 2.7986701
1.9989799 -0.54321402 2.7948797
2.0199699 -0.561535 2.7830899
2.0308099 -0.57635802 2.7771399
2.00758 -0.58541304 2.7867999
2.0023501 -0.59847999 2.78778
2.00015 -0.61145997 2.7876301
1.99745 -0.62457699 2.7898102
2.00017 -0.63591701 2.7850702
2.05916 -0.77760297 2.7528
1.994 -0.542193 2.7897
2.0101402 -0.55788898 2.7791998
2.02228 -0.57415402 2.7737298
2.00945 -0.58479899 2.7768099
2.0009201 -0.59830797 2.77965
1.9992999 -0.61193401 2.77966
1.99698 -0.62459898 2.7797401
1.99862 -0.63864601 2.7748902
2.01476 -0.54922402 2.77075
2.0014901 -0.55759203 2.7737701
2.0090401 -0.57236302 2.7698901
2.0010099 -0.58561999 2.77228
1.99755 -0.59816599 2.7709997
1.9946001 -0.61157298 2.7734601
1.99641 -0.627074 2.7693501
1.99063 -0.63974601 2.7701898
1.9988201 -0.65091401 2.7652802
1.99117 -0.55501598 2.77245
2.01126 -0.57246101 2.75927
2.00018 -0.58524203 2.7634499
1.9973301 -0.59820199 2.76284
1.99397 -0.611857 2.7631102
1.99312 -0.62647301 2.7618499
1.98869 -0.63784802 2.7639999
1.9863601 -0.64878196 2.7637398
2.00263 -0.660653 2.75559
2.02511 -0.56782603 2.7463598
2.0067101 -0.57453501 2.7524297
2.0053899 -0.58562696 2.7516298
1.99885 -0.599123 2.7537398
1.99685 -0.61276501 2.7524297
1.9897599 -0.62374002 2.7557199
1.9893899 -0.63728696 2.7549298
1.9770399 -0.64721602 2.7597497
2.0187299 -0.59004599 2.7372499
2.0013499 -0.59902596 2.74336
1.9954699 -0.61070001 2.74547
1.9924699 -0.62442201 2.7455299
1.98517 -0.638161 2.7461402
1.9380701 -0.65049696 2.7628901
1.91418 -0.656762 2.7727301
1.93718 -0.66862601 2.76161
2.00423 -0.60115999 2.7325399
1.9950999 -0.61263001 2.7362499
1.98541 -0.62585801 2.7391698
1.9830099 -0.63885397 2.7368
1.95023 -0.64831197 2.75124
1.93153 -0.65866303 2.7591901
1.93007 -0.66760695 2.75772
2.0074301 -0.60377604 2.7218702
1.99992 -0.61315602 2.7236798
1.98838 -0.62612802 2.7283802
1.97737 -0.63889098 2.73052
1.95629 -0.648368 2.7399499
1.9374001 -0.65844202 2.74897
1.9480499 -0.66959196 2.7425702
2.00209 -0.60485804 2.7156
1.9944999 -0.61365801 2.71668
1.99061 -0.62462598 2.71807
1.97996 -0.63722199 2.7215099
1.96121 -0.648655 2.7286799
1.9411099 -0.658162 2.7384
1.9800501 -0.67562896 2.7142799
1.99397 -0.614896 2.7087798
1.98906 -0.62357897 2.7106299
1.98297 -0.63558602 2.7116499
1.9587801 -0.64663297 2.72051
1.95425 -0.66092598 2.7210603
1.9673101 -0.67359 2.71367
1.9955001 -0.61765999 2.6992199
1.98683 -0.62627202 2.70242
1.97352 -0.63867003 2.70609
1.9528 -0.65005797 2.71384
1.94645 -0.660716 2.7158301
1.9564301 -0.671314 2.7109997
1.98545 -0.62728602 2.69503
1.9766201 -0.63752496 2.69697
1.95623 -0.64835405 2.7044201
1.9418601 -0.65907502 2.71034
1.95935 -0.670582 2.7021399
1.98806 -0.63877499 2.6863203
1.9572301 -0.646025 2.6977699
1.9474001 -0.657839 2.7013597
1.98394 -0.57111096 2.60443
2.01494 -0.589791 2.5924101
1.9792501 -0.56958997 2.6000097
1.98703 -0.582362 2.59688
1.9936999 -0.59708196 2.5931501
2.0164599 -0.61320704 2.5833302
1.97821 -0.568995 2.5938299
1.97929 -0.57919902 2.5921202
1.98985 -0.595052 2.5880499
1.9929299 -0.60911399 2.5857897
2.00752 -0.62176299 2.57953
1.97814 -0.56898803 2.58636
1.9758201 -0.57830399 2.5847101
1.98033 -0.59259498 2.58232
1.99049 -0.60794902 2.5796099
1.98481 -0.61919302 2.5796697
1.9656799 -0.627783 2.5824201
1.9763901 -0.56888598 2.5782897
1.97954 -0.58026904 2.5745699
1.9768201 -0.59391397 2.57477
1.98326 -0.60801899 2.5738502
1.96918 -0.6189 2.5759699
1.95733 -0.62800902 2.57781
1.94824 -0.54423803 2.57564
1.9769299 -0.56675303 2.56861
1.97497 -0.57754797 2.5674298
1.9762 -0.59125501 2.5670898
1.9718699 -0.605883 2.56844
1.9618499 -0.61861002 2.56937
1.9471201 -0.62673599 2.57392
2.0483201 -0.49757901 2.5392501
2.05233 -0.50842601 2.53686
2.05163 -0.52117598 2.53528
1.9624801 -0.53874201 2.5656598
1.96629 -0.55022299 2.56458
1.97651 -0.56564802 2.5596201
1.97613 -0.58070099 2.5592399
1.97595 -0.59440702 2.5596201
1.9616901 -0.60526001 2.56266
1.95841 -0.61696798 2.5620999
1.95017 -0.62627202 2.5651598
2.04706 -0.49743199 2.53444
2.05551 -0.51041597 2.53039
2.0599699 -0.525433 2.52668
2.04478 -0.53522497 2.5302801
2.0130401 -0.54426998 2.53929
1.98215 -0.55327398 2.5511901
1.97463 -0.56392699 2.5525501
1.97576 -0.57767099 2.5504601
1.96963 -0.59304899 2.5529602
1.9604 -0.60567701 2.55549
1.9500799 -0.61544204 2.55849
1.92494 -0.621975 2.56703
2.06147 -0.49211299 2.5252199
2.0529602 -0.49970698 2.52724
2.0537901 -0.51242 2.5251398
2.06393 -0.52876902 2.5190802
2.04075 -0.533952 2.52584
2.02386 -0.54375499 2.52951
1.9917799 -0.55217499 2.53861
1.98034 -0.56442297 2.5431399
1.9776199 -0.57738602 2.5411401
1.9712501 -0.59061503 2.54264
1.95972 -0.60256404 2.54825
2.0319099 -0.53602296 2.52089
2.01086 -0.54493099 2.52565
1.9883701 -0.552634 2.53175
1.98277 -0.56514096 2.5327101
1.9751401 -0.57970297 2.5336502
1.97272 -0.591923 2.5332401
1.9585401 -0.59921002 2.5390501
2.03174 -0.53769702 2.51405
2.0171499 -0.54607099 2.5165398
1.99201 -0.55452001 2.5228601
1.9894099 -0.56655997 2.5223501
1.9817901 -0.57769698 2.5237398
1.969 -0.58946204 2.5266199
1.9612499 -0.59984601 2.5283098
1.9902 -0.55468398 2.51512
1.9815199 -0.56586701 2.5167999
1.9732801 -0.57923698 2.5177
1.9632699 -0.59134001 2.51967
1.9498801 -0.60010302 2.5219698
2.0079899 -0.55975497 2.5027001
1.98192 -0.56509602 2.5090499
1.97238 -0.57594699 2.5099001
1.9672 -0.58931303 2.5102
1.9522901 -0.60044301 2.5136499
1.9419299 -0.61028898 2.5151398
1.97227 -0.56708801 2.5028
1.9684399 -0.57833201 2.5016601
1.9607401 -0.59132701 2.5034699
1.9466001 -0.60266298 2.5069399
1.92592 -0.60977101 2.51194
1.90166 -0.615188 2.5174999
1.97296 -0.56898201 2.49281
1.97349 -0.578803 2.4921899
1.95915 -0.58792001 2.4957299
1.954 -0.60146099 2.4966898
1.92257 -0.60835201 2.5053
1.97395 -0.56626499 2.4823699
1.9683701 -0.57849997 2.4855001
1.9569299 -0.59139299 2.4880199
1.9453999 -0.60212201 2.49122
1.92536 -0.60856497 2.49505
1.98069 -0.55487704 2.4728
1.9691701 -0.56319302 2.47648
1.97098 -0.57623899 2.4754701
1.96224 -0.58990198 2.4779501
1.9486301 -0.601964 2.4815099
1.9208599 -0.607225 2.4881201
1.97667 -0.79526299 2.4634399
1.97952 -0.544635 2.46737
1.9806399 -0.55347002 2.4665399
1.97335 -0.56397402 2.46789
1.9732699 -0.576819 2.4673798
1.9670199 -0.58798099 2.46838
1.9533701 -0.59981096 2.4712899
1.93441 -0.60935098 2.4756999
1.9503 -0.72047698 2.46174
1.98786 -0.78223199 2.4516599
1.9910699 -0.794918 2.4529099
1.9908299 -0.80488294 2.45257
1.97272 -0.81324899 2.45609
1.97786 -0.55423701 2.4603999
1.9756 -0.56588 2.45873
1.96974 -0.57698798 2.4611099
1.96222 -0.59002 2.4612701
1.9451801 -0.60214901 2.46403
1.9204601 -0.61054999 2.46984
1.95 -0.70749497 2.45574
1.9597701 -0.71973801 2.4533
1.95447 -0.73091006 2.4549699
1.96401 -0.74473298 2.4512398
1.9722501 -0.75994498 2.4481599
1.97954 -0.77634001 2.4466698
1.98823 -0.791641 2.4458899
1.98207 -0.80439496 2.44769
1.9567701 -0.81313002 2.4544799
2.0129299 -0.56513196 2.43929
1.98323 -0.56758302 2.4484899
1.9707401 -0.57876402 2.45172
1.9560499 -0.59191501 2.45403
1.9413099 -0.60264301 2.45666
1.92796 -0.61295801 2.46015
1.91747 -0.62375402 2.4618499
1.9321001 -0.64087099 2.45539
1.9312301 -0.65570396 2.4546201
1.94095 -0.67102796 2.4514098
1.9535201 -0.68777299 2.4475901
1.9532499 -0.70520103 2.4483199
1.9580901 -0.71860296 2.4475701
1.9584 -0.731668 2.4474499
1.9634399 -0.74756104 2.44487
1.97244 -0.76274496 2.4421301
1.9794 -0.77704298 2.4403
1.9838201 -0.79028201 2.4404099
1.95377 -0.80458295 2.45031
1.98461 -0.56952304 2.4404399
1.98061 -0.57987499 2.4405699
1.9617101 -0.590258 2.4446599
1.9453101 -0.60145098 2.4482899
1.9347999 -0.61285597 2.4509799
1.9361 -0.62838399 2.4489701
1.94019 -0.64587504 2.4469399
1.94853 -0.66097504 2.4445601
1.9459701 -0.67340696 2.4442701
1.94651 -0.68951797 2.4437599
1.94763 -0.70394099 2.44315
1.9534199 -0.71794504 2.4410501
1.95886 -0.73465699 2.43942
1.96272 -0.74981099 2.4383099
1.97004 -0.76359701 2.43629
1.9634199 -0.77296305 2.43788
1.9643401 -0.78499603 2.4386299
1.9890199 -0.58298701 2.4311199
1.96101 -0.58965498 2.4368601
1.95242 -0.60085303 2.4389601
1.94006 -0.613491 2.4411099
1.9312301 -0.62735295 2.4407499
1.94041 -0.642829 2.43975
1.94159 -0.65756106 2.43922
1.9652499 -0.67448503 2.43275
1.9459801 -0.70514196 2.43697
1.9481399 -0.71658599 2.43471
1.9507899 -0.72889102 2.4344599
1.95569 -0.74491799 2.4340801
1.96301 -0.75983298 2.4324801
1.9628799 -0.52211201 2.42644
1.95936 -0.59098399 2.4299898
1.95253 -0.60231 2.43064
1.93093 -0.61335498 2.4342
1.9223399 -0.62527001 2.43501
1.9442199 -0.64339501 2.4309499
1.9478 -0.65791702 2.4307101
1.9345 -0.70611298 2.4333999
1.92144 -0.71441495 2.43607
1.96172 -0.52261901 2.4212799
1.97201 -0.53383601 2.4175799
1.95603 -0.594374 2.4233201
1.9408901 -0.603194 2.42588
1.9171699 -0.61172998 2.4308
1.91396 -0.62405199 2.4314899
1.9603101 -0.64942002 2.42206
1.9684 -0.53524202 2.4117899
1.987 -0.54824901 2.4060299
1.93988 -0.603122 2.4205699
1.9067301 -0.62105399 2.4275701
1.97255 -0.537736 2.4019899
1.9752001 -0.54779303 2.4014301
1.9918 -0.56051803 2.3968
2.15236 -0.298022 2.3710899
2.1463699 -0.303783 2.37203
1.97209 -0.53768998 2.39487
1.9713901 -0.54700804 2.3943398
1.98137 -0.56026798 2.3906701
2.1468301 -0.296101 2.36779
1.9752201 -0.53881699 2.38659
1.9802999 -0.55132699 2.3835599
1.97787 -0.562181 2.3838899
1.98989 -0.57376999 2.3797801
1.97677 -0.53824699 2.3764799
1.98229 -0.55176198 2.37481
1.9794201 -0.56291199 2.3764701
1.99358 -0.575804 2.3707099
1.96733 -0.52453101 2.3713698
1.9719 -0.53442103 2.3694499
1.98049 -0.54853404 2.3676
1.9839901 -0.56372797 2.3668299
2.00243 -0.579633 2.3598499
1.97523 -0.52475399 2.3616099
1.9803599 -0.53748399 2.3601699
1.98015 -0.55188203 2.3599
1.99946 -0.56931996 2.3552499
2.0019 -0.58089602 2.3526101
2.02437 -0.59532201 2.3468299
1.9743401 -0.521088 2.3529699
1.97346 -0.53240502 2.35379
1.97826 -0.54755998 2.35203
1.99755 -0.56790298 2.34708
2.0134001 -0.58501798 2.3434701
2.0153301 -0.59512299 2.34338
1.9789901 -0.51056898 2.3438499
1.97498 -0.52119201 2.3464501
1.98051 -0.53516996 2.3443
1.9900999 -0.55259001 2.3408298
1.9989799 -0.56749201 2.3387899
1.9885899 -0.57743001 2.3396101
2.0253 -0.59795499 2.3362899
2.0118301 -0.50648201 2.3295801
1.99849 -0.51324797 2.3327301
1.9819 -0.52219099 2.33743
1.9836501 -0.53726298 2.33481
1.9935001 -0.55313897 2.33266
1.99037 -0.56524599 2.33322
1.9855 -0.57750702 2.3320701
1.9850999 -0.58906198 2.33073
2.0220199 -0.50742102 2.3210199
2.0048699 -0.51258999 2.3249099
1.98625 -0.52149302 2.3280301
1.9829299 -0.535869 2.3260698
1.98918 -0.55244201 2.3260801
1.9901199 -0.56741798 2.3255498
1.9762501 -0.57778597 2.32617
1.95834 -0.58599699 2.3296399
1.9661099 -0.59577101 2.3278298
2.02457 -0.50796103 2.31496
2.00491 -0.51372004 2.3179998
1.97864 -0.52201903 2.3202899
1.9837601 -0.53600901 2.31885
1.97883 -0.547481 2.3198199
1.9799299 -0.56344104 2.31935
1.9775599 -0.57666701 2.3180301
1.96035 -0.58518004 2.32196
1.98093 -0.51123101 2.3138199
1.9736999 -0.52085704 2.3123801
1.9766999 -0.535568 2.31305
1.97772 -0.55040699 2.31282
1.9776199 -0.56477404 2.31089
1.96787 -0.57633501 2.3131499
1.9549099 -0.58340001 2.3139601
2.1347301 -0.67890197 2.27737
1.9764999 -0.51081699 2.3062799
1.9686999 -0.51893502 2.3050299
1.9729201 -0.53367698 2.30513
1.9738801 -0.54899102 2.30581
1.9636 -0.56054997 2.3048999
1.9670501 -0.575023 2.30546
1.94759 -0.58105302 2.3067598
2.1234 -0.677302 2.2732198
1.97435 -0.50993901 2.29877
1.9686301 -0.51790601 2.2976599
1.9692501 -0.53175598 2.2969799
1.96486 -0.54623002 2.29917
1.96307 -0.55968702 2.2971799
1.9583 -0.57251596 2.2983899
1.9505701 -0.58164102 2.2982001
1.9692501 -0.50872099 2.29194
1.9741499 -0.52035201 2.2891099
1.9675101 -0.53263497 2.2885199
1.9641299 -0.54698002 2.29039
1.9629101 -0.56262296 2.2899599
1.95323 -0.57297099 2.2919199
1.94112 -0.57943296 2.29317
1.9783901 -0.51169896 2.2820199
1.97018 -0.520509 2.2811701
1.9708 -0.53406399 2.2802601
1.96086 -0.54442501 2.2829199
1.96515 -0.55945802 2.2811401
1.96174 -0.57214099 2.2830498
1.9805 -0.51252902 2.2725
1.9641 -0.51806301 2.27492
1.9686099 -0.53109002 2.2737
1.96549 -0.546305 2.27368
1.9659599 -0.55983102 2.2732699
1.96174 -0.56925499 2.2737
1.9764199 -0.51085299 2.2642601
1.97041 -0.52017802 2.26651
1.96935 -0.53379798 2.2662101
1.9664501 -0.54699099 2.26441
1.96086 -0.55896699 2.2669201
1.9558501 -0.56957197 2.2655499
1.9623801 -0.50705898 2.25844
1.96881 -0.51809603 2.25894
1.96662 -0.53145999 2.2585199
1.96997 -0.54724902 2.2553899
1.9560499 -0.559183 2.2586799
1.9466701 -0.57047999 2.2585099
1.9210299 -0.575939 2.26143
1.9513299 -0.50422198 2.25229
1.9632499 -0.517591 2.25208
1.96916 -0.533261 2.24892
1.9666001 -0.54640001 2.2488999
1.96242 -0.55817199 2.24947
1.9549401 -0.570786 2.2504301
1.9316001 -0.57730401 2.25385
1.94328 -0.50215602 2.2460499
1.96573 -0.518076 2.2428501
1.96523 -0.53115797 2.24142
1.9664799 -0.546354 2.24121
1.9572999 -0.56065702 2.2421398
1.9466799 -0.57197601 2.24333
1.94947 -0.50443804 2.2372
1.96479 -0.51968402 2.2348099
1.97177 -0.53444999 2.2336199
1.9672099 -0.54519904 2.2326801
1.9594901 -0.55792803 2.23367
1.94853 -0.57167196 2.2344
1.9259 -0.58222699 2.2369001
1.93953 -0.50234598 2.22978
1.96409 -0.51756597 2.2274499
1.96524 -0.53154999 2.2267098
1.96656 -0.54737598 2.22475
1.95356 -0.56001401 2.2263999
1.94791 -0.57295102 2.2263401
1.93302 -0.582371 2.2292099
1.94274 -0.50367403 2.2214799
1.9617101 -0.518426 2.2195501
1.97001 -0.53522998 2.21751
1.97089 -0.54785997 2.21665
1.96174 -0.55835301 2.2175798
1.9689 -0.51970696 2.2093499
1.96403 -0.530972 2.2111099
1.9658799 -0.54646897 2.2096798
2.0122199 -0.50568801 2.1940398
1.98092 -0.510001 2.19923
1.9804699 -0.52220702 2.1996698
1.9646801 -0.53238899 2.20258
1.9655499 -0.54609501 2.20174
2.00965 -0.50390702 2.1886001
2.00021 -0.51159197 2.1896899
1.9871899 -0.52082998 2.1922801
1.9705 -0.53075999 2.1935902
2.00196 -0.50222802 2.1827099
2.0083098 -0.51339602 2.18206
1.9853799 -0.52043599 2.1847699
1.9703799 -0.53402305 2.18488
1.9895599 -0.49944198 2.1757598
2.0038199 -0.51306999 2.1758001
1.98149 -0.521842 2.1761498
1.98155 -0.49756598 2.1683302
1.9926 -0.51036501 2.1689401
1.98331 -0.52058101 2.1679499
1.9755 -0.53366798 2.1682899
1.97087 -0.494591 2.1614499
1.97852 -0.50754297 2.1619
1.9764999 -0.52176899 2.16115
1.9736 -0.53478503 2.1607199
1.96229 -0.49279201 2.1546299
1.97314 -0.50459301 2.1547101
1.97399 -0.51854903 2.1536899
1.97136 -0.53173602 2.15452
1.964 -0.54395902 2.1543899
1.95355 -0.49139702 2.1485801
1.97269 -0.50624001 2.1466999
1.96729 -0.51886296 2.1461301
1.96552 -0.53140199 2.1477399
1.97409 -0.506926 2.13924
1.97087 -0.51835704 2.13801
1.95995 -0.53056002 2.1400599
1.97084 -0.50828803 2.13078
1.95864 -0.51619303 2.1314399
1.9660801 -0.53127199 2.1304901
1.95026 -0.54449904 2.1312101
1.9677901 -0.50787699 2.12344
1.96644 -0.51763701 2.12344
1.96522 -0.52952701 2.12204
1.96067 -0.54274499 2.1225998
1.96486 -0.50750196 2.11637
1.96961 -0.519274 2.1149201
1.96383 -0.53130901 2.1146898
1.9551899 -0.54462898 2.11483
1.94101 -0.55507803 2.1167498
1.96796 -0.50927299 2.1074898
1.96549 -0.51969796 2.1079998
1.95926 -0.53174597 2.10695
1.9561701 -0.54452205 2.1074898
1.94287 -0.55396098 2.1087201
1.91853 -0.55894399 2.10956
1.96893 -0.50872898 2.0982001
1.9648499 -0.51892799 2.10028
1.96507 -0.531793 2.0982001
1.9555299 -0.54370397 2.1006298
1.9430901 -0.55251497 2.10041
1.9686501 -0.506935 2.0894799
1.9672999 -0.519324 2.0913498
1.9653101 -0.53192103 2.0911798
1.95558 -0.542835 2.09203
1.93639 -0.550421 2.0917301
1.96787 -0.49675301 2.08356
1.9671 -0.505207 2.0833499
1.96706 -0.51716 2.0827301
1.96069 -0.53187799 2.08411
1.9483099 -0.54334098 2.0842099
1.93604 -0.55053103 2.08463
1.96635 -0.50630999 2.0768201
1.9714799 -0.51888502 2.0740399
1.96594 -0.530954 2.0750899
1.95763 -0.54364401 2.0757499
1.9362301 -0.55035704 2.0774899
1.9719701 -0.50920099 2.0674701
1.97264 -0.51923901 2.0669298
1.9680499 -0.52962899 2.0672698
1.96357 -0.54290903 2.0673499
1.9669099 -0.556701 2.06635
1.9814301 -0.51164001 2.0590899
1.9732499 -0.52045298 2.0594299
1.96663 -0.53276098 2.0602999
1.97918 -0.54991102 2.0583799
1.9836301 -0.56256402 2.0582001
1.9747 -0.56957102 2.05792
1.96823 -0.50903302 2.05147
1.9709101 -0.52056301 2.0510769
1.9703101 -0.53391302 2.051959
1.97578 -0.54906899 2.05088
1.9804 -0.561809 2.0519478
1.95754 -0.56582296 2.0522709
1.9600501 -0.50595099 2.0432861
1.96382 -0.51761401 2.0438612
1.96637 -0.53034902 2.0445528
1.96813 -0.54390901 2.044131
1.96412 -0.55618 2.045495
1.9534301 -0.50393397 2.0362771
1.95961 -0.515266 2.0362771
1.96022 -0.52908003 2.0363879
1.9533501 -0.54105097 2.037648
1.9622301 -0.50732702 2.0284839
1.95935 -0.51740199 2.0291519
1.96015 -0.52885401 2.027936
1.9616799 -0.54014701 2.0281599
1.96532 -0.50799197 2.0195458
1.9619701 -0.51842099 2.0210929
1.9607401 -0.53028303 2.0209391
1.96139 -0.54019701 2.0195222
1.9702801 -0.50872302 2.0115039
1.96741 -0.51769102 2.013226
1.9625101 -0.52978098 2.0126059
1.95992 -0.54039502 2.011914
1.9662601 -0.50838202 2.0036581
1.9658501 -0.51801997 2.005697
1.9593899 -0.52894998 2.0041151
1.9591 -0.54223299 2.0036709
1.91774 -0.55336303 2.0011771
1.9798801 -0.51190901 1.995545
1.9637899 -0.51886004 1.9971341
1.9638801 -0.53336298 1.9964371
1.9503 -0.54392397 1.9960541
1.94576 -0.55586898 1.996147
1.9261 -0.563658 1.995653
1.9291701 -0.57278097 1.9952521
1.9931101 -0.51508898 1.9887259
1.9664501 -0.51842999 1.988982
1.9636799 -0.53112799 1.9888699
1.95733 -0.544469 1.988989
1.9492 -0.555417 1.9899069
1.93775 -0.56428999 1.989616
1.97438 -0.52057099 1.982222
1.9691 -0.53051603 1.9811301
1.9611599 -0.54381502 1.980639
1.9561599 -0.55659902 1.982691
1.93047 -0.56171501 1.982186
1.9705901 -0.52236003 1.974494
1.9665101 -0.532951 1.972561
1.9565401 -0.543845 1.9724109
1.9592301 -0.55586398 1.974666
1.9686999 -0.52323401 1.9662089
1.9688699 -0.53258699 1.9646201
1.95926 -0.54228097 1.9650199
1.95026 -0.55193698 1.965296
1.97286 -0.52421004 1.9574509
1.96216 -0.53331697 1.957538
1.9575701 -0.54408097 1.9582129
1.9453501 -0.55091304 1.956517
1.9839799 -0.52616698 1.949682
1.9700301 -0.53358901 1.9493719
1.95395 -0.54272497 1.9506739
1.9475701 -0.55087799 1.9487751
1.9846801 -0.52652901 1.941727
1.97026 -0.53414398 1.9414139
1.9615101 -0.543486 1.943102
1.9402699 -0.54860502 1.941936
1.87068 -0.58128399 1.935338
1.9831799 -0.52592498 1.9341099
1.98702 -0.53615004 1.9339759
1.96687 -0.54301202 1.935532
1.88502 -0.54934198 1.928633
1.8769799 -0.55981702 1.929283
1.87229 -0.57144403 1.930122
1.87506 -0.58102202 1.92995
2.00822 -0.63645899 1.930813
1.9926699 -0.52870601 1.9269159
1.9907001 -0.53676498 1.926942
1.97466 -0.54233301 1.9266019
1.8800399 -0.54685301 1.922594
1.8846201 -0.55816901 1.923207
1.88248 -0.57101601 1.924111
1.87802 -0.580194 1.9235989
2.01491 -0.629493 1.9257751
2.0234001 -0.63807797 1.926651
2.0053899 -0.53279901 1.9203869
1.99347 -0.53806299 1.920481
1.9668601 -0.54214501 1.9178419
1.90417 -0.55080801 1.915783
1.89582 -0.56178397 1.9171509
1.8972701 -0.57254004 1.916712
2.0370798 -0.63298398 1.9198719
2.01226 -0.63620204 1.9204899
1.9799899 -0.53740698 1.91236
1.94706 -0.54409903 1.9089099
1.9172599 -0.55221003 1.908228
1.89933 -0.56107301 1.909583
1.91004 -0.57240003 1.9094989
1.9991499 -0.61057997 1.9080828
2.0348301 -0.63122797 1.913355
2.0125399 -0.63450801 1.912679
1.97367 -0.53879297 1.902827
1.94993 -0.54427898 1.9011559
1.93104 -0.55242503 1.901093
1.91608 -0.56172597 1.902352
1.98777 -0.59869099 1.902359
2.0078001 -0.6117 1.903116
2.01597 -0.62453002 1.905636
1.9934599 -0.62948501 1.904966
1.97211 -0.53833199 1.894049
1.96024 -0.54485101 1.8949921
1.94512 -0.55343896 1.893924
1.92682 -0.56145698 1.8937869
2.01001 -0.60276502 1.897378
2.0090401 -0.61095798 1.8961481
2.00769 -0.62105501 1.898481
1.98224 -0.541013 1.8865319
1.9645599 -0.54724902 1.887318
1.94183 -0.55539501 1.8862
1.92071 -0.56100899 1.8867459
2.01525 -0.60261899 1.8896811
2.0167799 -0.61155897 1.890123
2.00842 -0.61864203 1.8908359
2.0025702 -0.545506 1.8809549
1.9746499 -0.54903102 1.8797259
1.9562601 -0.55688101 1.8793421
1.9661599 -0.57225496 1.878376
2.0023501 -0.59554404 1.8802271
2.0180299 -0.610053 1.8839371
1.97653 -0.55059999 1.8730149
1.9825 -0.56383902 1.8724561
1.9871601 -0.579898 1.8722819
1.99702 -0.59494704 1.872745
2.02213 -0.60954797 1.8757831
1.98524 -0.555821 1.865957
1.9806 -0.56478101 1.864661
1.98655 -0.577012 1.8645639
1.9860201 -0.58855802 1.865581
2.02918 -0.612032 1.8676639
1.9890801 -0.56884599 1.858017
2.00016 -0.58063704 1.8582361
1.99278 -0.589059 1.8580179
2.03055 -0.61313498 1.8596271
2.0371001 -0.62244499 1.860581
1.97955 -0.56747198 1.8504449
2.0037601 -0.58307499 1.8521789
2.0191901 -0.59965402 1.852898
2.01966 -0.610416 1.8520989
1.9933901 -0.61403298 1.8487771
1.98541 -0.57749701 1.8456509
2.0234802 -0.60166699 1.847401
2.00249 -0.60718399 1.844924
2.0259299 -0.60324001 1.842343
2.03563 -0.231133 1.0122427
2.0352299 -0.23241501 1.0020181
2.01248 -0.23336399 0.99166107
2.0415499 -0.23551701 0.99492991
2.02492 -0.23950599 0.98944169
2.04106 -0.238066 0.98449486
2.0302401 -0.24419701 0.98158181
2.0538201 -0.24107599 0.98165435
2.0315199 -0.24614599 0.97220469
2.0113599 -0.24823999 0.96301913
2.0609701 -0.24324499 0.97553235
2.0402 -0.24901699 0.96625322
2.0146899 -0.250168 0.95568109
2.06094 -0.244545 0.96603286
2.04475 -0.251973 0.95804137
2.02649 -0.255169 0.95228994
2.0578501 -0.24414 0.95375997
2.04582 -0.252702 0.948138
2.0378399 -0.25974599 0.94818199
2.05633 -0.24462 0.94223601
2.05056 -0.25523999 0.94226503
2.0427699 -0.26202402 0.94013298
2.0723 -0.235567 0.93921399
2.0632899 -0.246437 0.93518603
2.0538299 -0.25685498 0.93476099
2.0437701 -0.26354501 0.93038499
2.0736301 -0.23638099 0.92955101
2.0718899 -0.249837 0.93000901
2.0649099 -0.25993901 0.930848
2.0546801 -0.26877701 0.92621201
2.0782499 -0.239371 0.92196196
2.0675199 -0.248463 0.91863602
2.06354 -0.26045701 0.91916198
2.0513699 -0.27011099 0.91351199
2.0306699 -0.27176902 0.90298402
2.08235 -0.240935 0.91406494
2.0766098 -0.251973 0.91549599
2.06937 -0.261702 0.91166794
2.0571401 -0.27114999 0.90713394
2.03146 -0.27458701 0.89303696
2.0785999 -0.25184602 0.90535897
2.06844 -0.26405501 0.90077192
2.05129 -0.27326599 0.89390594
2.03158 -0.27802601 0.883421
2.0146101 -0.28017402 0.87514001
2.0845499 -0.24201401 0.89648598
2.0809 -0.25455701 0.89613998
2.0729101 -0.265394 0.89219499
2.06143 -0.275388 0.88950998
2.03901 -0.28080299 0.87836099
2.0164499 -0.28246501 0.86709702
2.0825701 -0.241714 0.88457298
2.0761001 -0.25369301 0.88326204
2.0692101 -0.263414 0.87934297
2.0664001 -0.27534699 0.88236803
2.0320301 -0.28964001 0.865578
2.08356 -0.240371 0.87308002
2.08073 -0.254168 0.876064
2.0783999 -0.26618701 0.87531698
2.0650301 -0.275314 0.87079298
2.0336699 -0.29165 0.855142
2.00827 -0.29229999 0.84176397
2.0390401 -0.29667899 0.84853798
2.01682 -0.29725 0.83751494
2.0265 -0.30222499 0.83357596
2.03896 -0.30627799 0.83297801
2.02001 -0.30932102 0.82318497
2.2121401 -0.59537703 4.5941601
2.2747099 -0.820342 4.40417
2.20557 -0.59323198 4.5883698
2.19174 -0.59746599 4.60847
2.1943099 -0.60703301 4.59654
2.27827 -0.81290901 4.3817997
2.2802401 -0.82122397 4.3791299
2.27705 -0.82820898 4.38204
2.1968699 -0.59059298 4.58427
2.1965799 -0.59937501 4.5797901
2.1882 -0.60671002 4.5843
2.27653 -0.81132698 4.3642998
2.2734101 -0.81960899 4.3724599
2.2751501 -0.82758003 4.3677702
2.1905701 -0.588736 4.5721397
2.18593 -0.59728998 4.56991
2.1807401 -0.60582501 4.5738597
2.2556 -0.79527199 4.3769197
2.2686601 -0.80667299 4.3550501
2.27004 -0.81749296 4.3546
2.2651801 -0.82587796 4.3636599
2.1821201 -0.58479601 4.5580502
2.1828899 -0.59522402 4.5494299
2.1789999 -0.60589099 4.55058
2.26103 -0.796157 4.35075
2.25911 -0.80396104 4.3531399
2.2604401 -0.81395501 4.3478298
2.2566099 -0.82361603 4.3516502
2.1852901 -0.57539797 4.5355101
2.17839 -0.58326101 4.5401096
2.1764998 -0.59508204 4.5387201
2.1738801 -0.60617697 4.5323
2.1677499 -0.613976 4.5395799
2.25318 -0.79467201 4.3400402
2.25407 -0.80365199 4.3415098
2.2499399 -0.81386596 4.3411999
2.24687 -0.82231694 4.34446
2.16887 -0.57029402 4.54352
2.1686301 -0.58099997 4.5350699
2.17014 -0.59298003 4.52736
2.1693201 -0.60477197 4.5174599
2.16679 -0.61577499 4.5145001
2.23961 -0.79157698 4.33811
2.24401 -0.80208606 4.33321
2.2405801 -0.81166703 4.3352098
2.2395201 -0.82003897 4.3362598
2.1663599 -0.59371299 4.51016
2.16204 -0.60515302 4.50561
2.15821 -0.61633098 4.5018601
2.1460199 -0.62217802 4.5197401
2.22809 -0.78935206 4.3337898
2.23405 -0.79864001 4.3273301
2.23262 -0.80822998 4.3278999
2.15644 -0.59495801 4.4993701
2.1554601 -0.605905 4.4920402
2.15488 -0.61654699 4.4868102
2.1521499 -0.62575299 4.4858499
2.20948 -0.78564298 4.3403697
2.2221899 -0.79692703 4.3228397
2.2211502 -0.80571097 4.3224702
2.1417799 -0.60265803 4.4938903
2.1463001 -0.61478901 4.48068
2.1461999 -0.62634701 4.4693999
2.13431 -0.63131696 4.4907398
2.2030299 -0.78397596 4.3301401
2.2069399 -0.79313105 4.3216701
2.21012 -0.80257601 4.3183804
2.1444099 -0.61700898 4.4581599
2.14449 -0.62717402 4.45047
2.14591 -0.63689399 4.44064
2.1946499 -0.78221101 4.3214097
2.20156 -0.79229403 4.3087101
2.19894 -0.80009103 4.31107
2.1331201 -0.61669499 4.4507198
2.13885 -0.62680197 4.4389701
2.13693 -0.63845801 4.4288802
2.18136 -0.777695 4.3179002
2.19063 -0.78978401 4.3034
2.1888399 -0.79863703 4.3041401
2.1315501 -0.628317 4.4238801
2.1342599 -0.64078903 4.41085
2.1303399 -0.65094 4.4110699
2.1264501 -0.66043901 4.4106102
2.1631401 -0.76417804 4.3290401
2.17536 -0.77584898 4.3066802
2.18223 -0.78781599 4.29491
2.18187 -0.79686093 4.2927198
2.11638 -0.626351 4.4235201
2.12532 -0.63870996 4.4054699
2.1249001 -0.64954698 4.4025798
2.12183 -0.65986502 4.4000602
2.1584899 -0.76248598 4.3172398
2.1636901 -0.77180499 4.3034601
2.1728399 -0.78493798 4.28825
2.16816 -0.79426301 4.2888503
2.1129501 -0.637362 4.4029698
2.1192901 -0.65032303 4.3881898
2.1208799 -0.66211301 4.3768001
2.1561501 -0.76139903 4.3001699
2.1612802 -0.77214104 4.2867298
2.1642101 -0.78460401 4.2776299
2.16732 -0.79519498 4.2678299
2.11045 -0.65019995 4.3770099
2.11128 -0.66039199 4.3728299
2.105 -0.66961896 4.3733997
2.1499701 -0.76068002 4.2876902
2.1540401 -0.77203101 4.2737799
