# .PCD v0.7 - Point Cloud Data file format
VERSION 0.7
FIELDS x y z
SIZE 4 4 4
TYPE F F F
COUNT 1 1 1
WIDTH 456
HEIGHT 1
VIEWPOINT 0 0 0 1 0 0 0
POINTS 456
DATA ascii
1.97044 -0.29761401 0.414125
1.96964 -0.29747802 0.40327394
1.9561 -0.282168 0.41363999
1.9555401 -0.268098 0.41468498
1.9689701 -0.25634199 0.40856797
1.98884 -0.24438101 0.40186691
1.9708501 -0.29848 0.39185393
1.9583 -0.28408802 0.40119493
1.95567 -0.26891601 0.40531898
1.9668499 -0.25665599 0.39870599
1.9835601 -0.24303199 0.39319092
1.9730901 -0.29872802 0.38007095
1.9600101 -0.28558099 0.39000693
1.9592199 -0.27030098 0.39216599
1.9647599 -0.25375199 0.38945794
1.98611 -0.24108499 0.38136092
1.9780099 -0.29912701 0.36680993
1.95732 -0.28289801 0.38091996
1.9556301 -0.26701 0.38358092
1.96275 -0.25545701 0.3793669
1.97611 -0.24348199 0.37474397
1.9816999 -0.29993901 0.35544997
1.9601899 -0.28393999 0.36792496
1.9635401 -0.27003402 0.36915597
1.9649299 -0.25545099 0.36813295
1.98024 -0.24648599 0.36005998
2.02948 -0.207084 0.34078994
1.95763 -0.28282201 0.35963997
1.96103 -0.26902801 0.35829994
1.96158 -0.253712 0.35969993
1.9812 -0.247052 0.34840995
2.0313401 -0.205722 0.32740998
1.95355 -0.279082 0.35058999
1.95894 -0.26739702 0.34645995
1.96426 -0.25516799 0.34772995
1.97614 -0.245906 0.34022996
2.0294099 -0.20629299 0.31630996
1.96267 -0.280047 0.33316994
1.96306 -0.26798099 0.33340997
1.96255 -0.2545 0.33682999
1.97508 -0.245584 0.33058
1.9600501 -0.28025699 0.32358992
1.9628501 -0.26939499 0.32284996
1.9625 -0.25629899 0.32626992
1.96771 -0.24523701 0.32388991
1.96455 -0.28132498 0.30992997
1.9678199 -0.26972401 0.30906999
1.96692 -0.256825 0.31318992
1.97224 -0.246419 0.30873993
1.9869 -0.247538 0.41310692
1.9585401 -0.285954 0.41199195
1.9613 -0.27340201 0.41115692
1.97629 -0.248483 0.40822396
1.98685 -0.309885 0.3824079
1.96698 -0.29168999 0.39566696
1.9644099 -0.27646101 0.40054795
1.9679899 -0.26107001 0.39993492
1.9864 -0.24745001 0.39279097
1.98849 -0.309531 0.37290993
1.96755 -0.29198 0.38516793
1.96298 -0.275096 0.39063492
1.96237 -0.25962099 0.39222497
1.9766001 -0.248913 0.38663292
1.9936999 -0.235356 0.38054696
1.96487 -0.29057699 0.37570494
1.9651899 -0.27693099 0.37779793
1.9610001 -0.259372 0.38340798
1.9817101 -0.24866699 0.37340194
1.9624699 -0.28892401 0.36647093
1.96041 -0.27700001 0.36883599
1.96777 -0.26224002 0.36771491
1.9827299 -0.248326 0.36151597
2.0478201 -0.234556 0.33186996
1.95344 -0.28474501 0.361168
1.9604201 -0.273996 0.35802993
1.9705701 -0.260665 0.35373992
1.97131 -0.248193 0.35546997
2.0342798 -0.241365 0.33081993
2.0594702 -0.237573 0.31847993
1.96055 -0.285411 0.34539995
1.96382 -0.27295199 0.34492996
1.9728999 -0.26052099 0.34089997
1.9736099 -0.24871999 0.34304991
1.9621401 -0.28650701 0.33183998
1.9608001 -0.27506599 0.33609992
1.96931 -0.26252702 0.33198997
1.9740199 -0.24856001 0.33175996
1.99292 -0.242164 0.32354996
1.96886 -0.288326 0.31642997
1.96512 -0.27494699 0.32250991
1.9690199 -0.261902 0.32188997
1.97104 -0.248575 0.32234994
1.9895101 -0.240266 0.31416991
1.9748199 -0.29042602 0.30166993
1.97103 -0.27733001 0.30740997
1.96954 -0.26099598 0.31136993
1.9863601 -0.23807199 0.30469993
1.97946 -0.305545 0.41255096
1.9723599 -0.30148399 0.40531692
1.9640801 -0.28440201 0.41167495
1.9725701 -0.257716 0.41255996
1.99237 -0.248234 0.40450591
1.97658 -0.30375499 0.39071891
1.9690499 -0.28779101 0.39792594
1.9681 -0.27260301 0.40178794
1.9717101 -0.25696301 0.40226394
1.99045 -0.244517 0.39463899
1.98598 -0.30769399 0.37564391
1.96943 -0.289121 0.38562295
1.96699 -0.27111799 0.39132994
1.9780201 -0.25539199 0.38812491
1.99234 -0.243251 0.38334891
1.98006 -0.30423599 0.36792696
1.96983 -0.28789601 0.37467897
1.9646699 -0.272787 0.38118592
1.9694501 -0.25759399 0.38058999
1.98884 -0.24522801 0.37335297
2.0504 -0.21806 0.34632996
1.98821 -0.306261 0.35301995
1.96843 -0.28704202 0.36519492
1.9669701 -0.27178201 0.36973992
1.9755 -0.25724101 0.36585197
1.9754 -0.244261 0.36849594
2.0509701 -0.24069099 0.33434999
2.04826 -0.21753901 0.33671996
1.96737 -0.28536502 0.35431993
1.9659899 -0.26983202 0.35836998
1.97032 -0.255667 0.35689995
1.97346 -0.24499901 0.35853997
2.04913 -0.21792001 0.32423997
1.97681 -0.287682 0.33678994
1.9674499 -0.27138799 0.34552994
1.9662399 -0.25651801 0.34948999
1.9718 -0.24534701 0.34728995
2.053 -0.24038799 0.31001991
2.0434599 -0.22638901 0.31579995
2.0486901 -0.21677099 0.31314996
1.96979 -0.27267599 0.33202994
1.96738 -0.256686 0.33790994
1.97774 -0.244379 0.33123994
2.03303 -0.23522499 0.30829993
1.97825 -0.28715599 0.31493995
1.96858 -0.27203 0.32244995
1.97136 -0.25796402 0.32342994
1.9847901 -0.244734 0.31633994
1.9706199 -0.27212098 0.31168991
1.97606 -0.25829801 0.30920997
1.9798399 -0.24330601 0.30823997
1.95644 -0.29069 0.41082397
1.9598399 -0.27937201 0.41136596
1.9731599 -0.26681602 0.40960893
1.994 -0.25558099 0.40211791
1.9552001 -0.28937799 0.40107292
1.95441 -0.27729902 0.40387794
1.96613 -0.26789102 0.40068299
1.98569 -0.257029 0.39421791
1.95972 -0.290999 0.38695297
1.95903 -0.278375 0.39226395
1.9694 -0.26650602 0.38853493
1.98944 -0.25572902 0.38119292
1.9620799 -0.29224199 0.37411392
1.9577099 -0.27724302 0.38175797
1.97177 -0.26582301 0.37577394
1.9908999 -0.25484502 0.37005898
1.9606199 -0.29128301 0.36332497
1.9571201 -0.27708998 0.3704209
1.9686501 -0.26671699 0.36522195
1.9785 -0.25411502 0.36427796
2.0445101 -0.25441998 0.33292991
1.96052 -0.29123399 0.35154992
1.96509 -0.27960899 0.35431993
1.9669501 -0.26400298 0.35597992
1.9797701 -0.256686 0.35172996
2.06055 -0.26010299 0.31510994
2.0482399 -0.24371201 0.32282996
1.9654601 -0.29439601 0.33733994
1.96547 -0.28106898 0.34183997
1.96521 -0.266058 0.34637994
1.9714301 -0.255193 0.34424996
2.0513299 -0.25642699 0.30964997
2.0518 -0.24493 0.30918992
2.03651 -0.226982 0.31970993
1.96492 -0.29434401 0.32734993
1.9661599 -0.28200901 0.32912993
1.9661 -0.26657498 0.33451995
1.9738499 -0.25611299 0.33029991
2.0427201 -0.25196898 0.30285996
2.0362301 -0.225447 0.30888993
1.96192 -0.29282498 0.31821999
1.96366 -0.280799 0.31973991
1.9709899 -0.26790601 0.31867996
1.9736501 -0.25451601 0.31965995
1.96523 -0.29417899 0.30517998
1.96657 -0.28178799 0.30740997
1.9727901 -0.267656 0.30480996
1.97997 -0.30750299 0.41535491
1.98428 -0.309369 0.39827096
1.95707 -0.292669 0.41897491
1.96281 -0.24930799 0.41636094
1.98431 -0.30905101 0.39086792
1.9630799 -0.29463899 0.40415299
1.94675 -0.277888 0.41594896
1.9558501 -0.26401699 0.41026193
1.96004 -0.25075302 0.40754196
1.97807 -0.23805599 0.40083092
1.98469 -0.30827299 0.38217697
1.9611 -0.29394501 0.39522493
1.9496001 -0.27838799 0.40381593
1.9530799 -0.26321501 0.40134498
1.96516 -0.249744 0.39592293
1.9778999 -0.235853 0.39055496
1.9621401 -0.292449 0.38379997
1.94864 -0.27687201 0.39298293
1.95241 -0.26152799 0.39230096
1.9688901 -0.24978299 0.38388497
1.98446 -0.238079 0.37606195
1.9629899 -0.290905 0.37116295
1.95713 -0.278543 0.37709296
1.95324 -0.26299199 0.38193497
1.9673101 -0.25052401 0.37375891
1.98324 -0.241143 0.36438599
1.96095 -0.29000899 0.36108994
1.9581599 -0.27830499 0.36531198
1.9542301 -0.26339501 0.37052193
1.9639599 -0.24989201 0.36428291
1.9852201 -0.241008 0.35250992
1.96726 -0.29157102 0.34708992
1.95779 -0.27846202 0.35423997
1.9530901 -0.26195201 0.35921997
1.9674499 -0.248606 0.35192993
1.9876699 -0.240767 0.34205994
1.9755299 -0.29297501 0.33302993
1.9587801 -0.27921301 0.34214997
1.9531701 -0.26376 0.34737992
1.95795 -0.24956301 0.34622994
1.97774 -0.24033301 0.33751991
1.97017 -0.291197 0.32496995
1.95576 -0.277529 0.33300996
1.9571401 -0.26467898 0.33439994
1.9536301 -0.250689 0.33818993
1.96673 -0.24075399 0.33118996
1.96156 -0.27889299 0.32004997
1.95829 -0.26568401 0.32400993
1.96421 -0.25210398 0.32157996
1.9695899 -0.24066 0.31681991
1.9605701 -0.27915999 0.30947998
1.9586999 -0.26471999 0.31360993
1.9646801 -0.25043899 0.30923995
1.9799401 -0.239121 0.30018997
1.9901401 -0.241469 0.41601196
1.9496001 -0.291623 0.41842192
1.98765 -0.24116899 0.40679193
1.9513401 -0.29204801 0.40690994
1.95021 -0.27989998 0.41122895
1.9502699 -0.26434299 0.41278398
1.96656 -0.254419 0.40420792
1.97817 -0.24047001 0.40083092
1.9537399 -0.29261899 0.39500198
1.9491099 -0.28121501 0.40086892
1.95248 -0.26679501 0.40080795
1.9602499 -0.251607 0.39766198
1.9825599 -0.24014699 0.38754997
1.9559399 -0.293367 0.38297394
1.94645 -0.27901599 0.39131698
1.95048 -0.26325598 0.39097297
1.9690601 -0.251863 0.38364494
1.97852 -0.241533 0.37854195
1.9580799 -0.294321 0.37199295
1.95301 -0.28209299 0.37579995
1.94705 -0.26660201 0.38218498
1.96018 -0.25346202 0.37669694
1.9800999 -0.24528 0.36530197
1.95416 -0.29255399 0.36363694
1.94804 -0.28040701 0.36833894
1.95381 -0.267663 0.36763397
1.9611 -0.25278899 0.36426499
1.9839 -0.245368 0.35226998
1.9660001 -0.29488099 0.34538993
1.95213 -0.27960899 0.35603997
1.9551101 -0.26394501 0.35587996
1.9594501 -0.25073701 0.35453996
1.9817901 -0.24470699 0.34361991
1.9660201 -0.295798 0.33399993
1.9545599 -0.281728 0.34269997
1.9536799 -0.266388 0.34544998
1.9566499 -0.252646 0.34630996
1.97677 -0.244986 0.33580995
1.96987 -0.29668102 0.32133996
1.95996 -0.28422701 0.32976997
1.9607 -0.26967502 0.32984993
1.95998 -0.25378299 0.33372992
1.9714199 -0.24327801 0.32635993
1.95979 -0.28318399 0.31950995
1.96478 -0.27002701 0.31619996
1.96646 -0.253829 0.3175199
1.9773101 -0.24047799 0.31310996
1.9634 -0.282581 0.30586997
1.9630499 -0.26628402 0.30720994
1.9636 -0.25226602 0.30822
1.9750199 -0.23969699 0.30335999
1.98163 -0.30780599 0.40780097
1.9814999 -0.24622899 0.41717193
1.9824201 -0.30844298 0.39778891
1.9637899 -0.29192901 0.41033494
1.9683701 -0.27748799 0.41066399
1.98449 -0.24648 0.40434295
1.98684 -0.309053 0.38618195
1.96595 -0.290663 0.39840996
1.95644 -0.27155 0.40620995
1.9646201 -0.25843599 0.40263498
1.9819299 -0.24865 0.39446494
1.9963499 -0.236797 0.38996094
1.9811599 -0.30630699 0.37952897
1.9627299 -0.288573 0.38861299
1.95904 -0.273215 0.39419693
1.96522 -0.258858 0.39157495
1.97893 -0.246391 0.38641998
1.95847 -0.28706601 0.38147599
1.95921 -0.27298 0.38194197
1.9714999 -0.259195 0.37866098
1.97964 -0.24677201 0.37579596
2.0374999 -0.21483201 0.35417992
1.95513 -0.283555 0.37144691
1.95395 -0.27148399 0.37381494
1.9631 -0.25977099 0.37119493
1.9652901 -0.24660999 0.36913994
1.95388 -0.282332 0.35974997
1.95304 -0.27051398 0.36448297
1.96258 -0.25749901 0.35896996
1.9778999 -0.248 0.35175994
2.0471001 -0.21552601 0.31785995
1.9599899 -0.28540701 0.34494996
1.95901 -0.27178201 0.34897995
1.9624801 -0.256805 0.34788993
1.99257 -0.24028999 0.33596992
2.04211 -0.215721 0.31288993
1.9709101 -0.28922501 0.32910997
1.9660801 -0.27656001 0.33352998
1.96377 -0.25996798 0.33630997
1.9665401 -0.245528 0.33839998
1.9851401 -0.23850201 0.32938996
1.9607201 -0.28507099 0.32422996
1.9586301 -0.27214599 0.32760993
1.9607899 -0.25843501 0.32611993
1.9664999 -0.245212 0.32772994
1.98355 -0.237644 0.31765991
1.9659599 -0.28607202 0.30887994
1.96055 -0.27289 0.31587997
1.9651899 -0.26063499 0.31313995
1.96864 -0.24602501 0.31426993
1.98211 -0.236516 0.30619994
1.9616799 -0.27244899 0.30344993
1.9611501 -0.25668299 0.30639991
1.9831799 -0.243977 0.41266099
1.9559101 -0.27663499 0.40990791
1.9566799 -0.263955 0.41216391
1.9676 -0.25227299 0.40737793
1.9883 -0.241789 0.40110093
1.9588699 -0.277821 0.39621094
1.9572301 -0.26486099 0.40138793
1.96346 -0.25308901 0.39800796
1.98281 -0.24158199 0.39194199
1.95498 -0.27708998 0.38657996
1.9612 -0.26677299 0.38794595
1.97035 -0.25397599 0.38396096
1.9774001 -0.240467 0.38400292
1.96006 -0.27906001 0.37376198
1.95916 -0.265977 0.37661994
1.9722199 -0.25608298 0.37210494
1.9718201 -0.24347 0.37409392
2.0573301 -0.242505 0.33354995
1.95618 -0.27693701 0.36506194
1.9586301 -0.26613101 0.36609894
1.9650301 -0.25443 0.36520898
1.9715101 -0.24335699 0.36194298
2.0685699 -0.24680099 0.31806991
2.04655 -0.22863199 0.33053994
2.03497 -0.21291599 0.33822998
1.96446 -0.280536 0.34827995
1.9635899 -0.26685199 0.35291994
1.9682699 -0.25311199 0.35227996
1.96944 -0.24191999 0.35268998
2.0524499 -0.24077401 0.31635994
2.0413699 -0.22515601 0.32158998
2.0272901 -0.209299 0.33096993
1.96964 -0.28345099 0.33532998
1.96746 -0.270789 0.33797997
1.96647 -0.25554299 0.34260994
1.97141 -0.244215 0.34078994
2.0430701 -0.23652701 0.30926993
2.0394001 -0.224271 0.31003997
1.96711 -0.28259599 0.32689995
1.96604 -0.27079299 0.32738999
1.9650199 -0.25597 0.33118996
1.9736501 -0.245425 0.32661995
1.9599 -0.27921599 0.31971991
1.9662499 -0.26908001 0.31716996
1.97571 -0.25759199 0.31376991
1.97743 -0.24413601 0.31327996
1.9613401 -0.278595 0.3066799
1.9686301 -0.268116 0.30556992
1.9695101 -0.25336701 0.30556992
1.97264 -0.30447999 0.41954696
1.97083 -0.302661 0.40947494
1.98151 -0.24401899 0.41466194
1.97252 -0.30357501 0.39630294
1.95523 -0.28257999 0.40877196
1.95946 -0.26796901 0.41118094
1.96839 -0.25323999 0.40746093
1.9879899 -0.241952 0.40160292
1.97138 -0.30304301 0.38560393
1.9639101 -0.28693199 0.39288598
1.96095 -0.26750499 0.39876097
1.9598 -0.250388 0.40118393
1.97539 -0.24125099 0.39603195
1.9779601 -0.305076 0.37243995
1.96039 -0.28547898 0.38369095
1.9618801 -0.26979798 0.38604698
1.9661099 -0.25286099 0.38788193
1.9858099 -0.24297599 0.38167694
1.96119 -0.28387299 0.37250298
1.9653701 -0.27276599 0.37361595
1.96937 -0.25745401 0.37310591
1.9705901 -0.242695 0.37691894
1.9638801 -0.282552 0.35855997
1.9633 -0.26877999 0.36368096
1.9689 -0.256134 0.36292693
1.9754699 -0.246898 0.36132699
2.0527499 -0.24583299 0.32698998
2.0524001 -0.23429801 0.32930991
1.9633 -0.282069 0.34695992
1.9642999 -0.26915002 0.35102996
1.9664999 -0.25512502 0.35427994
1.97952 -0.24750701 0.34712997
2.04407 -0.24356399 0.31943992
2.05775 -0.23841101 0.31391999
2.03565 -0.216344 0.33404991
1.96637 -0.28352401 0.33391997
1.9674001 -0.27112401 0.33764991
1.9678501 -0.25541902 0.34136993
1.9762199 -0.24587899 0.33799994
2.03933 -0.242543 0.31007996
2.05779 -0.239519 0.30136994
1.96655 -0.28417701 0.3225199
1.96998 -0.27287 0.32476997
1.9649299 -0.256154 0.33139992
1.9731101 -0.24436599 0.32879996
2.0297701 -0.240676 0.30286995
1.96796 -0.284587 0.31047997
1.96667 -0.27223399 0.31570992
1.9758999 -0.259161 0.31344995
1.99342 -0.245195 0.30747995
1.96419 -0.28334299 0.3007099
1.9669701 -0.27060401 0.30430993
1.9720399 -0.25715798 0.30432999
1.97978 -0.2448 0.30255997
