# .PCD v0.7 - Point Cloud Data file format
VERSION 0.7
FIELDS x y z
SIZE 4 4 4
TYPE F F F
COUNT 1 1 1
WIDTH 542
HEIGHT 1
VIEWPOINT 0 0 0 1 0 0 0
POINTS 542
DATA ascii
2.0430801 -0.229744 0.28614998
1.96621 -0.282175 0.29814994
1.9664501 -0.27134702 0.29928994
1.97049 -0.257945 0.29906997
1.97718 -0.246593 0.2941899
1.96459 -0.28090799 0.28933999
1.9634199 -0.26864901 0.29172996
1.97173 -0.256511 0.28756997
1.9853901 -0.24402399 0.28039992
1.96612 -0.28078401 0.28028992
1.96533 -0.268379 0.28224999
1.9767599 -0.25483999 0.27692994
1.99379 -0.241354 0.26910996
1.97289 -0.28995001 0.29132995
1.9689101 -0.277215 0.29721993
1.9710001 -0.264193 0.29950997
1.97655 -0.25026801 0.29743996
1.98638 -0.239352 0.29287994
1.9706799 -0.28945899 0.28174996
1.97001 -0.27779901 0.28533995
1.9678799 -0.262366 0.29051995
1.97545 -0.249025 0.28635994
1.9866099 -0.23956899 0.27980995
1.9697599 -0.28834802 0.27374992
1.9656501 -0.277096 0.27796996
1.96857 -0.26252702 0.27878997
1.98228 -0.249608 0.27170998
1.9806501 -0.23739 0.27313995
1.9646001 -0.274019 0.27108994
1.9716901 -0.25976899 0.26864997
1.9768699 -0.24682899 0.26673996
1.9896801 -0.23924299 0.26062995
1.9837199 -0.28890198 0.29977998
2.0062699 -0.234668 0.29819992
2.0322399 -0.225392 0.28492996
1.9794999 -0.28740901 0.28987992
1.97629 -0.25694799 0.29739997
1.98805 -0.24331899 0.29497993
2.0034599 -0.23166001 0.28719994
1.9812 -0.28856301 0.27704993
1.973 -0.27232799 0.28623992
1.96619 -0.254848 0.29191995
1.9854801 -0.24504101 0.28420997
1.99868 -0.233022 0.27745995
1.98558 -0.29054299 0.26316994
1.96937 -0.27340201 0.27673995
1.9751101 -0.259491 0.27630997
1.9860699 -0.244789 0.27158996
1.9988699 -0.23079799 0.26620996
1.98078 -0.28849 0.25437996
1.9767101 -0.275114 0.26195991
1.9795101 -0.259817 0.2616899
1.98443 -0.24374001 0.26050994
1.99374 -0.23106399 0.25695992
1.9878399 -0.29111901 0.24009995
1.97218 -0.273139 0.25313994
1.9766099 -0.25816098 0.25221992
1.988 -0.243599 0.24783997
1.99896 -0.230299 0.24542992
1.98603 -0.29054999 0.23296997
1.97238 -0.27256098 0.24383995
1.97789 -0.25676098 0.24288994
1.99072 -0.24499398 0.23792991
1.9975901 -0.22994 0.23750992
2.0510299 -0.24282499 0.28558999
2.04632 -0.24083099 0.27663994
2.03894 -0.22690301 0.28507996
1.96577 -0.29356 0.29363999
1.96253 -0.278373 0.29855996
1.9783701 -0.269743 0.29022995
1.9807 -0.254985 0.29407996
1.9684801 -0.294765 0.27911994
1.9639701 -0.279971 0.28670996
1.97297 -0.26903 0.28216994
1.9884399 -0.25637302 0.27775994
1.9744999 -0.29726499 0.26339996
1.9660201 -0.28108001 0.27386993
1.9753799 -0.26809901 0.27035996
1.98543 -0.255344 0.26683998
1.9779401 -0.2992 0.24934998
1.97056 -0.28184798 0.25880995
1.9763401 -0.26568002 0.25852996
1.99142 -0.25411698 0.25358993
2.00912 -0.24306999 0.24702996
1.9795899 -0.29990199 0.23649994
1.9776801 -0.287209 0.24249992
1.9774499 -0.270307 0.24509995
1.9802901 -0.2538 0.24832992
2.0021801 -0.245483 0.23837997
1.9761 -0.284641 0.23185997
1.98528 -0.27267 0.22978996
1.98506 -0.25598699 0.23357993
2.0046 -0.24355301 0.22479996
1.9912601 -0.30539101 0.20701995
1.9792399 -0.28678301 0.21823998
1.97849 -0.26954001 0.22394997
1.9867599 -0.254614 0.22123992
1.99927 -0.24242201 0.21624993
1.994 -0.30714899 0.19731994
1.9802201 -0.28856799 0.20857994
1.9817599 -0.270917 0.21236992
1.9880099 -0.25279701 0.21209991
1.9995199 -0.238966 0.20919998
1.9774499 -0.292918 0.29774994
1.9753799 -0.292016 0.28828993
1.962 -0.280202 0.29825997
1.9603599 -0.264568 0.29999992
1.96586 -0.24833299 0.29746994
1.99043 -0.234835 0.28500992
1.97712 -0.291475 0.27769998
1.96099 -0.27824199 0.28816995
1.96269 -0.26548499 0.28749993
1.9623899 -0.25226 0.28830993
1.9697701 -0.23829299 0.28495994
1.95412 -0.276829 0.28155997
1.95821 -0.26468 0.27967995
1.9660499 -0.250341 0.27518997
1.9808999 -0.23494101 0.26776993
1.9599899 -0.27482098 0.26606995
1.9585899 -0.26155502 0.26849997
1.96724 -0.24879101 0.26274994
1.97075 -0.23767701 0.26210999
2.01267 -0.22073799 0.24229996
1.9936399 -0.29337901 0.22993995
1.97023 -0.27816701 0.24673995
1.9642501 -0.26304701 0.25338995
1.97286 -0.24998699 0.24814995
1.96733 -0.238305 0.25382996
2.0121801 -0.22018299 0.22812995
1.9917301 -0.29309201 0.22239998
1.97334 -0.28008401 0.23467995
1.96609 -0.266913 0.24149995
1.96667 -0.25213599 0.24121994
1.97743 -0.236204 0.23614998
2.0014999 -0.22152901 0.22126991
1.96857 -0.27778998 0.22666992
1.96692 -0.26553601 0.23036996
1.97267 -0.249346 0.22584991
1.9848199 -0.23398501 0.21998993
1.9937601 -0.22035199 0.21494995
2.0148101 -0.21020299 0.20545998
1.97175 -0.27728999 0.21186997
1.9683501 -0.26359698 0.21687996
1.96841 -0.24878901 0.21660995
1.9762199 -0.23645501 0.21443993
1.98568 -0.22308201 0.20922996
2.0107899 -0.21010099 0.19595993
1.9818699 -0.28250799 0.19505997
1.96883 -0.26517701 0.20456994
1.9633299 -0.25058901 0.21004997
1.9736099 -0.236615 0.20469993
1.98982 -0.22177799 0.19529991
2.01279 -0.20907101 0.18212998
1.9785899 -0.28015301 0.18570991
1.97158 -0.26570201 0.19136994
1.96649 -0.25000098 0.19743995
1.97965 -0.23534299 0.18916993
2.00034 -0.221872 0.17735992
1.98009 -0.27776599 0.17141998
1.97614 -0.26591101 0.17659996
1.9773599 -0.25014699 0.17852996
1.98295 -0.234422 0.17628998
2.0023301 -0.22229299 0.16447999
1.9793899 -0.27768001 0.15980995
1.97763 -0.266085 0.16371994
1.9719501 -0.25202999 0.17018998
1.9803599 -0.23652001 0.16584991
2.00705 -0.22263201 0.14959991
1.97866 -0.27774 0.14965996
1.98123 -0.26695499 0.14897995
1.9768201 -0.25152099 0.15561996
1.99159 -0.236009 0.14565994
2.0081 -0.221435 0.13805991
1.98032 -0.27730599 0.13746995
1.97954 -0.266323 0.13919999
1.9852901 -0.25214702 0.13677993
1.98335 -0.236091 0.13936996
2.0088499 -0.22386999 0.12538993
1.97901 -0.27684602 0.12550995
1.9784399 -0.265643 0.12939996
1.9823101 -0.251784 0.12535995
1.9852699 -0.23651199 0.12782997
2.01366 -0.223847 0.10992996
1.98153 -0.25150901 0.11327995
1.9891701 -0.23660299 0.11301994
2.01126 -0.222957 0.099129945
1.9763401 -0.26552099 0.10634995
1.9843899 -0.25259301 0.099079974
1.9866 -0.23567301 0.10159996
1.9753101 -0.26584601 0.094769977
1.9799401 -0.25387299 0.090289921
1.98325 -0.239033 0.090139925
1.9781599 -0.29791099 0.29403991
1.97978 -0.298601 0.28161994
1.9637899 -0.28366801 0.29385993
1.96263 -0.26942199 0.29745996
1.96652 -0.253272 0.29556993
1.97229 -0.237772 0.29301995
2.0011201 -0.22859 0.27975997
1.9802901 -0.29841 0.27037993
1.9645101 -0.283786 0.28220993
1.95959 -0.268253 0.28836998
1.9641 -0.25310001 0.28441992
1.9703599 -0.239801 0.28440994
1.9889101 -0.228645 0.27494994
1.98 -0.297497 0.26050994
1.96466 -0.283355 0.27110994
1.96035 -0.26818001 0.27651992
1.9639101 -0.25328299 0.27297997
1.9674201 -0.23814699 0.27538994
1.99263 -0.22746201 0.26091996
1.98911 -0.30012101 0.23860992
1.96404 -0.28217301 0.26035994
1.96496 -0.26897299 0.26258996
1.96754 -0.25487101 0.26025993
1.9711099 -0.239399 0.26103997
1.99134 -0.228451 0.24950996
2.0093501 -0.219202 0.24112992
1.9890199 -0.299586 0.23095994
1.96817 -0.28372601 0.24516998
1.96453 -0.26756701 0.25092995
1.9624499 -0.25107598 0.25401992
1.97648 -0.23881 0.24650994
1.9894201 -0.22642401 0.23996994
2.0086701 -0.21810301 0.22922997
1.99586 -0.30236 0.21061997
1.96869 -0.28348401 0.23423997
1.9637399 -0.26860902 0.23906998
1.9696801 -0.25276399 0.23829994
1.97964 -0.23746401 0.23327996
1.9875599 -0.22451599 0.22983994
2.0034199 -0.216718 0.22158997
1.9968201 -0.30226001 0.20201996
1.97486 -0.285943 0.21776992
1.96823 -0.26996699 0.22496994
1.9639701 -0.254895 0.23016998
1.9714799 -0.24095899 0.22626992
1.9764999 -0.22586299 0.22455993
1.9964501 -0.21662599 0.21422997
1.9943401 -0.30139199 0.19463997
1.97377 -0.28597298 0.20781998
1.97156 -0.270899 0.21140991
1.9641099 -0.253573 0.21928993
1.97218 -0.23834699 0.21390991
1.9784801 -0.224383 0.21281998
1.98703 -0.21527599 0.20669998
1.97243 -0.28480399 0.19840996
1.97066 -0.27078199 0.19950996
1.9610001 -0.25274402 0.20933998
1.9698501 -0.239548 0.20305993
1.9730099 -0.22445299 0.20372993
1.99049 -0.21571301 0.19260994
1.97233 -0.281331 0.18543991
1.9747 -0.26905099 0.18534996
1.96277 -0.252864 0.19647995
1.9686799 -0.23698699 0.19269997
1.97501 -0.22312401 0.19165993
1.9905601 -0.21548 0.18106994
1.9832201 -0.28318599 0.16566993
1.9719901 -0.269122 0.17586999
1.96903 -0.25368899 0.18106994
1.97658 -0.23979099 0.17506996
1.97812 -0.22479799 0.17827995
1.99668 -0.216261 0.16587998
1.98677 -0.28459299 0.15143996
1.9752901 -0.27051699 0.16175994
1.97308 -0.255263 0.16653992
1.97781 -0.24131399 0.16275993
1.98543 -0.226808 0.16125992
2.0101402 -0.215527 0.14591995
1.9905901 -0.28544798 0.13756996
1.97403 -0.27137101 0.15144996
1.97611 -0.255844 0.15165992
1.9815199 -0.23946501 0.15115997
1.98911 -0.22569001 0.14730996
2.0114501 -0.21492 0.13400993
1.98347 -0.283252 0.12986992
1.97614 -0.27056801 0.13881996
1.9805 -0.256547 0.13528992
1.97904 -0.240005 0.14107995
1.9944999 -0.226982 0.13171998
2.01173 -0.21501601 0.12167992
1.98431 -0.28347099 0.11670998
1.9763299 -0.26960301 0.12596993
1.9789901 -0.25627002 0.12564994
1.98208 -0.241688 0.12602997
1.9974899 -0.22692499 0.11732994
1.9768201 -0.27050799 0.11301994
1.97663 -0.25563899 0.11709991
1.9875101 -0.241008 0.10930992
2.0028701 -0.225861 0.10216995
1.9763499 -0.25570402 0.10474999
1.98388 -0.242505 0.098909914
1.9919299 -0.228504 0.095959932
1.9811701 -0.23942199 0.090229951
2.04602 -0.225851 0.28924996
1.9725101 -0.288243 0.29317993
1.97632 -0.24597999 0.29860991
1.9916999 -0.234732 0.28999993
1.97684 -0.28985399 0.27917993
1.96512 -0.27452999 0.28933999
1.96909 -0.25912902 0.29063997
1.97926 -0.24453501 0.28566992
1.9935899 -0.232325 0.27911994
1.9751199 -0.29005501 0.26872993
1.9674201 -0.27583998 0.27652991
1.96571 -0.26162001 0.28111991
1.97224 -0.24764299 0.27856994
1.98588 -0.234238 0.27242997
1.9784399 -0.29124099 0.25658998
1.97317 -0.277922 0.26117995
1.9652499 -0.26051 0.27037993
1.97475 -0.24617201 0.26589996
1.98777 -0.23247299 0.26025993
2.0046499 -0.22063299 0.25092995
1.97474 -0.28951001 0.24787994
1.9671201 -0.27583799 0.25413993
1.9691499 -0.26065299 0.25540993
1.9760201 -0.244256 0.25502998
1.9869 -0.231947 0.24923997
2.00405 -0.22124599 0.23997994
1.98593 -0.29221401 0.22890991
1.96556 -0.27467901 0.24481994
1.97578 -0.26212901 0.23862991
1.97252 -0.244578 0.24574997
1.98562 -0.230774 0.23806992
2.00916 -0.21907699 0.22776993
1.9845101 -0.29207799 0.21710998
1.9717 -0.27558902 0.22855996
1.9689101 -0.25864899 0.23135994
1.9739101 -0.244836 0.23281997
1.9805701 -0.231012 0.22842994
1.99063 -0.21824899 0.22689995
1.9800301 -0.29078501 0.20810997
1.97517 -0.27767 0.21411996
1.97435 -0.26167402 0.21726997
1.9722999 -0.24374001 0.22171997
1.9757899 -0.22990601 0.22120994
1.98465 -0.21840799 0.21876991
1.98847 -0.29238999 0.19280998
1.9729401 -0.27679002 0.20381996
1.9717 -0.261958 0.20706993
1.9761901 -0.24653 0.20736992
1.97513 -0.22984101 0.21182999
1.9957401 -0.21872 0.19985992
2.01827 -0.20892701 0.18706994
1.9714799 -0.275049 0.19325997
1.9758501 -0.263156 0.19302994
1.97084 -0.246794 0.19906998
1.97804 -0.23162399 0.19727997
1.98851 -0.218162 0.19199997
1.9769701 -0.27472001 0.17737991
1.9700999 -0.261852 0.18545997
1.97611 -0.246714 0.18375991
1.9808999 -0.22989701 0.18438995
1.99815 -0.21843299 0.17504998
1.98035 -0.27438602 0.16311997
1.9774201 -0.26210099 0.16962998
1.98243 -0.24763501 0.16631997
1.98772 -0.23252501 0.16870995
2.0025201 -0.21986799 0.16053993
1.98281 -0.262575 0.15343994
1.98712 -0.24808599 0.15204994
1.98593 -0.232335 0.15751991
2.00207 -0.22002301 0.14852996
1.98341 -0.27609 0.13659996
1.98423 -0.26438001 0.13990997
1.9814399 -0.249309 0.14499992
1.99035 -0.23457399 0.14198998
2.0051899 -0.22038901 0.13427994
1.9808501 -0.26479098 0.13039993
1.98426 -0.249286 0.13059998
1.98862 -0.23179799 0.13173996
2.0094001 -0.221588 0.11943993
1.98183 -0.26455399 0.11749993
1.9918 -0.23383699 0.11781998
2.0055399 -0.221175 0.10975998
1.9904699 -0.23376101 0.10609993
2.00934 -0.22210199 0.09504997
1.9835 -0.25082898 0.093179934
1.99255 -0.235562 0.091429979
2.0422599 -0.22617599 0.28649995
1.99072 -0.24222799 0.29711998
2.0330901 -0.225943 0.27854997
1.9667701 -0.28114998 0.29022995
1.96427 -0.26675901 0.29612991
1.9663 -0.25320899 0.29670998
1.9777499 -0.241732 0.29279992
2.00825 -0.23354299 0.27948996
1.96636 -0.28270999 0.27846992
1.9636199 -0.26866901 0.28355995
1.9710801 -0.25413501 0.28351998
1.98668 -0.24094601 0.27735993
2.0107 -0.23121999 0.26639992
1.97082 -0.28469801 0.26570991
1.9683599 -0.27231702 0.26925996
1.96709 -0.25535601 0.27243996
1.9743201 -0.24080901 0.27304992
1.99554 -0.23148599 0.26284996
1.96937 -0.28270501 0.25571999
1.9632499 -0.26769501 0.26195991
1.9743201 -0.25587299 0.25623992
1.9758 -0.24063101 0.26120993
1.9949899 -0.22947201 0.25174996
1.9671 -0.28205901 0.24388993
1.96973 -0.269575 0.24635994
1.97541 -0.25517699 0.24465996
1.9772501 -0.23974001 0.24891998
2.0012 -0.229836 0.23583992
1.9706199 -0.28393599 0.22994995
1.97097 -0.27275801 0.23407997
1.97498 -0.257741 0.23319992
1.98233 -0.241824 0.23408997
1.9942501 -0.22993499 0.22728996
2.0157201 -0.21995001 0.21830994
1.9684199 -0.28249902 0.21945992
1.97175 -0.27196699 0.22240998
1.97831 -0.258376 0.21843994
1.98367 -0.24219102 0.22035995
1.99752 -0.22801201 0.21478996
2.01794 -0.21778299 0.20590995
1.97383 -0.28453401 0.20393997
1.9754801 -0.27188101 0.20783997
1.9780999 -0.258223 0.20816994
1.98212 -0.24485099 0.20849998
1.98702 -0.229424 0.20861992
2.00281 -0.21724199 0.20186996
1.97487 -0.285312 0.19109993
1.9746001 -0.272475 0.19552994
1.97571 -0.25613999 0.19938995
1.9778999 -0.240051 0.20125991
1.9945199 -0.229745 0.19285995
2.0070701 -0.21674401 0.18770996
1.98185 -0.287902 0.17490998
1.97829 -0.27428401 0.18098992
1.9766001 -0.25759101 0.18609993
1.98437 -0.242617 0.18632996
1.9969001 -0.22993 0.17968994
1.9914999 -0.291457 0.15694992
1.9818699 -0.27593201 0.16691993
1.9838201 -0.260856 0.16948998
1.98601 -0.243948 0.17301995
1.99737 -0.23018101 0.16699997
1.9850301 -0.27714598 0.15319993
1.97954 -0.260995 0.16082993
1.9868 -0.24541999 0.15924996
2.0000999 -0.230105 0.15229996
1.9857401 -0.276467 0.14092995
1.98186 -0.260196 0.14827995
1.9876801 -0.244311 0.14579993
1.99543 -0.23090701 0.14214997
1.9852099 -0.27489001 0.12913994
1.98136 -0.258526 0.13574997
1.98546 -0.242486 0.13598992
1.9987301 -0.23142999 0.12905999
2.0137501 -0.22072399 0.12126991
1.98588 -0.27454901 0.11563995
1.98871 -0.24611799 0.12154991
2.00123 -0.23233801 0.11515991
2.01385 -0.21930599 0.11007996
1.9827 -0.260048 0.11075997
1.9996099 -0.231131 0.10416992
2.0573101 -0.239076 0.28991997
2.0559101 -0.23733999 0.28122994
1.97039 -0.28666699 0.28663993
1.96943 -0.27319801 0.28969994
1.9709599 -0.256883 0.29453996
1.98711 -0.24514799 0.28731996
2.04493 -0.230564 0.26160994
1.9659899 -0.28384301 0.27799997
1.96558 -0.271079 0.28087997
1.9727901 -0.25691602 0.28032997
1.99095 -0.24352199 0.2736299
1.9779601 -0.28878501 0.25830993
1.96632 -0.26990402 0.26950997
1.97071 -0.25488001 0.26935998
1.9773599 -0.24229601 0.27002999
2.0007401 -0.234069 0.25866997
2.0301101 -0.22806299 0.24714996
1.97685 -0.28898999 0.24635994
1.97147 -0.27349702 0.2537699
1.9724801 -0.256726 0.25720993
1.9745599 -0.24048799 0.26055992
1.9987301 -0.233312 0.24773994
1.98087 -0.29085699 0.23212998
1.9718 -0.273983 0.24155998
1.9732801 -0.25802201 0.24468994
1.9809101 -0.241891 0.24462998
2.00141 -0.230224 0.23617996
1.9764301 -0.28906098 0.22267997
1.97698 -0.27662301 0.22678994
1.9805 -0.26190099 0.22871993
1.9769299 -0.243521 0.23477997
1.99428 -0.23173401 0.22666992
2.01964 -0.22154599 0.21831994
1.9850501 -0.29294598 0.20560998
1.97674 -0.276651 0.21525994
1.97866 -0.262514 0.21877998
1.98241 -0.24607599 0.21946998
1.98764 -0.230194 0.21744995
2.01421 -0.220568 0.20705993
1.98421 -0.29233199 0.19440994
1.9787199 -0.27733499 0.20221992
1.97498 -0.25955498 0.21010993
1.98325 -0.244829 0.20670998
1.9944299 -0.231297 0.20260994
2.0034499 -0.21797399 0.19969994
1.99406 -0.295739 0.17794998
1.98002 -0.277253 0.18952996
1.97795 -0.26020399 0.19622993
1.9824699 -0.24361601 0.19534996
1.99103 -0.22948401 0.19299996
2.0085299 -0.218876 0.18560997
1.9822301 -0.27696198 0.17604996
1.9761901 -0.258205 0.18439995
1.98195 -0.241974 0.18493995
1.99265 -0.229959 0.18046997
2.0113099 -0.219797 0.17198998
1.99474 -0.28102699 0.15620995
1.98497 -0.26302001 0.16486992
1.98781 -0.246264 0.16964996
1.99523 -0.231425 0.16677994
2.01035 -0.219256 0.16051994
1.98498 -0.26112199 0.15272994
1.9863601 -0.24603599 0.15798996
2.0001099 -0.233512 0.15152992
1.988 -0.27686301 0.13449997
1.9883299 -0.26385099 0.13887993
1.99345 -0.24906099 0.14126991
2.0004499 -0.23400199 0.13868995
1.9886301 -0.27750599 0.12169998
1.98369 -0.26376599 0.12993996
1.9904801 -0.249643 0.12963997
1.99939 -0.23371701 0.12655999
2.0142999 -0.22121599 0.12083992
1.9819701 -0.261917 0.11984993
1.9858099 -0.24654499 0.11952996
2.0016601 -0.23455 0.11251991
2.0135698 -0.221081 0.10871994
1.98164 -0.26140201 0.10761993
1.99888 -0.23337001 0.10157997
1.9830099 -0.262119 0.094139941
