# .PCD v0.7 - Point Cloud Data file format
VERSION 0.7
FIELDS x y z
SIZE 4 4 4
TYPE F F F
COUNT 1 1 1
WIDTH 1567
HEIGHT 1
VIEWPOINT 0 0 0 1 0 0 0
POINTS 1567
DATA ascii
1.94683 -0.23825701 1.062634
1.92327 -0.24644101 1.056716
1.95092 -0.24002101 1.053697
1.9634199 -0.22787201 1.054251
1.9703 -0.36651799 1.0347329
1.9300599 -0.30457699 1.044364
1.9171201 -0.28000602 1.0465389
1.9181399 -0.26201001 1.0484589
1.94616 -0.23933099 1.045235
1.94102 -0.30935401 1.0345529
1.9238901 -0.28607699 1.0386649
1.92673 -0.26784402 1.0384959
1.9554 -0.229689 1.036773
1.94375 -0.31257999 1.0249469
1.93049 -0.28763801 1.0279069
1.93349 -0.269225 1.0277109
1.94164 -0.32571203 1.017009
1.9400001 -0.307675 1.016479
1.92774 -0.28586999 1.017892
1.9325399 -0.27139401 1.0191
1.92873 -0.25251698 1.0208279
1.93941 -0.32161099 1.007579
1.9311 -0.30202299 1.008698
1.92558 -0.28450099 1.0097319
1.92687 -0.27114901 1.0116659
1.9338601 -0.25790301 1.0107349
1.9371699 -0.31958801 0.99701291
1.9327 -0.30611098 1.0000539
1.92865 -0.28943399 1.0007529
1.92779 -0.27082598 1.0023209
1.93542 -0.25511301 1.0011369
1.94142 -0.32095701 0.987652
1.93007 -0.304737 0.99101293
1.9227099 -0.28430402 0.99201095
1.92948 -0.266911 0.99260795
1.94086 -0.254765 0.99164695
1.9431399 -0.241713 0.99048096
1.92198 -0.28628099 0.98231596
1.93459 -0.25371999 0.98379898
1.94323 -0.23966999 0.98273796
1.9158701 -0.28251201 0.97505796
1.91983 -0.26840401 0.97479194
1.92779 -0.255404 0.97491294
1.94426 -0.241814 0.97294801
1.91778 -0.28014001 0.9662779
1.9225399 -0.26621401 0.96696001
1.9563401 -0.24221501 0.96057397
1.9708 -0.232491 0.95799196
1.9216499 -0.28381202 0.95590699
1.93273 -0.254531 0.95421892
1.97083 -0.23399599 0.94940597
1.92487 -0.28623801 0.94568896
1.96978 -0.23541901 0.93937898
1.94415 -0.32484901 0.92925489
1.9373 -0.307392 0.932661
1.9324299 -0.29076201 0.93577993
1.93207 -0.27445701 0.93633997
1.94953 -0.327234 0.9194029
1.94218 -0.30992401 0.92229688
1.93256 -0.289722 0.92710096
1.9313999 -0.270531 0.92636597
1.95549 -0.22761899 0.92482895
1.9610699 -0.33027899 0.90728396
1.9437699 -0.31148601 0.91229296
1.9332601 -0.29013902 0.91651994
1.93652 -0.27302501 0.91458392
1.9545101 -0.32580501 0.89935195
1.93705 -0.30501401 0.90499598
1.9347701 -0.28787801 0.90667099
1.93407 -0.27243298 0.90562594
1.93571 -0.25629199 0.90775597
1.9500901 -0.32391798 0.88982892
1.9429899 -0.30938801 0.89434397
1.9329 -0.288625 0.89734596
1.93673 -0.27382901 0.89716196
1.93396 -0.25677201 0.89841688
1.9526199 -0.32584998 0.87929499
1.94129 -0.30819902 0.88476789
1.9289 -0.28682601 0.88835394
1.93495 -0.273092 0.88948393
1.93282 -0.25585699 0.88851392
1.95544 -0.327627 0.86984301
1.9424601 -0.31099302 0.87433195
1.93102 -0.290968 0.87854493
1.9306901 -0.272522 0.88041598
1.9541 -0.32567102 0.860811
1.9329801 -0.303655 0.86758894
1.92702 -0.2845 0.87092191
1.92998 -0.26965401 0.87199599
1.95487 -0.24798501 0.86512595
1.94886 -0.32421798 0.85273302
1.9376601 -0.30726701 0.85677493
1.93176 -0.28832701 0.85978502
1.93339 -0.271667 0.86222494
1.94349 -0.25864699 0.85915595
1.95929 -0.246875 0.85533494
1.94888 -0.32505 0.84601897
1.94436 -0.31165099 0.84770292
1.9338901 -0.27203801 0.85221392
1.9520301 -0.25922599 0.84822893
1.9613099 -0.245079 0.84671801
1.9262199 -0.31316298 0.79730392
1.9330299 -0.30300301 0.79660898
1.9276401 -0.28602999 0.79970288
1.93162 -0.27357399 0.79926497
1.96229 -0.33029097 0.77835393
1.9460601 -0.31164101 0.78480095
1.9411099 -0.29376101 0.78874999
1.94414 -0.279318 0.78962493
1.9523599 -0.26721501 0.78664798
1.9741 -0.258598 0.77941298
1.95849 -0.328807 0.77201098
1.9478301 -0.313357 0.77522993
1.94286 -0.29686701 0.77892196
1.94593 -0.279948 0.78041291
1.95935 -0.26669398 0.776263
1.9755701 -0.257451 0.77156591
1.98385 -0.24896099 0.77004987
1.9600301 -0.32916501 0.7615329
1.9433701 -0.30909801 0.76802289
1.9413699 -0.292319 0.77124387
1.9505299 -0.27965999 0.76899201
1.96172 -0.26625001 0.76626098
1.96576 -0.33264899 0.75006503
1.9532601 -0.31583101 0.75491995
1.94625 -0.29602301 0.75938094
1.94996 -0.279129 0.75916892
1.94249 -0.29215801 0.75122696
1.9258599 -0.299669 1.137049
1.92952 -0.303343 1.127502
1.9330499 -0.266855 1.1305289
1.9272701 -0.30149201 1.1181899
1.92623 -0.283786 1.120145
1.92848 -0.266408 1.122242
1.9302001 -0.249854 1.1212469
1.93431 -0.32097098 1.1094559
1.93161 -0.30561399 1.109295
1.92651 -0.285916 1.110479
1.9299099 -0.26703599 1.1112579
1.9317399 -0.31678802 1.0994509
1.9244599 -0.29842898 1.1009539
1.92439 -0.28028899 1.1018579
1.9246299 -0.26456299 1.1024261
1.9320599 -0.25142899 1.1018349
1.9368401 -0.31886998 1.0891269
1.9311 -0.30397302 1.090578
1.9264599 -0.285395 1.09223
1.92422 -0.264907 1.0930829
1.94055 -0.25290501 1.090835
1.92942 -0.29983199 1.0820549
1.9203501 -0.279594 1.084865
1.9407201 -0.255815 1.081484
1.94022 -0.23719101 1.0831059
1.92799 -0.300704 1.072623
1.9236599 -0.28197598 1.0757939
1.9319501 -0.26888099 1.073736
1.9413201 -0.256742 1.072036
1.9485699 -0.24330001 1.0722969
1.9296601 -0.30327299 1.062596
1.93062 -0.28571302 1.0654869
1.9341999 -0.26953802 1.0642059
1.94279 -0.255505 1.063486
1.9524001 -0.24192801 1.0625249
1.9931799 -0.22835301 1.05625
1.93452 -0.30795401 1.052501
1.9273399 -0.28534701 1.055593
1.9371899 -0.26999101 1.0543759
1.94426 -0.25479299 1.0541719
1.9591099 -0.24225201 1.0519179
1.93104 -0.319929 1.0427489
1.92918 -0.301119 1.0450469
1.92711 -0.28251401 1.0452939
1.93601 -0.267986 1.0460709
1.94696 -0.25590098 1.0441029
1.9550101 -0.24136801 1.042493
1.98452 -0.23718399 1.04096
1.93634 -0.32598701 1.0318489
1.92676 -0.300877 1.0351659
1.92136 -0.28145999 1.0374119
1.93564 -0.27028701 1.03651
1.94468 -0.25412902 1.0342029
1.9580901 -0.24190901 1.033324
1.9760001 -0.233128 1.0340099
1.9320799 -0.319904 1.0236409
1.92541 -0.29970801 1.025421
1.9224499 -0.28206801 1.029104
1.9313999 -0.26784599 1.027059
1.93187 -0.323302 1.0150589
1.93042 -0.30550399 1.0155969
1.92715 -0.284408 1.0179089
1.93419 -0.32299 1.004861
1.92571 -0.29860699 1.00722
1.9213201 -0.277964 1.009426
1.92459 -0.26423901 1.00962
1.93127 -0.25065398 1.0086119
1.9361099 -0.326563 0.99447095
1.9258901 -0.30330402 0.99659789
1.92599 -0.28340599 0.99893296
1.9258299 -0.265434 1.001213
1.9360601 -0.25358 0.99760193
1.9474001 -0.34284002 0.98331994
1.9251801 -0.28654701 0.98915595
1.92888 -0.268736 0.99032992
1.9349 -0.25455499 0.98865098
1.9445399 -0.244212 0.98813599
1.9224601 -0.282352 0.98073
1.9398199 -0.255106 0.97928298
1.91892 -0.29860201 0.97103196
1.92114 -0.27957299 0.97100395
1.93627 -0.26780501 0.97053891
1.9464301 -0.25733101 0.96869195
1.92027 -0.29617399 0.96104097
1.9370599 -0.26956201 0.95999998
1.9498399 -0.25819299 0.95856291
1.92193 -0.281203 0.95359594
1.9303399 -0.266835 0.9505049
1.9501899 -0.25917399 0.94881094
1.9279699 -0.300248 0.93908197
1.92156 -0.27994499 0.9432779
1.9465899 -0.257431 0.94008994
1.96455 -0.25276801 0.93864495
1.9441701 -0.33654299 0.92303795
1.93887 -0.32419899 0.92708892
1.92388 -0.30077201 0.93062592
1.9248599 -0.28301299 0.932603
1.9635299 -0.34832299 0.9046849
1.93414 -0.31900999 0.91855502
1.92821 -0.30036199 0.92005295
1.9250901 -0.28312099 0.92302293
1.96289 -0.34802398 0.89774096
1.9425999 -0.32547799 0.90569496
1.92939 -0.30277398 0.91097695
1.9259801 -0.28321302 0.9131279
1.9441701 -0.23947001 0.91273588
1.9622099 -0.34815899 0.88917494
1.9456199 -0.32765901 0.89582598
1.9350799 -0.307675 0.90060496
1.92647 -0.28501901 0.90277594
1.95912 -0.347121 0.88033795
1.95066 -0.33085099 0.88532495
1.93164 -0.30425301 0.89101702
1.92591 -0.282296 0.89331698
1.9637399 -0.34886101 0.870233
1.94554 -0.32666999 0.87620896
1.9309599 -0.30195001 0.880813
1.9247301 -0.28265899 0.88493097
1.9523801 -0.342664 0.86327899
1.94067 -0.32376099 0.86721796
1.9341 -0.305345 0.87095696
1.92178 -0.282076 0.87609893
1.9531599 -0.34402502 0.85215592
1.94235 -0.325398 0.85748994
1.93128 -0.30568898 0.86289096
1.93258 -0.28934601 0.86378098
1.9363099 -0.271617 0.86474091
1.95841 -0.263513 0.85849196
1.96808 -0.24925101 0.85695791
1.9524601 -0.343907 0.84427398
1.9406799 -0.325481 0.84830993
1.92962 -0.30229199 0.85405087
1.9279201 -0.28282401 0.85656095
1.9437399 -0.272513 0.85287595
1.9355999 -0.335641 0.84211087
1.93864 -0.323814 0.84186292
1.9298301 -0.302982 0.84517789
1.95421 -0.34247798 0.77913094
1.94853 -0.32549199 0.78305191
1.9306301 -0.30119899 0.79036897
1.9663 -0.34916499 0.7674939
1.95153 -0.32905102 0.77467501
1.9381 -0.306449 0.78133094
1.93502 -0.28947499 0.78431398
1.9427699 -0.277044 0.78186393
1.9472799 -0.260515 0.77968699
1.97304 -0.35264501 0.755768
1.95196 -0.33018902 0.76533395
1.94856 -0.312049 0.76906496
1.93944 -0.290425 0.77497995
1.9498301 -0.27711701 0.77145094
1.9612 -0.33509499 0.75244296
1.9502699 -0.31465098 0.75903994
1.9445 -0.293235 0.76284701
1.94639 -0.31206802 0.75011694
1.9461999 -0.29232499 0.75173396
2.0128601 -0.29769698 1.2256539
1.99927 -0.31732699 1.2233949
2.0141702 -0.29419902 1.2187599
2.00998 -0.30898002 1.2182889
2.0049698 -0.22358499 1.2162309
2.0074401 -0.237215 1.215331
2.0188498 -0.24508101 1.214434
2.02437 -0.28509101 1.2127539
2.0148301 -0.30456001 1.210902
2.0216 -0.24639499 1.208203
2.03215 -0.25257298 1.2088749
2.0204201 -0.290952 1.2049099
2.0167599 -0.30446699 1.203864
2.0288699 -0.25420099 1.2023029
2.03266 -0.265037 1.200213
2.0148699 -0.30515802 1.197027
2.0146601 -0.246728 1.193033
2.01859 -0.30125999 1.1900129
1.98735 -0.221633 1.185508
2.00618 -0.238657 1.186101
2.0171099 -0.24605301 1.1863419
2.02178 -0.25765198 1.186396
2.02125 -0.29912299 1.182269
1.98026 -0.22446899 1.1779599
1.99172 -0.22964101 1.1780969
2.00354 -0.23731799 1.1783139
2.0327201 -0.252563 1.1807129
2.03774 -0.26231 1.179408
2.0223598 -0.29896399 1.1742979
1.98368 -0.224613 1.171677
2.0297 -0.254188 1.172962
2.0255899 -0.286376 1.1689479
2.0208399 -0.300805 1.1674069
1.9916999 -0.22231501 1.1643739
2.0039101 -0.226704 1.1655099
2.0271401 -0.28442699 1.161476
2.02301 -0.29856801 1.16114
1.98989 -0.223104 1.1564629
2.0182002 -0.24538499 1.158253
2.02689 -0.25442699 1.156785
2.0264699 -0.28466699 1.154915
2.0276401 -0.29417402 1.154084
1.99325 -0.22182699 1.1496758
2.01864 -0.24573 1.150594
2.03144 -0.251178 1.15142
2.0341799 -0.26243201 1.1507499
2.02865 -0.28170201 1.148644
2.0248699 -0.29612401 1.1454009
1.98562 -0.225154 1.140415
2.0162899 -0.24492399 1.142411
2.0323598 -0.25041699 1.145469
2.0241001 -0.29740801 1.1376779
1.96948 -0.23079799 1.130845
2.0008099 -0.22526599 1.136426
2.02034 -0.242329 1.1357849
2.02758 -0.25376499 1.136086
2.0237801 -0.287862 1.1330249
1.9601401 -0.23569599 1.1222789
2.02438 -0.242155 1.130322
2.03372 -0.27977899 1.128054
1.93345 -0.236443 1.1110469
1.9564301 -0.236138 1.1151029
1.9882801 -0.23175101 1.118488
2.0170798 -0.24602501 1.1222029
2.02702 -0.25513101 1.120894
2.03508 -0.263901 1.1215999
1.9146899 -0.234218 1.10228
1.93707 -0.23429599 1.1051489
1.9538001 -0.237976 1.10798
2.01401 -0.247319 1.1131209
2.03701 -0.26355898 1.1151429
2.00669 -0.23750299 1.1054419
2.013 -0.247596 1.105654
2.0474401 -0.26807401 1.108696
2.01401 -0.24623699 1.0990559
2.02684 -0.25326598 1.0988709
2.0223801 -0.242515 1.0934889
2.02858 -0.25162801 1.092209
2.0252399 -0.239538 1.0865049
2.03707 -0.318681 1.063051
2.0416901 -0.30529299 1.0512769
1.94996 -0.23691 1.0341929
1.94361 -0.24067801 1.027603
1.99684 -0.22746201 1.030538
1.9620199 -0.23285401 1.0182779
1.99778 -0.22769399 1.023676
2.01068 -0.232685 1.025663
2.0081201 -0.22303499 1.019524
2.00892 -0.23271099 1.0182689
2.01635 -0.243093 1.0178249
2.00653 -0.225427 1.012332
2.0107501 -0.23403999 1.0108839
2.01355 -0.24677901 1.008444
2.03019 -0.25122401 1.012548
2.0383501 -0.261215 1.0115418
2.05018 -0.299927 1.0089799
2.0541499 -0.30997899 1.008275
2.00368 -0.227997 1.0032219
2.0066299 -0.2383 1.0017658
2.01564 -0.24613599 1.0018599
2.0252099 -0.253425 1.003605
2.03491 -0.26100999 1.0049419
2.0053999 -0.225464 0.99654496
2.0100701 -0.23278299 0.99609995
2.0127201 -0.24552201 0.99422997
2.0245299 -0.25241101 0.99663192
2.03479 -0.26167402 0.99688399
2.03794 -0.31706601 0.98829097
2.0067599 -0.225051 0.9901039
2.0097201 -0.23461001 0.98784095
2.01543 -0.24457 0.98772401
2.0235898 -0.25435498 0.98817492
2.0399299 -0.25887302 0.99084091
2.0415199 -0.27280301 0.98907197
2.0406501 -0.30474898 0.98441797
2.03391 -0.31922799 0.97931397
2.00595 -0.22601999 0.98233491
2.0131299 -0.231105 0.98148394
2.0146301 -0.24492599 0.97993195
2.0278199 -0.252637 0.98115295
2.0380099 -0.26094601 0.98307496
2.0444999 -0.27028 0.9828639
2.0463099 -0.28264201 0.98108399
2.0402801 -0.303128 0.97682691
2.03088 -0.32187697 0.97070193
2.00758 -0.22480699 0.97521996
2.0086501 -0.23521499 0.97274095
2.02613 -0.25101802 0.97463393
2.0357401 -0.260268 0.97457892
2.04369 -0.270868 0.97603095
2.02789 -0.313584 0.96464598
2.0310001 -0.32221401 0.96372896
2.0067999 -0.225796 0.96646094
2.00787 -0.25089899 0.96222001
2.02652 -0.251901 0.96729898
2.03705 -0.304061 0.96032298
2.02876 -0.32264 0.95578492
1.9186 -0.24798401 0.93572998
2.0094299 -0.22311001 0.95962095
2.02178 -0.25511801 0.95749891
2.03982 -0.290306 0.95517194
2.03092 -0.31065699 0.95108795
2.0236001 -0.326846 0.9457019
2.0095799 -0.22330299 0.95218992
2.0255799 -0.25277001 0.95122993
2.0309501 -0.26410401 0.95056993
2.0388601 -0.276023 0.95006394
2.0431199 -0.288017 0.94835997
2.03194 -0.30978701 0.9434979
2.0239701 -0.32641497 0.938573
2.0090499 -0.223804 0.94389796
2.0218699 -0.25556698 0.94278395
2.0441201 -0.28355899 0.94224596
2.0256901 -0.32418099 0.93173295
2.0063698 -0.22548001 0.9350009
2.0102499 -0.23356701 0.93639791
2.0160999 -0.25705001 0.93354392
2.0381701 -0.27449101 0.93460298
2.0325201 -0.308992 0.92865998
2.02667 -0.32334203 0.92334002
2.00301 -0.227117 0.92619896
2.0211301 -0.25496399 0.92696595
2.0322502 -0.264321 0.92855698
2.0383298 -0.273047 0.92726296
2.0325899 -0.30772102 0.920766
2.02721 -0.32362098 0.91539598
1.9438001 -0.242139 0.90325701
1.99712 -0.22860301 0.91712689
2.0092399 -0.23233299 0.92095596
2.0180099 -0.257227 0.916924
2.03181 -0.26415101 0.92069495
2.0297701 -0.311744 0.91125596
2.0257699 -0.32536098 0.90802091
1.9792501 -0.23429899 0.90525192
2.0057499 -0.23424101 0.9119339
2.0185499 -0.25778902 0.90959793
2.0396202 -0.27286699 0.91305387
2.04689 -0.283005 0.91248095
2.02981 -0.32132998 0.90265197
1.9932899 -0.229462 0.90185493
2.01544 -0.25804502 0.901438
2.0442901 -0.28378999 0.90435195
2.03967 -0.31343499 0.897623
1.99203 -0.229454 0.89455396
2.0093699 -0.231447 0.89763993
2.0177698 -0.25766301 0.89416891
2.04041 -0.27304301 0.89701688
2.04386 -0.28770199 0.89541894
2.03846 -0.315584 0.889516
2.00227 -0.226601 0.88910097
2.01227 -0.25849301 0.88516593
2.04602 -0.28232402 0.88885587
2.0469501 -0.29715699 0.88693392
2.0428998 -0.31179702 0.88410193
1.99698 -0.23027599 0.87826395
2.0190301 -0.25774202 0.87922096
2.0446301 -0.28205401 0.88100797
2.0509801 -0.291529 0.88091689
2.0433099 -0.30967101 0.87578601
1.9960201 -0.23027201 0.87085187
2.0463901 -0.28230199 0.87408692
2.0431199 -0.31076202 0.86664599
2.0044999 -0.224952 0.86698496
2.0162499 -0.227743 0.86834288
2.02123 -0.25622901 0.86475998
2.04565 -0.284762 0.86526197
2.0425799 -0.30105799 0.86197591
2.0084901 -0.22341199 0.85983092
2.0171499 -0.22894698 0.8614729
2.01526 -0.258589 0.85477495
2.04337 -0.310451 0.85079592
2.00302 -0.22600299 0.8489449
2.04408 -0.31051901 0.84408599
2.0085001 -0.221836 0.84383589
2.0106499 -0.23080701 0.84280396
2.00561 -0.22395201 0.83516592
2.01775 -0.226484 0.83816797
2.00704 -0.223148 0.82792997
2.0086601 -0.22247101 0.82052892
2.01601 -0.228184 0.82172698
2.03776 -0.28617001 0.81561297
2.0538599 -0.28933299 0.82038498
2.0055299 -0.22443099 0.81026489
2.0151801 -0.22947 0.81358892
2.0144501 -0.27293599 0.80432397
2.0060899 -0.22294001 0.80247194
2.01229 -0.22994401 0.80427796
2.0137801 -0.27171201 0.79691696
2.03405 -0.331155 0.78834796
2.0121801 -0.229268 0.79599792
2.0351501 -0.276438 0.79322493
2.0383799 -0.28850901 0.79077893
2.0369799 -0.329137 0.78259397
2.0091701 -0.22100501 0.78970289
2.00999 -0.23122101 0.78634399
2.0149698 -0.27169999 0.78000593
2.04124 -0.28282899 0.78554797
2.0395 -0.32763901 0.77440488
2.01092 -0.22075199 0.78158396
2.01208 -0.22988001 0.78011698
2.01211 -0.27180299 0.77073789
2.0416 -0.28564101 0.77666891
2.03671 -0.33258399 0.76339495
2.0058601 -0.223105 0.77059591
2.0120499 -0.230628 0.77270889
2.0224099 -0.26887801 0.76694089
2.0406899 -0.329586 0.75839889
2.0125899 -0.22858299 0.7639119
2.04017 -0.330143 0.75001997
2.0050302 -0.223442 0.75471389
2.0006199 -0.31959 1.224358
2.02321 -0.281039 1.22137
2.01232 -0.30128801 1.2200899
2.0012701 -0.31863001 1.219178
2.0009201 -0.22477199 1.217288
2.01789 -0.241432 1.2172669
2.0400801 -0.25589702 1.216879
2.0241001 -0.291724 1.2134119
1.9974699 -0.31994301 1.2138849
2.0135601 -0.230947 1.21033
2.0245199 -0.23898399 1.2109779
2.0236001 -0.29408801 1.206766
2.00684 -0.313232 1.2032639
2.0182199 -0.23104799 1.2040019
2.0269799 -0.239154 1.204971
2.0239899 -0.25352898 1.2028559
2.02264 -0.29506201 1.2006999
2.00844 -0.313463 1.198295
2.0118401 -0.23114599 1.195923
2.02595 -0.239089 1.1979009
2.0232201 -0.255229 1.195701
2.03267 -0.27408001 1.1957879
2.00474 -0.316394 1.1933969
1.9811 -0.22488301 1.1869919
2.0218801 -0.239483 1.1899409
2.0322301 -0.24705799 1.1913409
2.03619 -0.258993 1.189752
2.03321 -0.288039 1.1869049
2.0151701 -0.307724 1.1838509
1.98599 -0.22246599 1.179619
2.00229 -0.22491899 1.1824009
2.0170901 -0.241392 1.181929
2.0303199 -0.249109 1.1837519
2.03724 -0.25930899 1.1830389
2.0174401 -0.30705601 1.177316
2.0033998 -0.22234699 1.1750479
2.0114 -0.231838 1.1762149
2.0232899 -0.238262 1.176574
2.0394399 -0.25622201 1.177737
2.01492 -0.30925801 1.169928
1.9872301 -0.22168601 1.1667279
2.0054901 -0.22099701 1.1691359
2.00914 -0.23028299 1.16888
2.0150499 -0.242346 1.1687059
2.02753 -0.28059399 1.1669199
2.0303102 -0.29060498 1.1663419
2.0228 -0.304474 1.1643449
2.0041599 -0.22261801 1.162797
2.0183702 -0.243398 1.1617799
2.0325999 -0.247172 1.1632669
2.0330701 -0.2586 1.1623019
2.0334001 -0.28839198 1.1604929
2.0214999 -0.30532801 1.157573
2.0032899 -0.22390699 1.1553359
2.0176301 -0.24071801 1.1546659
2.02793 -0.24970101 1.15661
2.0334501 -0.26082 1.154874
2.0095201 -0.220411 1.1501809
2.0173101 -0.24053301 1.147375
2.0051899 -0.22507401 1.1420519
2.0157599 -0.24409401 1.140623
2.0306399 -0.248311 1.1424509
2.0053799 -0.22568001 1.134169
2.01582 -0.24020399 1.134234
2.0283701 -0.24830098 1.1353899
2.0064399 -0.22447799 1.127476
2.0090499 -0.23262301 1.1274489
2.0190301 -0.240493 1.1278349
2.0283799 -0.25007799 1.127401
2.0104101 -0.23393101 1.1202669
2.02371 -0.239816 1.121794
2.02091 -0.253508 1.118819
2.0335898 -0.25873199 1.121612
2.0132799 -0.22953501 1.1140059
2.0198901 -0.23996201 1.1137249
2.01472 -0.22990102 1.1066929
2.01489 -0.24209999 1.1058949
2.0271101 -0.247777 1.107191
2.0116901 -0.219972 1.100986
2.0202401 -0.23918301 1.099937
2.0319901 -0.24799101 1.101172
2.01827 -0.240052 1.0926509
2.02968 -0.24597999 1.0941839
2.0239 -0.237207 1.0871509
2.0533199 -0.29040101 1.0863429
2.0621901 -0.26998502 1.0825949
2.0438099 -0.31756398 1.0387709
1.98432 -0.22824401 1.0309709
2.0081 -0.222469 1.023024
2.0113099 -0.229856 1.021255
2.0059099 -0.22381 1.014572
2.0111599 -0.232016 1.0145
2.0108099 -0.243707 1.013297
2.0320301 -0.24443501 1.0179009
2.03807 -0.25560001 1.0160519
2.0519099 -0.27738601 1.0172269
2.01056 -0.22073001 1.0086769
2.0097599 -0.23095399 1.006889
2.0195501 -0.239729 1.008922
2.03174 -0.24678499 1.0105569
2.0385201 -0.254774 1.0094589
2.05281 -0.28803501 1.0092039
2.05053 -0.30229101 1.0056939
2.0025899 -0.22519301 0.99939799
2.00946 -0.230718 1.000237
2.01601 -0.23897499 1.000141
2.0306599 -0.246838 1.003006
2.0365899 -0.25855899 1.0019249
2.0400999 -0.27009401 1.0007069
2.0527201 -0.30210698 1.0002719
1.99705 -0.227989 0.99006897
2.0111399 -0.230056 0.99430102
2.01159 -0.24108601 0.99151993
2.0193701 -0.25010902 0.99248594
2.03034 -0.25867701 0.99332595
2.0422001 -0.26660901 0.99499792
1.9987301 -0.22678 0.98366791
2.00721 -0.23241301 0.98497391
2.0112801 -0.244652 0.98434293
2.0276301 -0.24858899 0.98795992
2.0304601 -0.25838301 0.98622596
2.0388801 -0.26603901 0.98724693
2.0476999 -0.275031 0.98817289
2.0511 -0.28745601 0.98760301
1.9973199 -0.2281 0.97614396
2.01424 -0.228356 0.97999299
2.0246201 -0.25010598 0.97986794
2.0355599 -0.25773001 0.98125792
2.04196 -0.26776898 0.98042792
2.04966 -0.27741 0.98182797
2.0471101 -0.29117599 0.97800291
2.00049 -0.22607799 0.96910995
2.00793 -0.23234501 0.97120798
2.0185299 -0.250424 0.97068298
2.03351 -0.258324 0.97294295
2.04073 -0.26875699 0.97261995
2.0503399 -0.276333 0.97500902
1.99143 -0.230056 0.95903897
2.0101099 -0.229536 0.96489495
2.0262198 -0.24932699 0.96523589
2.0424299 -0.265549 0.96714097
2.0451 -0.278561 0.96543795
2.04527 -0.29256901 0.96318793
2.0313201 -0.31084299 0.95738298
1.9847901 -0.23351699 0.9505989
2.0058799 -0.232308 0.95577294
2.01705 -0.251059 0.95571595
2.0304 -0.257844 0.95784098
2.0392199 -0.26800501 0.95846891
2.0453901 -0.27786401 0.95862198
2.04652 -0.28930101 0.95694399
2.0343101 -0.30832601 0.95098191
1.99117 -0.23001601 0.94621795
2.0241702 -0.25066799 0.95029187
2.0350699 -0.25815099 0.95223188
2.04005 -0.281445 0.95027494
2.0436599 -0.29264399 0.94810194
2.0322599 -0.30958 0.94287795
1.99598 -0.227659 0.94059396
2.0162601 -0.226441 0.94461703
2.02039 -0.25053701 0.94125289
2.0322599 -0.25942698 0.94388795
2.03917 -0.26897699 0.94309294
2.04075 -0.29420298 0.94026595
2.0385799 -0.305049 0.93770295
2.0024002 -0.22469001 0.93520689
2.0145102 -0.228021 0.93666095
2.0211401 -0.25083598 0.93386197
2.0313299 -0.25807899 0.93619692
2.03953 -0.266251 0.93762797
2.0448 -0.276371 0.93692291
2.0460501 -0.28963101 0.93538195
2.0334802 -0.307724 0.92782491
2.00473 -0.22311199 0.92784899
2.01507 -0.22832 0.92985994
2.01983 -0.24890301 0.92713988
2.0292301 -0.25762999 0.92822188
2.0396399 -0.26703399 0.92978501
2.0444801 -0.279102 0.92974901
2.04602 -0.29035899 0.92734599
2.0114999 -0.228655 0.92115891
2.0224299 -0.25031099 0.92009997
2.0324001 -0.25932801 0.92174792
2.04178 -0.26619601 0.92315793
2.0451701 -0.277105 0.92267591
2.0394099 -0.30484501 0.91465294
1.97868 -0.231777 0.90458697
2.0130601 -0.227026 0.91467893
2.0162301 -0.25411099 0.91048491
2.03668 -0.254475 0.91700196
2.0364599 -0.26807699 0.91476899
2.04176 -0.30344701 0.90885997
2.0098701 -0.22871599 0.90688491
2.0185201 -0.25183299 0.90443999
2.0311 -0.25818801 0.90815896
2.0364399 -0.26937699 0.90670496
2.0510499 -0.287696 0.90673602
2.04878 -0.298695 0.90442091
2.0023699 -0.23243299 0.89630395
2.0158799 -0.25256801 0.89593291
2.0483902 -0.288591 0.89865893
2.04386 -0.30162001 0.89561599
1.9943401 -0.227505 0.88817197
2.00824 -0.231159 0.88959992
2.0122099 -0.253443 0.88786197
2.0193899 -0.26333901 0.88763291
2.0471101 -0.27754399 0.89349794
2.0476999 -0.28855401 0.89017701
2.0478101 -0.298875 0.88998991
1.99383 -0.228673 0.87921196
2.0128901 -0.254152 0.88012695
2.0419099 -0.27870598 0.8844409
2.04901 -0.28715199 0.88349092
1.9982899 -0.22555901 0.87368095
2.0102699 -0.228927 0.87638795
2.00406 -0.25868401 0.86833894
2.0450201 -0.27900299 0.87785095
2.0473599 -0.29026401 0.87511396
2.00155 -0.223643 0.86785096
2.0120199 -0.227456 0.86901492
1.99634 -0.26214999 0.85813493
2.01459 -0.26497498 0.86347288
2.04195 -0.279695 0.86882293
2.05479 -0.285458 0.87106401
2.0341001 -0.32010502 0.85896093
2.00578 -0.222266 0.86087298
2.01334 -0.229004 0.86217391
2.04761 -0.289404 0.86093897
2.0327101 -0.321408 0.85149491
2.0056601 -0.22152001 0.85258502
2.0141702 -0.226504 0.85543692
2.0338001 -0.321143 0.84360993
2.0074499 -0.22031799 0.84584397
2.0136399 -0.22543401 0.84848493
2.01384 -0.26497599 0.84043497
2.0342798 -0.32146302 0.83596498
2.00508 -0.22181199 0.83740497
2.01285 -0.22677201 0.84107894
1.9996899 -0.26229298 0.82840294
2.05337 -0.297373 0.83872092
2.0372701 -0.31891301 0.82952994
2.01069 -0.228618 0.8323819
1.9980701 -0.26306 0.81996399
2.0163 -0.26583001 0.82576293
2.0357001 -0.31988898 0.82107997
2.0064301 -0.221141 0.82251799
2.00897 -0.22958499 0.82371199
2.0129499 -0.26639 0.81682694
2.0390801 -0.317305 0.81475592
2.0106101 -0.22893299 0.81592894
2.0161901 -0.266875 0.80989701
2.0487199 -0.28927499 0.81650192
2.0411599 -0.31711799 0.80708498
2.0101199 -0.22781602 0.80768692
2.0167899 -0.23604999 0.80945694
2.01478 -0.26600099 0.80227494
2.03655 -0.321284 0.7965709
2.00384 -0.22214898 0.79897797
2.0110002 -0.22868299 0.80016595
2.01789 -0.23609899 0.80254197
2.0088499 -0.267851 0.79156196
2.0362802 -0.27922702 0.79904395
2.0469799 -0.286558 0.80053598
2.0401602 -0.318822 0.79149401
2.02898 -0.33751202 0.78276795
2.0103998 -0.26823798 0.78405088
2.03546 -0.32523701 0.78061295
2.0317101 -0.33882302 0.77553391
2.0099599 -0.22665001 0.785712
2.0476401 -0.31452802 0.77930188
2.03372 -0.337448 0.76923597
2.0100901 -0.22742599 0.77775192
2.0462399 -0.317009 0.77039695
2.01334 -0.227983 0.77064592
2.02335 -0.233022 0.77303892
2.0139599 -0.226621 0.76354098
2.02496 -0.23138 0.76731402
2.0339301 -0.32174599 0.75375396
2.0185499 -0.224741 0.75752693
2.0232401 -0.289781 1.22883
2.0093501 -0.30643901 1.22014
2.01896 -0.236922 1.2181239
2.04017 -0.26532301 1.2185249
2.0146899 -0.30252099 1.214047
1.9960099 -0.32150701 1.2119859
2.01495 -0.226799 1.212737
2.01912 -0.23614599 1.211396
2.02372 -0.246712 1.210995
2.03862 -0.252076 1.2131889
2.0427799 -0.262003 1.212799
2.0202901 -0.29857501 1.2079509
2.0009 -0.31902799 1.204953
2.0157099 -0.227145 1.205753
2.0194299 -0.23790199 1.2055609
2.02737 -0.245478 1.204945
2.0327401 -0.25634301 1.205366
2.0190699 -0.301824 1.201069
1.99735 -0.32163602 1.1974679
2.0256901 -0.23530199 1.1998399
2.0308399 -0.246692 1.1990939
2.03879 -0.255088 1.19915
2.0332301 -0.283149 1.196605
2.0215299 -0.29943198 1.195311
2.0050399 -0.31735799 1.192014
2.0004499 -0.22065701 1.191517
2.0086401 -0.22848 1.19021
2.0228901 -0.234881 1.192381
2.0316999 -0.243893 1.1931599
2.0365801 -0.25441 1.1928489
2.0403399 -0.26437101 1.1931419
2.0245199 -0.29795 1.188952
2.0018699 -0.318791 1.184705
1.9712 -0.223535 1.1802119
2.0010002 -0.220735 1.184132
2.01968 -0.23581199 1.185128
2.0334301 -0.241227 1.187596
2.03547 -0.252657 1.186505
2.04056 -0.264943 1.18608
2.0260699 -0.29538098 1.1823419
2.0142901 -0.31214198 1.17967
1.9774001 -0.221301 1.174485
2.0025201 -0.22014299 1.1774219
2.01212 -0.227853 1.178696
2.02438 -0.23568399 1.1791019
2.0292101 -0.24472401 1.1805389
2.0393898 -0.25354901 1.1798249
2.0366099 -0.268015 1.1782759
2.0243402 -0.29825199 1.1748589
2.0127499 -0.31338599 1.172771
2.00071 -0.219088 1.1715219
2.0184801 -0.23588499 1.1716119
2.03426 -0.24363701 1.1740719
2.04093 -0.25229901 1.174027
2.04111 -0.26352 1.1730119
2.03984 -0.27837402 1.171795
2.0172601 -0.31085199 1.167411
1.9761599 -0.22094801 1.1609039
2.0006599 -0.21946101 1.1648359
2.02319 -0.233429 1.1656779
2.0281599 -0.24426201 1.1656169
2.03846 -0.253934 1.167482
2.03935 -0.26708001 1.1663339
1.97921 -0.22052401 1.154954
2.00649 -0.219289 1.158839
2.0183201 -0.22569099 1.1602299
2.0213401 -0.23574699 1.159124
2.0250502 -0.246958 1.157776
2.0371499 -0.25366199 1.160201
2.0437601 -0.262685 1.1613449
1.9763401 -0.22235 1.1478449
1.9989901 -0.22099899 1.1515069
2.01212 -0.22751801 1.1522709
2.0188601 -0.23853399 1.1519608
2.0244901 -0.247743 1.1515739
2.0316999 -0.25580201 1.152494
2.0383 -0.265986 1.153636
2.0043299 -0.220072 1.145406
2.01401 -0.22625601 1.145843
2.0211098 -0.23470199 1.145834
2.0237701 -0.245786 1.1461849
2.0272999 -0.25583401 1.1455829
2.0380499 -0.26353002 1.1465909
1.99257 -0.225016 1.1358089
2.0162601 -0.237322 1.138549
2.0285699 -0.24434601 1.140041
2.0446999 -0.26326299 1.1402689
2.0440099 -0.27502501 1.139069
1.96646 -0.22783899 1.12638
2.0166001 -0.22496599 1.1331549
2.01916 -0.23591101 1.132533
2.02967 -0.24413799 1.1334929
2.03526 -0.254682 1.1334149
2.0135 -0.226191 1.1262879
2.0178399 -0.235679 1.125181
2.02755 -0.24501301 1.126171
2.03373 -0.25569999 1.1261209
2.0602901 -0.277522 1.129656
2.0134301 -0.227687 1.1195329
2.01686 -0.23782499 1.1183009
2.03146 -0.24294001 1.120497
2.0330901 -0.25390399 1.1195689
2.0534399 -0.28059798 1.120971
2.0155599 -0.31393299 1.108425
2.0119901 -0.227945 1.112083
2.0132101 -0.23858801 1.1113579
2.0229499 -0.246145 1.112556
2.01809 -0.312751 1.1047779
2.0095201 -0.32478499 1.1020269
2.0214701 -0.23515899 1.1063119
2.02789 -0.24657601 1.1066769
2.0280399 -0.244527 1.100101
2.03655 -0.25358599 1.1016899
2.0263901 -0.24294701 1.093195
2.0470901 -0.24804801 1.089731
2.0353999 -0.330773 1.0381099
2.0155299 -0.228706 1.0174129
2.01946 -0.23625499 1.0174519
2.02894 -0.241879 1.020008
2.00613 -0.23267999 1.0073029
2.0123398 -0.23925801 1.009069
2.02964 -0.242452 1.013634
2.0339 -0.25229901 1.0118779
2.0090699 -0.23039401 1.001321
2.0103102 -0.23924901 1.001387
2.02806 -0.24398701 1.005806
2.0334899 -0.25512099 1.005154
2.0462101 -0.270789 1.006359
2.05443 -0.30599701 1.0035119
2.0106699 -0.22920001 0.99599594
2.0125899 -0.236764 0.99540192
2.0167799 -0.24700899 0.99501592
2.0357101 -0.25129998 1.0000449
2.04245 -0.261729 0.99979192
2.0495701 -0.27182999 1.000971
2.0492599 -0.29688901 0.99669492
2.03212 -0.32650799 0.98778898
2.00897 -0.23052299 0.98945397
2.01929 -0.246831 0.98889595
2.03388 -0.25216201 0.99220198
2.0401199 -0.26324698 0.99115396
2.0492599 -0.271438 0.99433899
2.0490899 -0.284042 0.99180597
2.0365801 -0.31468901 0.98433495
2.0274899 -0.32810602 0.98027301
2.0113299 -0.22988801 0.98318595
2.0176101 -0.23544399 0.98250288
2.0231199 -0.24546601 0.98301798
2.03667 -0.253315 0.98537195
2.0407801 -0.263715 0.98446792
2.0482099 -0.27184799 0.98693496
2.04847 -0.284475 0.98462892
2.03666 -0.31320801 0.97751999
2.0149801 -0.228227 0.977323
2.0178699 -0.23668501 0.97538298
2.0275102 -0.244553 0.97685897
2.0305901 -0.253602 0.97769493
2.04179 -0.26049298 0.97911191
2.0456901 -0.27279601 0.97840995
2.0458 -0.28676599 0.97714293
2.0339301 -0.31371501 0.96904695
1.92123 -0.247777 0.93898797
2.01085 -0.23024799 0.96893996
2.0213299 -0.24582599 0.96855998
2.03262 -0.25388801 0.971156
2.0429201 -0.26205701 0.97272992
2.04702 -0.27124399 0.97146696
2.04619 -0.28546301 0.96979797
2.0320899 -0.31398299 0.96238399
2.00651 -0.23182501 0.96046096
2.01562 -0.246858 0.96050292
2.0271401 -0.25414801 0.96245193
2.04285 -0.26147899 0.96535295
2.0429699 -0.27487698 0.96376097
2.0483902 -0.283849 0.96264696
2.0495799 -0.29425201 0.96308595
2.0328 -0.31227601 0.956765
2.0065601 -0.23188999 0.95320791
2.0180199 -0.24778 0.95383501
2.03896 -0.25235799 0.95864195
2.0427902 -0.26190299 0.95830894
2.0457001 -0.27261299 0.9575389
2.05336 -0.28103 0.95810789
2.05071 -0.29344699 0.95567596
2.0075102 -0.23115601 0.94602603
2.02513 -0.25655299 0.94729996
2.0389299 -0.26395202 0.95051497
2.0446601 -0.272861 0.95073092
2.0487299 -0.282621 0.95038092
2.0318401 -0.31434602 0.93950999
2.00576 -0.23129299 0.93888593
2.0232899 -0.255178 0.93957794
2.0357299 -0.26366699 0.94190794
2.0463901 -0.27179599 0.94524896
2.0453999 -0.28481999 0.94184196
2.0485601 -0.29475099 0.94013792
2.0325501 -0.314208 0.93329394
2.02088 -0.33049402 0.92724591
1.9474499 -0.237745 0.91284502
2.0009398 -0.23261699 0.93111694
2.0325999 -0.25470901 0.93531299
2.0357401 -0.265257 0.93452394
2.0447302 -0.27256399 0.93748796
2.0466001 -0.28414601 0.93522489
2.0274699 -0.319464 0.92401397
2.01331 -0.33585 0.918284
1.9891901 -0.234735 0.92008394
2.0302901 -0.25435498 0.92776293
2.0397799 -0.26160401 0.93019998
2.0410202 -0.301615 0.92303193
2.027 -0.320499 0.91665792
2.0160699 -0.33486998 0.91287893
1.98684 -0.23676901 0.91118503
2.0253501 -0.256019 0.91894591
2.0389102 -0.26311198 0.92279595
2.0341902 -0.315409 0.91258395
2.02179 -0.33114499 0.90785402
1.9920599 -0.23481101 0.90471101
2.0254202 -0.25596601 0.9120459
2.0372 -0.26212499 0.91554797
2.0414701 -0.273866 0.91426301
2.05143 -0.28130099 0.91565794
2.0517101 -0.292355 0.91383898
2.0429101 -0.309412 0.90871596
2.0276899 -0.32773301 0.90196395
2.00507 -0.229049 0.90107191
2.0062101 -0.252103 0.89977801
2.0230999 -0.25730601 0.90420294
2.0381701 -0.27436301 0.90570188
2.0474999 -0.28270799 0.90759295
2.04758 -0.29695699 0.90444398
2.0420501 -0.31244698 0.9009909
2.0269701 -0.32916099 0.89436799
2.0051401 -0.227878 0.89553696
2.02073 -0.257379 0.89627296
2.0448 -0.27332699 0.90144998
2.04654 -0.28499001 0.89913195
2.0497999 -0.295248 0.89853698
2.0467701 -0.30785802 0.89541495
2.02999 -0.32688302 0.88877594
2.0001299 -0.230106 0.88776594
2.00508 -0.25258401 0.88376999
2.01847 -0.25720501 0.88877791
2.0472999 -0.27138001 0.89483202
2.04722 -0.29547 0.89120895
2.03408 -0.32411999 0.88225394
2.0025201 -0.22967501 0.88077193
2.01987 -0.25875798 0.88161588
2.0455999 -0.27341899 0.886338
2.0478899 -0.283548 0.886944
2.0504899 -0.295443 0.88433295
2.0490301 -0.308413 0.881859
2.03637 -0.323787 0.87574995
1.9992599 -0.22939199 0.87166494
2.0153201 -0.25915301 0.87311196
2.0506001 -0.282671 0.88024402
2.05651 -0.29129201 0.88006502
2.05316 -0.303698 0.87686098
2.04 -0.32088402 0.86982501
2.0035601 -0.227514 0.86651397
2.0153701 -0.26052001 0.86550492
2.0456901 -0.28239799 0.87182802
2.05233 -0.292189 0.87208098
2.05387 -0.303978 0.86973691
2.0412199 -0.32007098 0.86205292
2.00103 -0.22879101 0.85877591
2.0316999 -0.27665299 0.85974991
2.0490899 -0.28135201 0.86541694
2.0527499 -0.29355201 0.86428797
2.04076 -0.320364 0.85429293
2.00069 -0.230349 0.85132599
2.0557799 -0.29340899 0.85869402
2.04072 -0.32027599 0.84692794
2.0557499 -0.29218701 0.85199893
2.0423598 -0.31964898 0.84035295
2.05686 -0.29192698 0.84450501
2.0454299 -0.318234 0.83442289
1.99972 -0.26599702 0.82191586
2.0495901 -0.28162399 0.83594793
2.05532 -0.29075801 0.83686996
2.05424 -0.30416098 0.83357894
2.04055 -0.32060298 0.82595795
2.0060999 -0.230492 0.82276696
2.0536599 -0.292027 0.82809198
2.05196 -0.31468201 0.82433593
2.00633 -0.23007601 0.81528497
2.0111001 -0.23738399 0.8158229
2.00351 -0.265398 0.807428
2.0450399 -0.28333101 0.81922197
2.0059299 -0.23038799 0.80768496
2.0145299 -0.23537099 0.81011891
2.04775 -0.28121299 0.81294596
2.0529499 -0.29188001 0.81292498
2.0032499 -0.23099701 0.79858398
2.0132499 -0.235698 0.80289489
2.0451701 -0.28311101 0.8047049
2.05005 -0.29274201 0.80393392
2.0052001 -0.229776 0.79232389
2.0127299 -0.235421 0.79479098
2.01056 -0.22819099 0.78745794
2.0130701 -0.236656 0.78770888
2.0186701 -0.269099 0.78270197
2.0562699 -0.29176 0.79237396
2.0095701 -0.228229 0.77857894
2.01509 -0.23519899 0.78126889
2.04076 -0.28393802 0.78067696
2.0069299 -0.22905301 0.77018392
2.01403 -0.23511499 0.77212596
2.0108099 -0.227715 0.76465392
2.02283 -0.230203 0.76901698
2.0206199 -0.23123699 0.76112592
2.0005901 -0.219962 1.2219609
2.00354 -0.311759 1.2177299
2.01052 -0.22465 1.2162309
2.0142701 -0.234973 1.217207
2.0432601 -0.26049 1.218027
2.0430701 -0.27084699 1.218354
2.01458 -0.30576199 1.2130669
1.9924699 -0.323661 1.2105529
2.0157099 -0.223381 1.2105219
2.0118999 -0.23431101 1.2105379
2.0281301 -0.24192801 1.2117039
2.0459499 -0.25711098 1.2127919
2.04532 -0.269566 1.2122869
2.02073 -0.30203101 1.2071939
2.00072 -0.32003897 1.204378
2.0139399 -0.22301202 1.205011
2.0148001 -0.23380199 1.20406
2.03248 -0.24061 1.2054099
2.0395799 -0.24903601 1.2071549
2.0116601 -0.30836701 1.199651
1.99951 -0.32150298 1.197709
2.01072 -0.224096 1.198501
2.0111501 -0.233771 1.1967529
2.0276899 -0.23993401 1.1986639
2.03373 -0.251037 1.199459
2.0402801 -0.26182699 1.1988219
2.03369 -0.276997 1.1973029
2.0195799 -0.30432799 1.1942849
2.00071 -0.32074502 1.192066
1.99414 -0.22075199 1.189466
2.00611 -0.22532 1.1910449
2.0157402 -0.23429 1.190697
2.0288801 -0.242878 1.1926299
2.0369298 -0.25221699 1.1931239
2.04002 -0.261053 1.192793
2.02021 -0.30290899 1.187484
2.00632 -0.31744599 1.186464
1.9931599 -0.22147 1.183605
2.0108299 -0.22488301 1.184773
2.01489 -0.23428699 1.1836179
2.02722 -0.24187499 1.1858729
2.03369 -0.250963 1.1870689
2.0372999 -0.26175699 1.186456
2.02245 -0.302977 1.181105
2.0088601 -0.31650102 1.1799229
1.99931 -0.22018801 1.177236
2.0115099 -0.22555099 1.1783949
2.0111799 -0.235448 1.1774869
2.0245399 -0.241733 1.1787649
2.0346401 -0.25104001 1.180756
2.04267 -0.25951701 1.181031
2.02689 -0.299366 1.175754
2.01072 -0.31565499 1.172874
1.99341 -0.22139601 1.1691809
2.01476 -0.23362301 1.172038
2.0253701 -0.242485 1.172395
2.04 -0.259776 1.174737
2.04106 -0.27184299 1.173519
2.0202 -0.30354601 1.16842
2.01056 -0.315972 1.166912
1.9892399 -0.22255801 1.161853
2.0059299 -0.22547501 1.165638
2.01809 -0.24278 1.165448
2.03337 -0.25086901 1.1673679
2.04124 -0.26111901 1.1686469
2.0415699 -0.272192 1.1672629
2.0218999 -0.302735 1.163779
2.01368 -0.31455299 1.162697
2.0082099 -0.224645 1.158716
2.0256901 -0.242066 1.160219
2.0297799 -0.25260001 1.159339
1.97664 -0.22371201 1.14746
2.00912 -0.22326401 1.152198
2.0186601 -0.23257601 1.153443
2.02582 -0.243257 1.1537309
2.02999 -0.252424 1.153721
2.0376699 -0.26121101 1.154457
2.0238001 -0.24074301 1.1472709
2.0299299 -0.25163901 1.1477489
2.0397301 -0.26070499 1.1475099
1.9487 -0.22768499 1.1297759
2.0232699 -0.243257 1.1402
1.94058 -0.22184201 1.1224719
1.96504 -0.22469001 1.125883
2.0005999 -0.226271 1.131092
2.0183001 -0.23284201 1.1342729
2.0223501 -0.24305999 1.132937
2.0304401 -0.251876 1.1345029
2.03899 -0.260885 1.135312
1.96521 -0.225161 1.119782
2.0118499 -0.22525999 1.12696
2.02017 -0.23355499 1.127638
2.023 -0.24339701 1.126915
2.0290301 -0.251066 1.1283269
2.0351899 -0.26051 1.1281029
2.02788 -0.30847999 1.12196
1.97043 -0.22408301 1.1152279
2.00195 -0.22475 1.119535
2.0200701 -0.23034599 1.121609
2.02369 -0.24070999 1.1214169
2.02929 -0.25165901 1.121614
2.0339701 -0.261269 1.121774
2.0211799 -0.31282899 1.113894
2.0241299 -0.23107599 1.1162369
2.0223701 -0.243145 1.1143099
2.03333 -0.261213 1.1156659
2.03018 -0.30060801 1.1109359
2.02268 -0.313476 1.108871
2.0232601 -0.24215001 1.1083589
2.0306399 -0.25083402 1.109533
2.0299101 -0.311111 1.1051179
2.0161099 -0.222752 1.102199
2.0269501 -0.24084699 1.1029049
2.05037 -0.267315 1.1050179
2.0214701 -0.23162501 1.0962949
2.0239701 -0.24196699 1.095866
2.0336099 -0.249751 1.097263
2.02982 -0.24010201 1.090816
2.0368099 -0.33339402 1.0374409
1.9957601 -0.22551501 1.030553
2.02403 -0.35027099 1.026127
2.0041499 -0.22521999 1.0259728
2.01208 -0.225216 1.0209639
2.00439 -0.22837099 1.012291
2.0328798 -0.24870899 1.017532
1.9957299 -0.23147601 1.0042789
2.0227599 -0.22987801 1.011673
2.0252199 -0.239641 1.010911
2.03018 -0.249954 1.0095879
2.04194 -0.25633898 1.013176
2.0216401 -0.232085 1.005186
2.0265501 -0.24115101 1.003624
2.0291901 -0.250718 1.0035919
2.0411401 -0.25722501 1.0061851
2.05529 -0.28882998 1.0056329
1.9905299 -0.23344801 0.98561394
2.0239401 -0.23257601 0.99826294
2.0185401 -0.24361201 0.99407393
2.03056 -0.25044701 0.99819899
2.0429101 -0.25823399 0.99932998
2.04246 -0.26927999 0.99817091
2.0545599 -0.28764099 0.99884796
1.9874699 -0.23427001 0.98033297
2.0139201 -0.24536601 0.98597598
2.03493 -0.24978 0.99214691
2.04739 -0.25624299 0.99454796
2.04567 -0.26779699 0.99320102
2.0504 -0.29126799 0.99168897
2.03284 -0.327645 0.98271292
2.0162301 -0.23308901 0.9829399
2.0141201 -0.243586 0.97990495
2.03197 -0.249302 0.98441589
2.04213 -0.25825101 0.98683196
2.04899 -0.26787001 0.98752695
2.0520699 -0.27659699 0.98610693
2.0526099 -0.28952801 0.98511595
2.0572801 -0.29921699 0.98554891
2.0188901 -0.23390499 0.977229
2.0221701 -0.25113299 0.97514188
2.0349 -0.25818899 0.97781098
2.0480001 -0.26648599 0.98057801
2.04919 -0.27869201 0.97864991
2.05281 -0.28917801 0.97766191
2.0332601 -0.317298 0.97058702
2.02596 -0.232443 0.97428101
2.0264699 -0.25116801 0.96924293
2.0412199 -0.25842801 0.97313601
2.04509 -0.268792 0.97190797
2.0517399 -0.279293 0.97257996
2.05568 -0.28783399 0.97263288
2.0395 -0.314017 0.96552896
2.02633 -0.250523 0.96195793
2.03702 -0.25879699 0.96484494
2.0404301 -0.2685 0.9637329
2.04355 -0.27882999 0.96374297
2.05215 -0.28876698 0.9650749
2.0420699 -0.30480802 0.96057397
2.0262601 -0.319989 0.95428193
2.03108 -0.25147 0.95697999
2.0399299 -0.25948 0.95913392
2.0410399 -0.26967698 0.95761293
2.0478101 -0.279035 0.95824194
2.0493801 -0.28961501 0.9564929
2.0536201 -0.29791 0.95820892
2.0240099 -0.32136002 0.94633394
2.02213 -0.253252 0.94722199
2.0368099 -0.26057699 0.95128596
2.0427799 -0.27078801 0.95149398
2.04934 -0.279356 0.95235091
2.0444601 -0.29099399 0.94836992
2.0315299 -0.31883299 0.94094092
2.0185001 -0.253842 0.93907702
2.03145 -0.26109099 0.94246399
2.0416999 -0.26851201 0.94523394
2.04757 -0.27856502 0.94531894
2.04461 -0.292833 0.94167894
2.0462399 -0.30287999 0.94149292
2.03353 -0.317577 0.93572998
2.0102401 -0.336348 0.92546099
2.0137601 -0.25543699 0.93059295
2.0446801 -0.26860398 0.93905294
2.0495598 -0.279717 0.9384439
2.0453799 -0.29279602 0.93494898
2.02881 -0.32092997 0.92698199
2.0116999 -0.33728802 0.91888398
2.04213 -0.26824701 0.93103898
2.0512199 -0.27602899 0.93336987
2.05457 -0.28599101 0.93229598
2.02561 -0.32409 0.91873598
2.01373 -0.33715498 0.91351396
2.0076602 -0.256217 0.91535795
2.03684 -0.26885402 0.92231488
2.04916 -0.276788 0.92562193
2.05128 -0.288845 0.92394698
2.04618 -0.30326301 0.91925192
2.03509 -0.318791 0.91532701
2.0192499 -0.33437902 0.90951693
2.02298 -0.227358 0.91198295
2.0107801 -0.256782 0.90873891
2.0357401 -0.260766 0.91600192
2.04668 -0.26911801 0.91857696
2.05283 -0.27819598 0.91979599
2.0543401 -0.30014899 0.91554993
2.03778 -0.31701699 0.90911794
2.0274801 -0.32997599 0.90549588
2.0013099 -0.22779301 0.90072298
2.01565 -0.231712 0.90479195
2.0102401 -0.25699899 0.90052199
2.0341902 -0.25972098 0.90865999
2.0439 -0.268161 0.91088194
2.0490699 -0.278925 0.91140497
2.0499001 -0.28924802 0.90977496
2.05426 -0.29786399 0.90976393
2.04632 -0.312621 0.90538496
2.0300999 -0.32885101 0.89845091
2.01 -0.224372 0.89817291
2.0117998 -0.256603 0.89440799
2.0448301 -0.265715 0.90517092
2.05 -0.275314 0.90494293
2.05475 -0.28746799 0.90452695
2.0467901 -0.314686 0.89849591
2.03124 -0.32915002 0.89151198
2.0044298 -0.225623 0.88944596
2.00475 -0.25771999 0.88613188
2.0190802 -0.26309499 0.88962692
2.04526 -0.26620001 0.89814496
2.04879 -0.278034 0.89655298
2.0609701 -0.285633 0.89903498
2.0478201 -0.30209699 0.89358491
2.04809 -0.312695 0.89300489
2.0375199 -0.325755 0.88707697
2.0097599 -0.22426201 0.88407493
2.0474999 -0.26748401 0.89178693
2.0462399 -0.27740601 0.88873094
2.05671 -0.28490201 0.89126098
2.0577002 -0.297093 0.88999891
2.05093 -0.31099302 0.8873499
2.0384901 -0.32484001 0.87955093
2.0073199 -0.225686 0.87560493
2.0116 -0.256455 0.87323397
2.0513902 -0.277253 0.88351792
2.0585201 -0.28726602 0.88488799
2.0624099 -0.296222 0.88518095
2.0508599 -0.31108201 0.879574
2.0387299 -0.325551 0.87212098
2.00194 -0.227734 0.86616594
2.0081799 -0.256089 0.86486298
2.04354 -0.269517 0.87580091
2.05128 -0.27699399 0.87689394
2.05422 -0.286585 0.87626398
2.0557699 -0.29910299 0.8759799
2.0530901 -0.31173402 0.87277597
2.0353599 -0.32728198 0.86432296
1.9988699 -0.228359 0.85777098
2.0155702 -0.23175699 0.86469495
1.9999499 -0.25936499 0.85390794
2.0487101 -0.277385 0.86936998
2.05195 -0.28707302 0.86893195
2.05709 -0.29554099 0.86942202
2.05603 -0.30824 0.86719298
2.04427 -0.32304001 0.86105591
2.0160899 -0.23026301 0.85802197
1.99795 -0.260133 0.84576494
2.0496299 -0.27717 0.86291498
2.0557001 -0.28573799 0.8639729
2.05639 -0.298493 0.86132598
2.05283 -0.31148499 0.85860091
2.0429299 -0.32376099 0.85335296
1.99944 -0.228025 0.84362495
2.0546801 -0.28828698 0.85627294
2.0590401 -0.29703799 0.85493588
2.0476301 -0.320858 0.84830493
2.0134199 -0.230839 0.8428629
2.0097301 -0.26734501 0.83541399
2.0630701 -0.29542801 0.85046601
2.05512 -0.30875099 0.84594798
2.0130301 -0.231695 0.83581191
1.99349 -0.26154 0.82229692
2.0050101 -0.26794499 0.82697999
2.0597901 -0.29727501 0.842538
2.0554099 -0.31044799 0.83840996
2.0107501 -0.266864 0.82220793
2.0532801 -0.285671 0.83481997
2.0591099 -0.29563901 0.83459091
2.0639 -0.30504298 0.83570594
2.0583999 -0.31648999 0.83135092
1.99787 -0.22801901 0.81414896
2.0120599 -0.23082399 0.82062697
2.05158 -0.287911 0.8266409
2.0578899 -0.31644699 0.82384896
1.9997901 -0.227367 0.80766696
2.01173 -0.231553 0.81345695
2.05288 -0.2859 0.82059801
2.05776 -0.29576099 0.82060492
2.0596001 -0.31521499 0.81713897
1.99968 -0.22727501 0.80082494
2.01443 -0.23072299 0.80641592
2.0544901 -0.28533 0.81400299
2.0660801 -0.30408201 0.81421798
1.99892 -0.22784799 0.79343295
2.0179899 -0.228824 0.80089599
2.05023 -0.27832499 0.8058989
2.0573599 -0.286511 0.80794495
2.00107 -0.227321 0.78616196
2.0115199 -0.231353 0.79130095
2.0558701 -0.297892 0.79753196
2.0635099 -0.31422502 0.79690397
1.99731 -0.228029 0.77680695
2.0102 -0.23263599 0.78271294
2.0529299 -0.28775498 0.79134291
2.05918 -0.296644 0.78489989
2.0476401 -0.28709102 0.77401292
2.0583501 -0.294489 0.77702194
2.0675001 -0.30197701 0.75773698
2.00862 -0.30902499 1.224412
1.9994099 -0.31929198 1.2229149
2.0097001 -0.229158 1.2214379
2.01092 -0.23992901 1.2218739
2.0222001 -0.30380601 1.219978
2.0094001 -0.31589898 1.218823
2.0097001 -0.22915301 1.2144879
2.01829 -0.23810899 1.2162559
2.0376899 -0.25659099 1.2169869
2.0455799 -0.26515302 1.217621
2.0159101 -0.313068 1.213396
2.0144999 -0.23713399 1.208787
2.0229402 -0.246168 1.2103679
2.0327299 -0.255171 1.210309
2.03245 -0.267097 1.210202
2.0208001 -0.311627 1.2069219
2.01108 -0.22943899 1.202824
2.02315 -0.24672399 1.2036769
2.03334 -0.254989 1.2044879
2.0344 -0.264772 1.204312
2.02721 -0.30254999 1.201648
2.02 -0.31259799 1.200351
2.0169899 -0.23820299 1.197459
2.0230799 -0.24732 1.1976509
2.0313101 -0.25633898 1.1980959
2.02372 -0.310976 1.1945329
1.97931 -0.22628 1.18592
2.01 -0.237857 1.189546
2.036 -0.25575399 1.1920969
2.03597 -0.26624 1.192045
2.03002 -0.301312 1.1894499
2.02352 -0.311252 1.1884209
1.9877499 -0.225024 1.180944
2.0088699 -0.23873699 1.1835619
2.02408 -0.24454001 1.1853719
2.0260601 -0.25633499 1.184647
2.0406799 -0.26355898 1.187242
2.03457 -0.30060601 1.183767
2.02121 -0.31203699 1.1823789
2.01247 -0.238019 1.1787329
2.0236502 -0.24658801 1.178913
2.0256798 -0.31021798 1.177112
1.98343 -0.22693701 1.1681429
2.0124199 -0.23879801 1.171857
2.0276301 -0.247559 1.1731349
2.0369 -0.25510201 1.1741019
2.03933 -0.26508498 1.174052
2.0437801 -0.274537 1.174053
2.0113099 -0.229617 1.1654669
2.0221701 -0.24646999 1.166073
2.0434699 -0.26384398 1.1688499
2.01422 -0.229499 1.1588799
2.0177801 -0.23731799 1.1600189
2.0248399 -0.24646799 1.160002
2.02895 -0.255088 1.1613059
2.02196 -0.22753 1.154609
2.01354 -0.23688801 1.1528099
2.01916 -0.24588801 1.1532489
2.0328798 -0.254136 1.155795
2.0159299 -0.23807101 1.1465169
2.03005 -0.24563199 1.1488529
2.03527 -0.25403601 1.150193
2.01701 -0.23698601 1.140806
2.0330498 -0.253261 1.1420039
2.0151601 -0.229618 1.1347119
2.0157599 -0.23728099 1.1347539
2.0275199 -0.245501 1.135378
2.0407701 -0.25324699 1.136869
2.01583 -0.229919 1.128624
2.0221 -0.237087 1.1297319
2.0288901 -0.245061 1.1290549
2.0378501 -0.25297201 1.131264
2.01562 -0.230079 1.121387
2.0204 -0.236983 1.123253
2.0225501 -0.246728 1.121366
2.03736 -0.25427902 1.12482
2.01717 -0.22924401 1.115091
2.0189102 -0.237262 1.116125
2.0224099 -0.246796 1.1152809
2.0339501 -0.254089 1.117753
2.0241899 -0.226962 1.110431
2.0228901 -0.23456699 1.110981
2.0242999 -0.243724 1.1103179
2.02053 -0.235387 1.104128
2.0239201 -0.245763 1.10324
2.0204899 -0.245443 1.096113
2.0322001 -0.252913 1.098339
2.0159101 -0.237666 1.0904889
2.0227401 -0.24562599 1.090977
2.0369599 -0.33216998 1.04289
2.08653 -0.26360101 1.0534739
2.02456 -0.348106 1.032567
2.03144 -0.35398901 1.02056
2.0264599 -0.244508 1.019894
2.0155401 -0.228554 1.0131729
2.0165801 -0.23694299 1.0129418
2.0180399 -0.24634199 1.0109799
2.03511 -0.25339499 1.016027
2.00316 -0.23115 1.003027
2.0106101 -0.23767599 1.0046179
2.03001 -0.254094 1.008087
1.9977901 -0.232437 0.99482501
1.9925799 -0.24241801 0.99250293
2.0257699 -0.254632 1.001012
2.03426 -0.263201 1.0025339
2.04883 -0.27115402 1.005937
1.99606 -0.23229499 0.98763394
2.0006301 -0.238683 0.98840195
2.0371699 -0.256082 0.99731797
