# .PCD v0.7 - Point Cloud Data file format
VERSION 0.7
FIELDS x y z
SIZE 4 4 4
TYPE F F F
COUNT 1 1 1
WIDTH 204
HEIGHT 1
VIEWPOINT 0 0 0 1 0 0 0
POINTS 204
DATA ascii
1.9520199 -0.28285301 0.568883
1.9548 -0.273283 0.56962293
1.94495 -0.306086 0.55761993
1.9474699 -0.29466802 0.56018198
1.9539399 -0.284282 0.55934
1.96052 -0.27471301 0.55630195
1.96737 -0.31281799 0.53955698
1.95383 -0.29714501 0.54873693
1.9552699 -0.28392202 0.54960394
1.9636199 -0.27417001 0.54491097
1.99886 -0.26525 0.52738297
1.9691499 -0.31388399 0.52921396
1.95509 -0.3001 0.53845596
1.9585099 -0.28589499 0.53810591
1.9714799 -0.271911 0.53141397
1.99459 -0.264622 0.52274191
1.97592 -0.314787 0.51595193
1.95722 -0.29934999 0.52783495
1.96121 -0.283723 0.5254119
1.96726 -0.270376 0.52371597
1.98323 -0.26262 0.51952493
1.9621899 -0.299301 0.51440597
1.96284 -0.28448001 0.51442695
1.96156 -0.271162 0.51715696
1.97763 -0.26300898 0.51069093
1.9563 -0.3008 0.56831092
1.95981 -0.29049501 0.56973195
1.9642799 -0.26523501 0.56825691
1.95192 -0.299523 0.56050491
1.95894 -0.28983101 0.55980194
1.9570301 -0.27419901 0.56130099
1.9698399 -0.265901 0.55554396
1.9556301 -0.299757 0.5490309
1.957 -0.286432 0.55026191
1.9568801 -0.272627 0.55177695
1.9691901 -0.265452 0.54582494
1.9641 -0.30303201 0.53388596
1.95989 -0.29003999 0.53873301
1.9666001 -0.27713302 0.53675896
1.96496 -0.26472199 0.53813493
1.9673599 -0.303931 0.52268898
1.9613 -0.29011101 0.52707297
1.96589 -0.277412 0.52670997
1.9705701 -0.267111 0.52560294
1.96584 -0.30327499 0.51333594
1.95834 -0.289518 0.5180409
1.96435 -0.277612 0.51725793
1.9710699 -0.26641801 0.51403296
1.9996899 -0.26937202 0.56970191
1.97355 -0.271997 0.56939995
1.99714 -0.26812801 0.56181091
1.9524601 -0.29281402 0.56506193
1.9642501 -0.28273401 0.56174093
1.9722501 -0.271144 0.55949193
1.9876801 -0.26503098 0.55654097
1.95952 -0.29585999 0.55060393
1.9554499 -0.28276101 0.5556519
1.9688801 -0.27309501 0.55037796
1.97964 -0.26358101 0.549155
1.95609 -0.294489 0.5413999
1.95754 -0.28344801 0.54480898
1.96409 -0.27211702 0.54175395
1.97312 -0.26240101 0.53965294
1.9617701 -0.297337 0.52843893
1.9564301 -0.28286099 0.53487992
1.96629 -0.271835 0.53082395
1.9735299 -0.26117399 0.52794397
1.95565 -0.295362 0.52129292
1.9609101 -0.28438899 0.52156591
1.96696 -0.27022201 0.51949996
1.9698501 -0.25933599 0.52026993
1.95425 -0.29396498 0.51171494
1.95953 -0.28184301 0.51112092
1.9785899 -0.31877801 0.56363595
1.96772 -0.28395 0.56958091
1.97255 -0.313815 0.55466598
1.9586099 -0.29363501 0.56189394
1.96538 -0.28217399 0.56061095
1.9692799 -0.272268 0.56258392
1.97487 -0.31514299 0.54312295
1.96336 -0.297515 0.54974496
1.9620301 -0.28277299 0.5528549
1.96875 -0.27243602 0.55143195
1.96015 -0.295358 0.54146796
1.9686 -0.284556 0.53909796
1.9722099 -0.27327001 0.53960395
1.9841 -0.32044899 0.51213592
1.96109 -0.293437 0.52949196
1.97232 -0.28432801 0.52606392
1.9728199 -0.27314198 0.52965999
1.9627299 -0.29764 0.5174349
1.96338 -0.28292599 0.51899993
1.97291 -0.274104 0.51854998
1.9573399 -0.27976701 0.51188391
2.0536201 -0.32947201 0.56915396
1.9398599 -0.27489001 0.56590098
1.9435699 -0.266646 0.56444395
1.94958 -0.277455 0.55436492
1.95752 -0.26962098 0.55084991
1.94651 -0.28932399 0.54526401
1.95157 -0.27892199 0.54453993
1.9604 -0.26948699 0.54028398
1.95084 -0.301835 0.53251296
1.9503101 -0.29052499 0.53540301
1.9514101 -0.27873799 0.53449196
1.9579401 -0.26900998 0.53232694
1.9538499 -0.304667 0.52101594
1.9485699 -0.29149401 0.52596891
1.94884 -0.27917999 0.52627593
1.95158 -0.26804599 0.52542299
1.9544501 -0.30581799 0.51150292
1.95597 -0.295461 0.51213491
1.9507201 -0.280011 0.51587397
1.94969 -0.30543199 0.55950594
1.94753 -0.29149202 0.56396794
1.9482499 -0.27905199 0.56622696
1.95621 -0.270854 0.5639379
1.96298 -0.31094399 0.54568595
1.9516701 -0.29613599 0.55246997
1.94862 -0.281407 0.55610597
1.9486301 -0.26986602 0.55848497
1.9665899 -0.31242901 0.53558195
1.9526401 -0.29834801 0.54247797
1.9521699 -0.28373599 0.54372895
1.9524699 -0.271979 0.54680091
1.9620799 -0.31030598 0.52769393
1.9505 -0.29474699 0.533557
1.9486099 -0.28084901 0.53495097
1.95048 -0.27120101 0.53725696
1.97007 -0.311921 0.51286799
1.9532601 -0.297355 0.52299094
1.95252 -0.283678 0.5232659
1.9491099 -0.27114701 0.52731997
1.95279 -0.29630801 0.51279891
1.94856 -0.28219199 0.51523393
1.94981 -0.27160102 0.51572096
1.9788201 -0.26829001 0.56382799
1.95384 -0.298365 0.5593189
1.94976 -0.28563499 0.56494093
1.95793 -0.27429301 0.56150597
1.9758 -0.26727399 0.55361891
1.9525 -0.298363 0.54945493
1.95345 -0.28648001 0.55309695
1.9643101 -0.275269 0.54837495
1.9773899 -0.266532 0.54275894
1.95744 -0.29995599 0.53783095
1.9586501 -0.28795099 0.53912997
1.96297 -0.27370501 0.53867996
1.97855 -0.26660201 0.53311592
1.95502 -0.29873198 0.52907789
1.95608 -0.28821301 0.53015399
1.95973 -0.27612302 0.52973199
1.96992 -0.265259 0.52652794
1.9571899 -0.300015 0.51693296
1.9524699 -0.28670299 0.52247095
1.96198 -0.27495301 0.51797491
1.97472 -0.266186 0.51444399
1.98632 -0.26297501 0.56941897
1.9711599 -0.299142 0.55878496
1.96077 -0.282657 0.56638795
1.9622301 -0.268951 0.568995
1.97357 -0.26003098 0.56467491
1.97483 -0.30072999 0.54790395
1.96464 -0.2845 0.55373091
1.95733 -0.26747 0.56091696
1.97615 -0.2613 0.55209088
1.9758 -0.300421 0.53732389
1.95933 -0.281297 0.54559296
1.9600799 -0.26780099 0.54889894
1.97147 -0.25923002 0.54316694
1.9787601 -0.30139601 0.52474099
1.96426 -0.28454798 0.53424591
1.9650301 -0.26966199 0.53521097
1.97086 -0.259029 0.53371501
1.9748 -0.30090499 0.515423
1.9658501 -0.28432599 0.5230509
1.95619 -0.26656201 0.52870697
1.97216 -0.26037902 0.52285796
1.9630799 -0.28538701 0.51322198
1.9623399 -0.27008498 0.51583499
1.9675701 -0.25903901 0.51289797
1.9535201 -0.29441699 0.56935292
1.9563299 -0.28235301 0.56999499
1.96769 -0.25800502 0.56904298
1.95345 -0.29392901 0.55904394
1.95232 -0.279466 0.56096894
1.95998 -0.26762599 0.5616129
1.96969 -0.25875899 0.55849892
1.95353 -0.294361 0.54860598
1.9555701 -0.282767 0.54912597
1.95597 -0.26809701 0.55267
1.96679 -0.259069 0.54930091
1.95102 -0.292889 0.53925794
1.95507 -0.28244698 0.53981191
1.9592199 -0.269775 0.54041398
1.97286 -0.26106301 0.53461295
1.95415 -0.293733 0.52635992
1.95427 -0.281037 0.53087592
1.96578 -0.27027202 0.52605599
1.96807 -0.25846902 0.52666193
1.95925 -0.29680002 0.51278496
1.95513 -0.281093 0.51895797
1.9699 -0.27260798 0.51414698
1.9686099 -0.259839 0.51598197
