# .PCD v0.7 - Point Cloud Data file format
VERSION 0.7
FIELDS x y z
SIZE 4 4 4
TYPE F F F
COUNT 1 1 1
WIDTH 1509
HEIGHT 1
VIEWPOINT 0 0 0 1 0 0 0
POINTS 1509
DATA ascii
1.9529899 -0.326287 0.73813796
1.9570301 -0.32676497 0.73022294
1.9342901 -0.31213102 0.73845202
1.95609 -0.32570201 0.72240198
1.93854 -0.31235301 0.72986495
1.92496 -0.300089 0.73530394
1.95338 -0.32472199 0.71514696
1.94752 -0.31344801 0.71783292
1.9421699 -0.302587 0.72117889
1.94795 -0.312132 0.70907897
1.94858 -0.300302 0.70793593
1.9446499 -0.30836001 0.69945794
1.94969 -0.29681599 0.69760096
1.93408 -0.28072202 0.70324898
1.93786 -0.269045 0.70124596
1.9364301 -0.30614901 0.69304991
1.9398301 -0.29546601 0.69184899
1.94469 -0.28297198 0.69216096
1.9419099 -0.26849899 0.69218898
1.94113 -0.306613 0.68251693
1.9442301 -0.29566401 0.67998594
1.9383299 -0.27961299 0.68490493
1.94516 -0.26642799 0.68286598
1.9460499 -0.25356099 0.68125093
1.93721 -0.30395401 0.67467695
1.9431399 -0.29504699 0.67192596
1.9428799 -0.28179801 0.67263496
1.94013 -0.26520801 0.67631394
1.9597501 -0.253346 0.66823494
1.96753 -0.24041 0.66528201
1.9427299 -0.29248399 0.66371697
1.9400799 -0.28052402 0.66494799
1.94539 -0.26888001 0.66413194
1.99244 -0.240945 0.64912599
1.9795101 -0.225908 0.65290296
1.92716 -0.286264 0.65971595
1.9471 -0.28110501 0.65387595
1.9569401 -0.272452 0.6487869
1.9999299 -0.22523701 0.6379559
2.0049698 -0.215342 0.63520998
2.01706 -0.2045 0.62952095
1.9540601 -0.281212 0.64062494
1.9615401 -0.27349702 0.63749796
2.01352 -0.224499 0.62566596
2.00915 -0.21301001 0.62693495
2.0176899 -0.203521 0.62318301
1.94901 -0.278952 0.63251096
1.9576 -0.27180099 0.62926394
2.0139701 -0.20224701 0.61925393
1.9537101 -0.279221 0.62125891
1.95516 -0.270437 0.61861795
1.95489 -0.27816799 0.61069596
1.95892 -0.270123 0.60809791
1.9646699 -0.26252002 0.60682696
1.95344 -0.27802199 0.60074997
1.9579899 -0.27040702 0.60063094
1.9548801 -0.27946898 0.58883893
1.95447 -0.27032101 0.59219289
1.9559101 -0.28113899 0.57761794
1.9541299 -0.27169999 0.58153892
1.95742 -0.317384 0.67191195
1.9580901 -0.31815702 0.66506195
1.9380499 -0.301662 0.67292696
1.94258 -0.25815201 0.67214996
1.9605099 -0.31872699 0.65659899
1.9437399 -0.30328399 0.66363496
1.9441099 -0.28912902 0.663809
1.94822 -0.27151901 0.66277891
1.96009 -0.26191601 0.65945297
1.9586 -0.317206 0.64771295
1.94101 -0.29919398 0.65621191
1.95078 -0.28560001 0.65243196
1.96038 -0.27233699 0.65094995
1.9696801 -0.26400298 0.6487869
1.95233 -0.316695 0.63807791
1.94926 -0.301249 0.64282393
1.95095 -0.28590199 0.64235193
1.95639 -0.27326098 0.64265096
1.96832 -0.26447901 0.640459
1.95515 -0.32883301 0.62715197
1.95073 -0.31685901 0.62964493
1.9532001 -0.305641 0.63121599
1.95347 -0.28935802 0.63174194
1.95478 -0.27458099 0.63366801
1.96372 -0.264599 0.63122594
1.95864 -0.31802201 0.61867195
1.9439501 -0.300632 0.6254009
1.9457099 -0.28609601 0.62554795
1.95739 -0.27497602 0.62213689
1.96039 -0.26316202 0.62202489
1.94801 -0.300304 0.61370993
1.9485099 -0.28676599 0.61593992
1.95584 -0.27511701 0.61215192
1.9599299 -0.263722 0.61160797
1.95388 -0.29999399 0.59985697
1.9524001 -0.28746301 0.60404992
1.9634 -0.27599701 0.59945297
1.96738 -0.26453301 0.59790593
1.9622099 -0.301976 0.58686095
1.95587 -0.287397 0.59111398
1.9640499 -0.27440301 0.58926499
1.96817 -0.26431102 0.58831698
1.95474 -0.29926699 0.57986093
1.95517 -0.28735501 0.58068895
1.9568 -0.274959 0.58272696
1.9664501 -0.265398 0.57916397
1.96032 -0.27690202 0.57083696
2.0275102 -0.25212899 0.74549192
2.0133801 -0.25018799 0.74287093
2.0094199 -0.23653699 0.74525499
1.9588799 -0.32925999 0.74300689
1.94006 -0.30794501 0.74897689
1.94967 -0.27870399 0.74947393
1.9654201 -0.26935399 0.74491197
1.98088 -0.25854501 0.74276197
2.02211 -0.251434 0.72893798
2.0050101 -0.233969 0.73814797
1.94873 -0.32358897 0.73535293
1.94366 -0.308801 0.73734593
1.94604 -0.29337001 0.74010897
1.9506301 -0.278198 0.74049294
1.9664301 -0.26853001 0.73597395
1.98674 -0.257846 0.7301529
2.01876 -0.25093901 0.71962899
2.00611 -0.23277399 0.72667497
1.96047 -0.327905 0.72165191
1.94284 -0.30972099 0.72859895
1.94569 -0.29529899 0.72955793
1.94839 -0.27861798 0.731906
1.96935 -0.26865801 0.72503799
1.99446 -0.25939399 0.71765101
2.0181 -0.25081599 0.71002299
2.0078399 -0.232611 0.71604097
2.0070901 -0.220511 0.71786094
1.9443099 -0.30881399 0.71842694
1.94798 -0.29758799 0.71949798
1.9495399 -0.27969199 0.72005492
1.97061 -0.26697999 0.71444792
1.99308 -0.25681901 0.70866996
2.0176401 -0.25074399 0.70197493
2.0072999 -0.23367099 0.70658195
2.00594 -0.219925 0.70792091
1.9493401 -0.308963 0.70560491
1.9455701 -0.29396901 0.71030498
1.94576 -0.278808 0.71153092
1.9589599 -0.26815799 0.70801389
1.98321 -0.257144 0.70118093
2.0035601 -0.246361 0.69831598
2.0016201 -0.230019 0.69874495
2.00489 -0.217906 0.69712496
1.9587899 -0.31269398 0.69334394
1.9471201 -0.29615802 0.69842601
1.9478999 -0.279728 0.70191497
1.9615101 -0.26667801 0.69659591
1.98061 -0.25506002 0.69177401
1.99588 -0.243614 0.69061095
2.0004799 -0.228829 0.68814796
2.00668 -0.218156 0.68721497
1.95182 -0.31051201 0.68650699
1.94936 -0.297692 0.68727595
1.95085 -0.28171802 0.68967092
1.9527299 -0.26527599 0.6890859
1.9712 -0.25478101 0.68514091
1.99323 -0.243725 0.68032789
2.0069098 -0.232208 0.67542195
2.0058799 -0.218557 0.67744094
1.94839 -0.309607 0.67619795
1.9432001 -0.29286599 0.68117696
1.94425 -0.27691701 0.68121195
1.95468 -0.26269799 0.67956698
1.97732 -0.252727 0.67405891
2.0000799 -0.24355301 0.66824996
2.0074301 -0.231002 0.66544098
2.00266 -0.21709499 0.66911095
1.96356 -0.328839 0.65955698
1.94972 -0.312475 0.66456693
1.93955 -0.291949 0.67216599
1.9433701 -0.278032 0.67228895
1.94801 -0.26498899 0.67188191
1.96927 -0.25473899 0.66602999
1.9994299 -0.245333 0.65762991
2.0122001 -0.232605 0.65274394
2.0113401 -0.22007799 0.65663892
1.96253 -0.32875597 0.65117294
1.94664 -0.311892 0.65705895
1.94918 -0.298296 0.65738696
1.9440199 -0.27891502 0.6633209
1.96556 -0.269714 0.65587097
1.98963 -0.258035 0.64913392
2.0069001 -0.24413401 0.64440596
2.0150399 -0.232362 0.64215094
2.0088799 -0.219641 0.64748091
1.9458001 -0.30943 0.64848197
1.9497501 -0.29763499 0.64775991
1.95026 -0.281789 0.64994699
1.96893 -0.27088499 0.64397192
2.0139899 -0.246334 0.63325691
2.0130701 -0.23233801 0.63402498
2.01354 -0.221204 0.63593191
1.9400001 -0.306005 0.63998193
1.9456301 -0.29472798 0.63928092
1.95295 -0.279679 0.63824195
1.97893 -0.27484801 0.62865901
2.0214901 -0.23462099 0.62315893
2.01404 -0.221341 0.62697893
1.9416901 -0.30567399 0.62873995
1.94625 -0.294806 0.6282289
1.9475101 -0.281039 0.63062698
1.9671401 -0.27242699 0.62328798
1.9878399 -0.26701701 0.61696494
2.0155499 -0.22132999 0.619349
1.9527401 -0.309598 0.61370897
1.9412601 -0.294386 0.62109792
1.95004 -0.282233 0.61949492
1.96106 -0.27025801 0.61535096
1.97743 -0.263477 0.61065501
1.95938 -0.31090799 0.60162389
1.9466001 -0.29418501 0.60939699
1.9523101 -0.280267 0.60927695
1.9679401 -0.271422 0.60344499
1.97554 -0.26184902 0.60015398
1.95763 -0.297066 0.594293
1.9578999 -0.28296199 0.59756392
1.96981 -0.27202201 0.59245193
1.98605 -0.26530799 0.58536291
1.95789 -0.29607901 0.58271492
1.95804 -0.28307301 0.58679396
1.9712501 -0.27262101 0.58120596
1.9557401 -0.29490399 0.57373792
1.96297 -0.28460601 0.57324296
1.97261 -0.35360199 0.74588495
1.9692501 -0.352375 0.73786193
1.9654499 -0.33808899 0.74088395
1.9590801 -0.27950001 0.74938291
1.98241 -0.27107701 0.74357194
2.0085599 -0.263311 0.73616594
1.99439 -0.24163 0.74509692
2.00559 -0.23257999 0.74108201
1.96279 -0.34777802 0.73005998
1.9494901 -0.326516 0.73681396
1.94049 -0.305484 0.74259192
1.9478 -0.29184902 0.74122095
1.96109 -0.27933002 0.73881996
1.98378 -0.27062598 0.73311597
2.00985 -0.263327 0.72557187
2.0016499 -0.24334998 0.73226988
2.0011799 -0.23012501 0.733181
1.96381 -0.34823599 0.71873593
1.9506 -0.32918701 0.72573
1.94601 -0.30856001 0.73013794
1.9517701 -0.29135901 0.73002398
1.9629201 -0.27787399 0.72842389
1.98655 -0.269445 0.72250593
2.00934 -0.26178801 0.71657592
2.0027299 -0.245251 0.72174698
2.00969 -0.233668 0.72055191
1.9667799 -0.34858 0.70883799
1.96004 -0.33473203 0.71315295
1.9526401 -0.31586799 0.71704191
1.95253 -0.29633 0.71847796
1.95269 -0.278301 0.72175795
1.96943 -0.267719 0.71707797
2.01197 -0.263693 0.70769691
1.99965 -0.242401 0.71207094
2.0090101 -0.230105 0.70951492
1.9530499 -0.327528 0.70609093
1.94925 -0.31059602 0.70917296
1.9518499 -0.29612601 0.70827699
1.9571201 -0.27968702 0.70912796
1.97121 -0.265834 0.7063539
1.9980299 -0.25944901 0.70166695
1.9972 -0.240732 0.70129198
2.0040901 -0.227542 0.70189893
2.0237 -0.222506 0.69674492
1.9633701 -0.32969397 0.69062495
1.95121 -0.31097001 0.69884992
1.9472799 -0.29103002 0.70025694
1.95297 -0.27707198 0.70090795
1.96496 -0.26585302 0.69876295
1.9915401 -0.25615799 0.69204694
1.99735 -0.239969 0.69168395
1.99981 -0.22645599 0.69394898
2.01121 -0.218106 0.69103396
1.96547 -0.33096901 0.67872596
1.9513 -0.310112 0.68749189
1.9425701 -0.28869301 0.69151694
1.95286 -0.275603 0.69148093
1.96716 -0.26253301 0.68850493
1.99468 -0.25643399 0.68024498
1.99686 -0.241947 0.68288392
2.00401 -0.22800301 0.68247598
2.01194 -0.21710899 0.67935592
1.96683 -0.33291399 0.66837794
1.95109 -0.312242 0.67595291
1.94119 -0.291807 0.68319297
1.9480001 -0.27666301 0.6818009
1.95645 -0.26239401 0.68252295
1.98838 -0.258044 0.67253792
1.99777 -0.24124399 0.67184198
2.0095398 -0.227677 0.67070299
2.0230701 -0.22077601 0.66518593
1.9603599 -0.330062 0.65970594
1.9484 -0.30927199 0.66690391
1.9442799 -0.29214898 0.67259794
1.9505401 -0.27825999 0.67057997
1.96012 -0.26427498 0.67043394
1.9889101 -0.256006 0.66199994
2.0038099 -0.24328899 0.65789092
2.0059199 -0.227437 0.66175699
2.02667 -0.222919 0.65333891
1.97815 -0.353755 0.64050096
1.95744 -0.33091599 0.65001494
1.95241 -0.31232402 0.65561694
1.94672 -0.292454 0.66194201
1.95795 -0.27935898 0.65868896
1.9682201 -0.264954 0.65721995
1.99397 -0.25578299 0.65055794
2.0016601 -0.241979 0.64989901
2.0079501 -0.228945 0.64982694
2.0231102 -0.22087099 0.64392197
1.9743201 -0.35344601 0.63297898
1.97067 -0.33971 0.63587898
1.95619 -0.31639299 0.64296997
1.94995 -0.29384699 0.65030789
1.96544 -0.281326 0.64516199
1.9798801 -0.27048299 0.64381897
2.0041399 -0.24043399 0.64096695
2.0141201 -0.229286 0.63637996
2.0242 -0.22078699 0.63405299
1.96808 -0.348968 0.62712198
1.96804 -0.33594 0.62822199
1.95189 -0.31361401 0.63459593
1.95713 -0.29695201 0.63539398
1.9596499 -0.28007498 0.63634294
1.97834 -0.27454999 0.63310796
2.0060101 -0.237638 0.62962496
2.0123801 -0.228534 0.62656194
2.0151899 -0.218162 0.62697691
1.9639101 -0.33072898 0.62112397
1.9500901 -0.30936199 0.62679791
1.9557899 -0.29533601 0.62455398
1.9575701 -0.281194 0.62783897
1.9656501 -0.270881 0.62642896
2.0111001 -0.23735 0.61798096
2.01601 -0.228378 0.61662596
2.0222001 -0.21941401 0.613949
1.9475701 -0.306315 0.61742395
1.95566 -0.294581 0.61472791
1.95893 -0.28061399 0.61695296
1.9712601 -0.27272302 0.61380297
2.01649 -0.227166 0.60818297
2.0321898 -0.222736 0.60226095
1.9561701 -0.30847901 0.60202897
1.9487801 -0.293621 0.60841596
1.9587399 -0.28262198 0.60622895
1.9643201 -0.270565 0.60573995
2.0222399 -0.218372 0.59979194
1.9755 -0.31732699 0.58338392
1.95724 -0.29526502 0.59470993
1.95883 -0.27998799 0.59662497
1.9685401 -0.27157602 0.59259599
1.97957 -0.32007998 0.57246596
1.9614501 -0.29964599 0.58161491
1.9632201 -0.28285801 0.583314
1.9671201 -0.27084401 0.58370501
1.95927 -0.296224 0.572092
1.9678 -0.27150401 0.57404691
2.02969 -0.34881699 0.74923688
1.99761 -0.27184901 0.74998492
2.0256 -0.354092 0.73841691
1.9985601 -0.27201799 0.7423259
2.0206301 -0.27094901 0.74943101
2.0275102 -0.344497 0.7339769
2.0216601 -0.35808101 0.72863799
1.99738 -0.22772801 0.7426219
2.0111899 -0.229084 0.74794298
2.0179801 -0.23796 0.74745297
2.0034599 -0.26251599 0.73860288
2.0131199 -0.27266398 0.73874098
2.03615 -0.27354601 0.74587494
2.0529201 -0.29099101 0.74622095
2.0606699 -0.297041 0.74754697
2.00892 -0.359577 0.71718192
2.0274601 -0.354058 0.72428298
1.99774 -0.227889 0.73530394
2.0139 -0.22803 0.74049896
2.01987 -0.23769899 0.73970693
2.0076799 -0.25839299 0.73312294
2.0380001 -0.273307 0.73821497
2.0496001 -0.27875999 0.74184692
2.0518899 -0.29029101 0.73769999
2.0582201 -0.29773599 0.73799396
2.01578 -0.353297 0.71490896
2.0313101 -0.35089999 0.72037095
2.0027099 -0.22564399 0.7306459
2.0137398 -0.22812401 0.73297995
2.0225999 -0.233455 0.73414695
2.0109801 -0.25291699 0.72582895
2.0406101 -0.27419502 0.72959691
2.0474 -0.28079799 0.73206496
2.0559301 -0.28851402 0.73121798
2.06078 -0.295993 0.73124593
2.02127 -0.225091 0.72916597
2.01928 -0.23727199 0.72425687
2.0062602 -0.25543201 0.7155329
2.0408099 -0.273761 0.72162491
2.0497599 -0.27930799 0.72372794
2.0623701 -0.28347901 0.72685194
2.0590699 -0.296464 0.72233993
2.0192001 -0.22875601 0.71807295
2.0204802 -0.236882 0.71708894
1.99261 -0.284971 0.69091493
2.03971 -0.272232 0.7131989
2.04462 -0.28171802 0.71334791
2.05567 -0.28694299 0.7160089
2.0646501 -0.292568 0.716066
2.01508 -0.232256 0.70699799
2.0223701 -0.23694201 0.70871896
2.0005901 -0.269586 0.69186693
2.01387 -0.272661 0.6961019
2.0369201 -0.27053601 0.70444196
2.0508599 -0.27619201 0.7087689
2.06039 -0.28503799 0.70855695
2.0664399 -0.29246402 0.70868593
2.02336 -0.23757 0.70057791
2.0127599 -0.259047 0.69241899
2.0186501 -0.270208 0.6917069
2.0416701 -0.268574 0.69924194
2.05458 -0.27485099 0.7017079
2.0603199 -0.284159 0.70033896
2.06619 -0.29299101 0.69959992
2.02055 -0.24022199 0.69200689
2.0197999 -0.251513 0.68934995
2.0269299 -0.26470602 0.68822789
2.04684 -0.26789701 0.69299489
2.0509598 -0.27879101 0.69192797
2.0583298 -0.28672501 0.691589
2.06235 -0.29709601 0.68912095
2.0680799 -0.306456 0.6872679
2.0281401 -0.235457 0.69044894
2.04726 -0.26700002 0.68492293
2.0549002 -0.275702 0.686001
2.05687 -0.289094 0.68303895
2.0643401 -0.29738301 0.68199492
2.08008 -0.30102 0.68488592
2.08002 -0.313923 0.68118393
2.0485201 -0.26777899 0.67568094
2.0553598 -0.273065 0.67860395
2.0626402 -0.28302401 0.67831796
2.0738299 -0.29201099 0.67806494
2.0789101 -0.30260098 0.67710495
2.09025 -0.30825999 0.67888188
2.0936401 -0.31866398 0.67692399
2.0488801 -0.268608 0.66684997
2.0585699 -0.27234301 0.67168593
2.06618 -0.28258601 0.66999495
2.07798 -0.288627 0.6727159
2.08408 -0.29900998 0.67197692
2.09462 -0.307105 0.67267197
2.1004701 -0.31546 0.67293197
2.08672 -0.33638301 0.6626209
2.04809 -0.26843202 0.6579299
2.0611 -0.27140498 0.663472
2.06581 -0.28273499 0.66108096
2.07812 -0.28887999 0.66477293
2.0864 -0.297766 0.66467798
2.09307 -0.30595502 0.66550291
2.1011801 -0.31400901 0.66509497
2.0999 -0.32666698 0.66240996
2.0448301 -0.27013001 0.64856094
2.05355 -0.27511999 0.65036494
2.06779 -0.27834901 0.65591997
2.07513 -0.288932 0.65461594
2.0881901 -0.294177 0.65910196
2.09426 -0.30497101 0.65802091
2.10587 -0.310406 0.65920395
2.1091201 -0.31906602 0.65844399
2.04919 -0.26797301 0.6422869
2.05844 -0.27322599 0.64392
2.0631199 -0.28371599 0.64388496
2.07266 -0.29292101 0.64375693
2.0897501 -0.29510799 0.65098894
2.1033599 -0.30061701 0.65459692
2.1117599 -0.30647698 0.65513092
2.1192701 -0.31076598 0.65650094
2.0446401 -0.269979 0.63093293
2.0496299 -0.27784002 0.63126791
2.0660601 -0.280503 0.63705498
2.07324 -0.290402 0.63699895
2.0848801 -0.297111 0.63955992
2.09834 -0.30265701 0.64449394
2.1006598 -0.31279799 0.64200193
2.0478799 -0.267185 0.62506896
2.0526299 -0.274102 0.62500089
2.0605099 -0.28281701 0.62537193
2.0773599 -0.28507799 0.63229591
2.0806501 -0.29705998 0.62954295
2.0873899 -0.30696899 0.62968796
2.0478799 -0.26791501 0.61648393
2.05916 -0.27241698 0.61967295
2.06724 -0.279495 0.62104094
2.0719399 -0.289491 0.62041193
2.0780299 -0.300596 0.61862594
2.0659599 -0.320858 0.60717696
2.05129 -0.26506001 0.61024797
2.0538099 -0.27395499 0.60822397
2.06674 -0.27952 0.61342293
2.06745 -0.29406798 0.60833091
2.0711999 -0.30535999 0.60579991
2.05848 -0.32509899 0.59490097
2.04915 -0.266357 0.60093391
2.05475 -0.27292499 0.59985399
2.05971 -0.28372499 0.59988296
2.0708501 -0.292265 0.60117292
2.0682099 -0.30763599 0.595451
2.04703 -0.33644599 0.57420492
2.05091 -0.265993 0.59323293
2.05845 -0.27263999 0.59403199
2.0676401 -0.28130201 0.59522492
2.07108 -0.29410201 0.59263593
2.0595901 -0.31582999 0.58098394
2.04931 -0.33379701 0.57090491
2.04689 -0.26787299 0.58468896
2.0529101 -0.27410802 0.58525294
2.06374 -0.279787 0.58786291
2.0701699 -0.29049999 0.58718294
2.06797 -0.30671701 0.5815779
2.0196099 -0.225757 0.74991995
2.02318 -0.23286501 0.74953997
2.01317 -0.24739599 0.74243897
2.03985 -0.26994401 0.74748397
2.0432401 -0.27798301 0.7473219
2.0515499 -0.284264 0.74827594
2.0580599 -0.29154101 0.74785095
2.0318301 -0.32369 0.72887194
2.01828 -0.227982 0.74214095
2.0282099 -0.230749 0.74440092
2.01632 -0.24535601 0.73648298
2.04231 -0.26794201 0.74104196
2.0466299 -0.27581 0.74069792
2.05458 -0.284468 0.74179196
2.05178 -0.29935199 0.73575896
2.0356798 -0.32067299 0.72574294
2.0161099 -0.34277099 0.71440893
2.0197999 -0.23621 0.73342592
2.0194001 -0.24410999 0.72945189
2.0437 -0.266913 0.73432803
2.05006 -0.27285701 0.73387599
2.0543799 -0.28398898 0.73339194
2.05498 -0.29635599 0.73067796
2.0444 -0.313247 0.7230249
2.0178199 -0.238234 0.72467893
2.0081599 -0.251214 0.71747696
2.04776 -0.26498899 0.72744596
2.05404 -0.27241099 0.7280879
2.06072 -0.28024599 0.72902191
2.05604 -0.29512101 0.72365797
2.0466299 -0.311295 0.7166779
2.02194 -0.236129 0.72105098
2.0434 -0.26621801 0.71727693
2.0487499 -0.27336702 0.71752495
2.0613699 -0.27938101 0.722224
2.05948 -0.29355699 0.71609193
2.0583401 -0.30442399 0.71482599
2.0204401 -0.239051 0.70318192
2.0030499 -0.26767701 0.69067293
2.0401101 -0.26654601 0.70750594
2.05231 -0.27114299 0.71169794
2.05481 -0.28325301 0.70972496
2.0617399 -0.29375499 0.70888597
2.0639901 -0.30247298 0.70843893
2.0255401 -0.23561101 0.700526
2.01718 -0.249753 0.69486696
2.0177 -0.26283899 0.69226694
2.0343599 -0.26788899 0.69657898
2.04758 -0.27458298 0.70137697
2.0558 -0.283485 0.70170897
2.0602999 -0.29345301 0.70126098
2.0669701 -0.30208299 0.70161295
2.05198 -0.32108399 0.69159395
2.0313499 -0.23197599 0.69849497
2.0167 -0.25033 0.68929398
2.02299 -0.262476 0.68788892
2.0353599 -0.267169 0.69050699
2.04423 -0.274189 0.69154197
2.0571601 -0.28085801 0.69558793
2.06216 -0.290613 0.69549996
2.06815 -0.30066001 0.69415694
2.06218 -0.316286 0.68831289
2.0274401 -0.23385401 0.69175094
2.039 -0.26675302 0.68516296
2.0493 -0.272475 0.68530297
2.05459 -0.280882 0.68685693
2.0652499 -0.288919 0.68892694
2.0750599 -0.29802799 0.68872696
2.0731499 -0.31022498 0.68652189
2.0751901 -0.31960601 0.68353099
2.0443101 -0.26628402 0.67777896
2.0522501 -0.27138799 0.67946893
2.05935 -0.2798 0.68040597
2.07218 -0.28751698 0.683222
2.0831001 -0.294063 0.68519098
2.0833502 -0.305352 0.68386495
2.0973599 -0.30864701 0.68565094
2.03385 -0.27243298 0.66289794
2.0497301 -0.273716 0.67029101
2.06775 -0.27603501 0.67604798
2.06882 -0.28677499 0.67492193
2.0833199 -0.29107901 0.67888296
2.0941701 -0.29901898 0.68105894
2.1036401 -0.30705899 0.68056196
2.1001601 -0.320182 0.67561591
2.0257001 -0.27657601 0.6499719
2.0503399 -0.272255 0.66217798
2.0664501 -0.27573001 0.66799796
2.0761099 -0.28410199 0.67018098
2.0903399 -0.29044202 0.67372596
2.1014299 -0.29750499 0.67610192
2.1094298 -0.30405101 0.67722398
2.1054499 -0.317554 0.67181396
2.0903599 -0.33738801 0.66179496
2.0245101 -0.277145 0.64102691
2.04864 -0.27295402 0.65302992
2.0643601 -0.27628201 0.65882796
2.0776801 -0.282199 0.66270697
2.0882401 -0.28985101 0.66489691
2.1006501 -0.29610699 0.66848201
2.1069601 -0.30516601 0.66927892
2.1116099 -0.31347701 0.66616797
2.09166 -0.336851 0.65719795
2.01898 -0.279347 0.63009894
2.0434301 -0.275107 0.64212
2.06197 -0.276813 0.64955091
2.07745 -0.281501 0.65447199
2.08777 -0.28930402 0.6565479
2.0985999 -0.29649001 0.65949494
2.10798 -0.30415002 0.66199195
2.1115601 -0.31382298 0.65873301
2.1042199 -0.32802299 0.65253198
2.01861 -0.27901 0.62396997
2.0408299 -0.27567899 0.63347399
2.0592799 -0.277062 0.64015794
2.07021 -0.28422999 0.64262992
2.0824201 -0.29131702 0.6452139
2.0984199 -0.29554099 0.65134895
2.1068602 -0.30427799 0.653575
2.11485 -0.310159 0.65451998
2.1043601 -0.32771197 0.64683199
2.0169299 -0.279504 0.61784291
2.0555 -0.27146602 0.63263792
2.0683501 -0.27559999 0.63672096
2.07814 -0.28323099 0.63868392
2.08413 -0.29122499 0.63879496
2.0926199 -0.29743299 0.64084893
2.1035399 -0.30365101 0.64439392
2.0553999 -0.27207601 0.62640494
2.0611901 -0.27806801 0.62722796
2.0743899 -0.282572 0.63160998
2.08746 -0.289332 0.63528794
2.09021 -0.301117 0.63320595
2.08532 -0.31468099 0.62745196
1.9576601 -0.29380199 0.73937994
1.97338 -0.27922899 0.74339795
1.9567101 -0.29503098 0.73338592
1.9708501 -0.28091601 0.73666793
2.0034499 -0.23000799 0.7449649
2.0119901 -0.24329799 0.74675488
2.0252001 -0.28444901 0.742733
2.00705 -0.227714 0.74014395
2.01928 -0.230297 0.74468595
2.0187199 -0.239226 0.74321991
2.02179 -0.284951 0.73366493
2.0483298 -0.28162801 0.74563098
2.0599201 -0.28893101 0.74944901
2.06019 -0.29991099 0.74667692
2.0698199 -0.30360299 0.74923491
2.00687 -0.228173 0.73437995
2.02371 -0.22891501 0.74093193
2.0083001 -0.24385901 0.73216796
2.0185401 -0.28599301 0.72658098
2.04528 -0.28150401 0.73743594
2.0615699 -0.28479999 0.74277389
2.06792 -0.29455 0.74349296
2.0706899 -0.30276099 0.74127597
2.0060699 -0.22924601 0.72869897
2.0202799 -0.28474399 0.72260797
2.05638 -0.27778199 0.73408294
2.06622 -0.284756 0.73691195
2.0704501 -0.29438999 0.73620588
2.06778 -0.305029 0.731736
2.03388 -0.27816498 0.71613592
2.0592 -0.27719101 0.72737002
2.07041 -0.28414699 0.73148191
2.0676899 -0.29630101 0.72666991
2.0691001 -0.30437002 0.72554398
2.0048199 -0.24134701 0.70106894
2.0311501 -0.26643199 0.70914894
2.0453901 -0.27176601 0.71541697
2.0588601 -0.275996 0.72039396
2.0612299 -0.287065 0.71889693
2.06845 -0.295302 0.71993589
2.07177 -0.30254599 0.71970195
2.0187399 -0.235093 0.70276499
2.0103102 -0.24760701 0.69718897
2.0130498 -0.26019698 0.69566399
2.02636 -0.26614201 0.70087898
2.0380001 -0.27175599 0.70498794
2.0562 -0.27607098 0.712129
2.06106 -0.285741 0.71094996
2.06457 -0.29681399 0.7101959
2.06545 -0.306355 0.70868492
2.0178199 -0.235847 0.69695592
2.01425 -0.24610001 0.69352496
2.0088799 -0.26132798 0.68717694
2.0311301 -0.26450199 0.69629997
2.04879 -0.26963601 0.70254493
2.06059 -0.275888 0.70651597
2.06178 -0.28697398 0.70360792
2.0630999 -0.298482 0.70032591
2.07039 -0.30479202 0.70290297
2.0009699 -0.24352801 0.68332595
2.00161 -0.252428 0.68151993
2.0316801 -0.264368 0.68940091
2.04443 -0.26983401 0.692931
2.0561302 -0.277749 0.69621193
2.06358 -0.28757501 0.69656098
2.0726099 -0.293888 0.698753
2.07143 -0.30498898 0.6951319
2.0649002 -0.31767598 0.69006997
2.00243 -0.28274599 0.66316092
2.02406 -0.27923799 0.67481595
2.0469701 -0.27867499 0.68411094
2.06108 -0.285478 0.68782789
2.0684199 -0.29550099 0.68997401
2.07902 -0.301967 0.69062197
2.07744 -0.31304801 0.68821198
2.02684 -0.280166 0.66903496
2.0553701 -0.27717102 0.68062896
2.0669701 -0.282554 0.68289995
2.0705199 -0.293015 0.6828559
2.0840101 -0.298704 0.68583596
2.0907001 -0.30757999 0.68667394
2.07867 -0.323064 0.67878693
2.0285401 -0.28056201 0.66429693
2.06426 -0.27585801 0.67703897
2.0663099 -0.28462699 0.67507195
2.0810099 -0.28927499 0.67988294
2.09179 -0.29697099 0.68196696
2.09849 -0.30571401 0.68270898
2.1027901 -0.31222001 0.68361199
2.0699301 -0.27458501 0.67263299
2.06867 -0.28451699 0.66845399
2.0862501 -0.288367 0.67528093
2.0938499 -0.29539901 0.67666894
2.0987601 -0.304122 0.67657995
2.10443 -0.31211001 0.67762995
2.09867 -0.32409698 0.67171395
2.06723 -0.276142 0.66466093
2.0715401 -0.28217199 0.66460097
2.07987 -0.28855601 0.66681296
2.0957999 -0.29370999 0.67268896
2.09585 -0.30603799 0.66948998
2.1062701 -0.31142598 0.67284393
2.10253 -0.32255402 0.66823596
1.97781 -0.26002398 0.74950296
1.98428 -0.28309602 0.74643195
1.98922 -0.274048 0.74600595
1.97509 -0.28755799 0.73756194
1.9924899 -0.26507601 0.7447409
1.9754 -0.28790399 0.73329192
2.03616 -0.285234 0.74701899
2.0365801 -0.28429002 0.73908997
2.0500998 -0.28808099 0.74514192
2.06738 -0.30285999 0.74950498
2.0702801 -0.310633 0.74800092
2.0339701 -0.284051 0.73110992
2.0520301 -0.28534001 0.73865801
2.06129 -0.29377601 0.74185699
2.0667 -0.303675 0.74106491
2.0662501 -0.31233498 0.73936689
2.03721 -0.28217801 0.72543597
2.06229 -0.28284001 0.73566794
2.0694201 -0.292317 0.73793292
2.0769799 -0.29882699 0.73873895
2.0699799 -0.31054801 0.73402697
2.0324001 -0.274863 0.71693498
2.0448399 -0.27850401 0.72157091
2.06007 -0.28261802 0.72702098
2.0708201 -0.29051 0.73074996
2.06795 -0.30340499 0.72714496
2.0672998 -0.311887 0.72538096
2.0381598 -0.271198 0.71179193
2.05234 -0.27655199 0.7179209
2.07078 -0.28006202 0.72590292
2.0705199 -0.28965199 0.72310495
2.07252 -0.29930902 0.72249597
2.0736001 -0.30833599 0.72105193
2.0192599 -0.243809 0.69815391
2.01174 -0.25595102 0.69339293
2.0195398 -0.26541299 0.69640398
2.03897 -0.26914302 0.70462096
2.0499201 -0.27575299 0.70941895
2.0625999 -0.282985 0.71445394
2.07146 -0.29084501 0.71683294
2.06707 -0.302609 0.71205193
2.0695601 -0.31058002 0.71036696
2.0193801 -0.24289699 0.69432294
2.0173399 -0.25236699 0.69162697
2.01686 -0.26313102 0.68968093
2.039 -0.26673001 0.69813395
2.04842 -0.274831 0.70131493
2.0603399 -0.28147599 0.70637894
2.06583 -0.29213601 0.70622092
2.0695901 -0.30269802 0.70584089
2.0754099 -0.30940902 0.70502591
2.0097899 -0.24563299 0.68515992
2.02846 -0.26133499 0.68878096
2.0372701 -0.26812598 0.69025397
2.0427001 -0.27591699 0.69097495
2.0589199 -0.28220901 0.697559
2.06445 -0.29194501 0.69710892
2.07444 -0.300006 0.70071495
2.0802 -0.30917102 0.69976097
2.06443 -0.323551 0.69044793
2.04477 -0.26750499 0.68720293
2.0546501 -0.27457002 0.6897009
2.0643101 -0.28269899 0.69233495
2.0734 -0.29083401 0.69489497
2.08167 -0.299283 0.69676393
2.0784101 -0.31125098 0.69223893
2.07476 -0.32062802 0.68928599
2.0320799 -0.27268699 0.67430395
2.04953 -0.27467 0.6818459
2.06499 -0.27936301 0.68790895
2.0701602 -0.28904301 0.68839294
2.0827498 -0.295701 0.69284296
2.0813401 -0.307807 0.68955195
2.0869401 -0.31531999 0.69057298
2.0671301 -0.33169103 0.67833692
2.01267 -0.225399 0.74987692
2.0071201 -0.22624099 0.74214602
2.05352 -0.32964501 0.74482393
2.0566201 -0.28197899 0.747352
2.06288 -0.31077299 0.74652296
2.06423 -0.31950799 0.74469095
2.05583 -0.32974201 0.73959696
2.06286 -0.27981099 0.74297595
2.0666201 -0.28644198 0.74393797
2.0712099 -0.294406 0.74498487
2.0687101 -0.30766898 0.74189395
2.07163 -0.31686601 0.74173796
2.0592599 -0.32841 0.73425895
2.05618 -0.279237 0.73159999
2.07054 -0.285537 0.73844498
2.0739799 -0.29554 0.73937196
2.0708599 -0.30626899 0.73530495
2.0720799 -0.31607598 0.73514193
2.06409 -0.326828 0.72863692
2.0474699 -0.27218801 0.72093993
2.06178 -0.277814 0.72730994
2.0690601 -0.28640199 0.72987092
2.07441 -0.29559499 0.73201895
2.0718501 -0.30825099 0.72867692
2.07024 -0.31831399 0.72680891
2.0673399 -0.326482 0.72278696
2.0337 -0.267178 0.708305
2.05022 -0.27107999 0.71600097
2.0608501 -0.27790999 0.71955401
2.0685799 -0.285714 0.72286797
2.0770199 -0.29309601 0.72653002
2.0760899 -0.30458701 0.72339296
2.072 -0.31724399 0.72031099
2.0687699 -0.32597402 0.71713197
2.0356901 -0.266179 0.70372993
2.04598 -0.27034199 0.70817494
2.0559499 -0.27718699 0.71121293
2.06704 -0.285355 0.71544397
2.0713401 -0.29570299 0.71657097
2.0768299 -0.304544 0.71708697
2.07584 -0.31433001 0.71512693
2.0776701 -0.32236698 0.71580291
2.04932 -0.27027398 0.70445198
2.05791 -0.276862 0.70706093
2.0627401 -0.284868 0.70806992
2.07184 -0.29365 0.71158898
2.07303 -0.30553302 0.71015894
2.07019 -0.316214 0.70691895
2.07616 -0.32205001 0.70920295
1.9634801 -0.316596 0.74789995
1.9811599 -0.31209999 0.73642701
1.9736301 -0.30819499 0.73232299
1.96302 -0.290382 0.74908394
1.96694 -0.27687901 0.74784696
1.97241 -0.26617 0.74355394
1.97631 -0.30778798 0.71543199
1.9629201 -0.28953502 0.73390394
1.9694501 -0.27613699 0.73164594
1.9775901 -0.265746 0.72394198
1.96852 -0.30340701 0.70916992
1.96826 -0.292548 0.71379691
1.96937 -0.276429 0.71591491
1.9795899 -0.264633 0.70913798
1.9929601 -0.25843799 0.70046592
1.9570199 -0.28534901 0.70920295
1.9625599 -0.273197 0.70655596
1.9679899 -0.26175502 0.70696294
1.98634 -0.256179 0.69243997
1.9622799 -0.285961 0.689237
1.9608999 -0.27419502 0.69504094
1.96559 -0.26118001 0.69490898
1.984 -0.254466 0.67988497
1.95521 -0.28261298 0.68485695
1.96041 -0.27231899 0.68468392
1.9706 -0.26080799 0.67910296
1.98373 -0.25337699 0.66948593
1.96957 -0.30242598 0.73686099
1.96016 -0.286632 0.74921691
1.9714 -0.26667899 0.74660295
1.96544 -0.28852201 0.73109597
1.96473 -0.275985 0.7377249
1.9695899 -0.26602 0.73313993
1.9627 -0.286589 0.71703798
1.9634 -0.27506599 0.72344393
1.9721899 -0.26686299 0.71563601
1.9629101 -0.287568 0.70159495
1.9666499 -0.27666798 0.702959
1.96961 -0.26578599 0.70381492
1.97501 -0.30799699 0.66949797
1.9607401 -0.288427 0.68876195
1.9659899 -0.276997 0.68921393
1.9618801 -0.26318601 0.69759196
1.9601899 -0.30156401 0.67364794
1.95146 -0.28518701 0.68694597
1.9590199 -0.27474502 0.68471992
1.9603 -0.26288098 0.68803191
1.9355099 -0.30541301 0.73084903
1.93014 -0.29490399 0.73307496
1.93827 -0.304928 0.7233969
1.94049 -0.295838 0.72255999
1.93485 -0.30339599 0.71575296
1.9322301 -0.29145899 0.71683294
1.9296899 -0.27978399 0.71771592
1.93612 -0.304057 0.70494193
1.93401 -0.29172301 0.70765394
1.9372901 -0.28007099 0.70786798
1.9350301 -0.266561 0.70766097
1.93301 -0.30372399 0.69712293
1.9379401 -0.293598 0.69599295
1.9335099 -0.27707702 0.69977194
1.93007 -0.26293901 0.70096189
1.9157801 -0.25070399 0.707923
1.9372001 -0.303772 0.68691695
1.93528 -0.292891 0.68821096
1.9373801 -0.279641 0.68808997
1.93155 -0.26413301 0.69250089
1.9465401 -0.256589 0.68747795
1.9260299 -0.299564 0.68193299
1.93349 -0.29120502 0.68058395
1.9349699 -0.27796599 0.67868495
1.93761 -0.26674899 0.6814189
1.93716 -0.29017699 0.66902298
1.94276 -0.279414 0.66633296
1.9403 -0.26798701 0.6699
1.93462 -0.28878501 0.66031098
1.93748 -0.279181 0.65967995
1.94473 -0.27001801 0.65746695
1.9277 -0.28514001 0.65456498
1.94436 -0.278828 0.64858598
1.9428 -0.26876 0.6476869
1.9427 -0.27700999 0.64030099
1.9421099 -0.26785401 0.63797897
1.93968 -0.27531299 0.63095289
1.9463 -0.26815799 0.62644595
1.9359399 -0.27394399 0.62241495
1.94916 -0.268778 0.61548495
1.94112 -0.275085 0.61056495
1.9456 -0.268076 0.60694593
1.94268 -0.275451 0.60004395
1.94775 -0.26856199 0.59616995
1.9467999 -0.27696899 0.58809298
1.94933 -0.26952401 0.585208
1.9508901 -0.27930799 0.57494092
1.95532 -0.27079901 0.57278991
1.95636 -0.317518 0.68176794
1.9488699 -0.31601998 0.67739898
1.9385699 -0.300603 0.68239099
1.97127 -0.33521703 0.66075194
1.95382 -0.318459 0.66707593
1.94338 -0.30164701 0.67332995
1.93392 -0.28617001 0.67706794
1.96 -0.33254901 0.6553359
1.95718 -0.320068 0.65691793
1.93973 -0.30056801 0.66546094
1.94152 -0.28739202 0.66686493
1.94133 -0.27573901 0.66590589
1.94504 -0.32844397 0.65073895
1.9525101 -0.32049099 0.65047997
1.94312 -0.303913 0.65469795
1.93941 -0.28658599 0.65763891
1.94741 -0.27605802 0.65372992
1.92261 -0.31977698 0.65060896
1.9485899 -0.317848 0.64313596
1.93664 -0.29868099 0.64779794
1.93922 -0.283939 0.64727694
1.9505701 -0.27405199 0.64279693
1.9411501 -0.311737 0.63665497
1.93853 -0.29587299 0.63727295
1.94566 -0.28309402 0.63531196
1.95926 -0.273471 0.62995392
1.98395 -0.26847801 0.62059492
1.9407699 -0.29699901 0.62660998
1.94164 -0.284839 0.62812996
1.9506199 -0.273215 0.62503099
1.9758099 -0.26734 0.61548698
1.94408 -0.29582101 0.61414289
1.9425999 -0.28415799 0.61844796
1.9587801 -0.27441999 0.61207396
1.97578 -0.26697001 0.60479492
1.95087 -0.29697901 0.60098892
1.94318 -0.28302601 0.60808492
1.95803 -0.273197 0.60218096
1.98314 -0.26842698 0.59177697
1.94986 -0.29713899 0.59106392
1.9555099 -0.28585199 0.59248996
1.96277 -0.273433 0.59082192
1.9791901 -0.26706499 0.58343196
1.9561501 -0.29936501 0.57862693
1.9478101 -0.285835 0.58529693
1.9604499 -0.27462998 0.58101898
1.98093 -0.26793101 0.57339197
1.9474601 -0.296417 0.57213897
1.9553 -0.28745899 0.57275289
1.95612 -0.27458501 0.57184392
2.0087299 -0.24789801 0.74618894
1.96407 -0.32941899 0.74095595
1.9476199 -0.31109399 0.74889594
1.98655 -0.25488299 0.74257797
2.0134599 -0.24605301 0.73636401
1.9955701 -0.225618 0.74302995
2.0023801 -0.215289 0.74114496
1.96401 -0.32955399 0.73157495
1.9497701 -0.31226599 0.73849595
1.94633 -0.29624501 0.74206895
1.94752 -0.27785999 0.74278396
1.9581 -0.26168799 0.74064589
1.9851199 -0.25449198 0.7329129
2.00789 -0.24717699 0.72874796
1.99599 -0.22650801 0.73370796
2.0029402 -0.212846 0.73096389
2.0178499 -0.20507601 0.72685492
1.96418 -0.32850498 0.7231549
1.9502699 -0.312525 0.72944993
1.9480901 -0.29546499 0.73124796
1.94064 -0.27632099 0.73495096
1.95 -0.26428401 0.73319292
1.97192 -0.253627 0.72751892
1.99954 -0.24364701 0.72064799
1.9965199 -0.222767 0.7231549
2.00297 -0.20942801 0.72238493
2.0213201 -0.204107 0.71760893
1.94168 -0.305953 0.72285491
1.94519 -0.293823 0.72274292
1.9493899 -0.27994001 0.72289598
1.95559 -0.26277399 0.72101492
1.9760201 -0.250388 0.71697098
2.00245 -0.244031 0.70972794
1.9999499 -0.227267 0.711317
2.0018301 -0.21107201 0.71301895
2.0155702 -0.202526 0.7106449
1.9428999 -0.304342 0.71094191
1.94233 -0.29205701 0.71490896
1.94425 -0.27605101 0.71420789
1.9481101 -0.25996301 0.71255296
1.97101 -0.25097701 0.70835793
1.9946201 -0.24117599 0.70288795
1.99931 -0.225945 0.70155889
2.0005901 -0.212561 0.70379692
2.00647 -0.20173299 0.70248091
1.9447999 -0.30584899 0.69966894
1.9403501 -0.29057398 0.70452601
1.93924 -0.27264401 0.70574492
1.94645 -0.25929502 0.70386094
1.96383 -0.24971001 0.7005319
1.9893299 -0.24259099 0.69484693
1.9965401 -0.228246 0.69321495
2.00107 -0.21262899 0.69348794
2.0070601 -0.201507 0.69052994
1.95324 -0.31047702 0.68732291
1.94301 -0.294875 0.69270593
1.94756 -0.280954 0.69307595
1.9408799 -0.26163998 0.69660896
1.95327 -0.24878901 0.69403595
1.9839799 -0.23957001 0.68583196
1.9929401 -0.22367901 0.68575495
1.99982 -0.21092199 0.68342292
2.0070901 -0.201077 0.67998093
1.9463401 -0.30798098 0.679555
1.94313 -0.29242599 0.68400294
1.94451 -0.27707899 0.68446791
1.9429801 -0.25957501 0.68659699
1.9663901 -0.25044799 0.67988592
1.99165 -0.24129 0.67149293
1.9943601 -0.224622 0.67534095
2.0044901 -0.21205601 0.67174894
2.01264 -0.202425 0.66823995
1.9666499 -0.32864103 0.66132492
1.9527299 -0.31255999 0.66638994
1.94548 -0.29329902 0.67271495
1.94152 -0.27340499 0.67594796
1.9458299 -0.258378 0.67685896
1.97461 -0.25339702 0.66712493
1.9955499 -0.24304001 0.6607179
2.00102 -0.225867 0.66219091
1.99777 -0.20884199 0.66456091
2.0195398 -0.20425801 0.65600199
1.9656399 -0.328567 0.65295899
1.94871 -0.31175199 0.65928793
1.94748 -0.29779601 0.66105998
1.94322 -0.27887899 0.66485894
1.9522099 -0.264016 0.66430396
1.98431 -0.25935701 0.65445989
2.0050302 -0.22712299 0.65090096
2.0102301 -0.21360201 0.64950591
2.0160899 -0.20363899 0.64786994
1.94512 -0.307695 0.65170693
1.9437801 -0.29209298 0.65342796
1.94409 -0.276245 0.65573394
1.9606 -0.268374 0.65023291
2.0071599 -0.223149 0.63976198
2.0058799 -0.211795 0.64109397
2.01861 -0.20507 0.63717699
1.94704 -0.30689099 0.63909894
1.94243 -0.29358101 0.64425993
1.94862 -0.279728 0.64348298
1.95566 -0.26724702 0.63951993
2.01092 -0.222113 0.62899995
2.0069799 -0.211392 0.63194197
2.0193501 -0.204237 0.62628496
1.94787 -0.30647698 0.6279099
1.9431399 -0.291906 0.63387895
1.94616 -0.27665502 0.63447398
1.96084 -0.26812699 0.62783998
1.97506 -0.26168099 0.62425894
2.0101199 -0.21094999 0.62198901
2.02211 -0.20427601 0.61735892
1.9619501 -0.31175101 0.61249495
1.9510001 -0.29553401 0.61992699
1.9536 -0.28058398 0.62229896
1.9553599 -0.266956 0.62072295
1.9676199 -0.25873199 0.61731696
2.02178 -0.20365499 0.61139399
1.97821 -0.31695998 0.5972209
1.96573 -0.30046698 0.60404098
1.95125 -0.280141 0.61308593
1.96152 -0.26780599 0.6091969
1.9696699 -0.25825301 0.60589391
1.97321 -0.301801 0.59088999
1.96066 -0.28219402 0.59880495
1.96339 -0.267151 0.59898895
1.9817101 -0.26251701 0.59080094
1.9707299 -0.298915 0.58046198
1.96114 -0.28403699 0.58798492
1.9649899 -0.26950601 0.58794492
1.98567 -0.26330099 0.57901192
1.9691 -0.29731899 0.57023597
1.9607 -0.281459 0.57766795
1.9657201 -0.2676 0.57691896
1.96369 -0.33397302 0.74823701
2.0111599 -0.247003 0.74370193
1.99825 -0.21444599 0.7498439
1.9641 -0.332652 0.73811197
1.94915 -0.31154099 0.74428499
1.94683 -0.29365599 0.74632597
1.9553 -0.26459 0.74683702
1.9741299 -0.25433901 0.74254298
2.0142601 -0.249221 0.73439795
1.99646 -0.226036 0.74034292
2.0039599 -0.215462 0.73881894
1.96752 -0.33312199 0.726951
1.9535699 -0.31421301 0.733127
1.95078 -0.29790398 0.73631698
1.94756 -0.27775601 0.73856997
1.95986 -0.26299801 0.73596495
1.97983 -0.25357801 0.73104197
2.0031199 -0.245425 0.72694093
1.9977499 -0.22465 0.72891802
2.0004601 -0.21236299 0.73016191
1.9561099 -0.313968 0.72239393
1.9465801 -0.29472101 0.72791201
1.9442799 -0.27714598 0.72970992
1.95324 -0.26486 0.72803694
1.9765199 -0.25461301 0.72198397
1.99708 -0.24572901 0.71886092
2.0018799 -0.229627 0.71759194
2.0037398 -0.213101 0.71892494
2.02091 -0.20735399 0.71490097
1.9554 -0.31081802 0.7130509
1.94252 -0.29352 0.71946996
1.9462601 -0.278283 0.71974695
1.9565899 -0.262905 0.71653593
1.97831 -0.253178 0.71144897
1.9922 -0.24289699 0.71060693
1.9986701 -0.22898899 0.70827293
2.0034301 -0.21459499 0.70884597
2.0144799 -0.20475 0.70649195
1.9383701 -0.28736201 0.71099198
1.94425 -0.273918 0.71058393
1.94888 -0.25957701 0.70844793
1.9690199 -0.251816 0.705338
1.99184 -0.24159099 0.69960099
1.99582 -0.22454201 0.70091391
2.0005999 -0.21062201 0.70004791
2.0171499 -0.20363501 0.69454992
1.9385 -0.286053 0.69885898
1.9429201 -0.27395099 0.70044893
1.94458 -0.257707 0.70015889
1.9679101 -0.249852 0.69558001
1.99222 -0.240963 0.68815994
1.99577 -0.223941 0.69055694
2.0055599 -0.21074499 0.68833399
2.0163901 -0.202904 0.68540692
1.93849 -0.285788 0.68823695
1.94225 -0.27605399 0.690516
1.9413099 -0.26033601 0.69220293
1.9602799 -0.250696 0.68735397
1.98532 -0.24270301 0.68034393
1.99734 -0.227577 0.67802501
2.0014 -0.21229701 0.68042791
2.01244 -0.20289101 0.67699295
1.99264 -0.34823599 0.65191191
1.97082 -0.32545298 0.66046995
1.93696 -0.286369 0.67878497
1.9411501 -0.27389401 0.68105197
1.9425999 -0.25758898 0.68291396
1.9627099 -0.24931601 0.67664194
1.99141 -0.241392 0.667418
2.0043499 -0.22756901 0.66558892
1.9988699 -0.21101999 0.67133492
2.0183501 -0.20556802 0.66352898
1.98282 -0.34296599 0.64813596
1.97216 -0.325046 0.65219194
1.94656 -0.29596001 0.66500694
1.93933 -0.27585301 0.67170393
1.95108 -0.26299399 0.66959894
1.97297 -0.25327802 0.66236794
1.99698 -0.24377501 0.65449393
2.00142 -0.22781901 0.65672296
2.0059099 -0.21319 0.65863889
2.0164599 -0.20475401 0.65348297
1.97718 -0.34146702 0.64143592
1.99308 -0.33890498 0.63633698
1.94318 -0.292741 0.65703291
1.94328 -0.27719101 0.66085792
1.9536799 -0.263843 0.65763992
1.9724699 -0.25562099 0.65164995
2.0188901 -0.24703801 0.638147
2.00263 -0.227623 0.6462869
2.0060899 -0.21368401 0.64833397
2.0201499 -0.20627199 0.64174592
1.9738201 -0.34120601 0.63527989
1.9988 -0.342058 0.62737495
1.94321 -0.289969 0.64719093
1.9483399 -0.278615 0.64785993
1.9550999 -0.26481199 0.64637595
1.9672501 -0.25699899 0.64178896
2.0138099 -0.228981 0.63237792
2.0099699 -0.214802 0.63640594
2.02052 -0.205844 0.63129199
1.9402601 -0.286708 0.63841993
1.94502 -0.275076 0.63945693
1.9605701 -0.267492 0.63394594
1.9643101 -0.25659201 0.63210195
2.0149801 -0.22696699 0.62192398
2.01442 -0.21508801 0.623761
2.0195599 -0.205415 0.62198591
1.94564 -0.28924102 0.62485993
1.94941 -0.27776501 0.62783694
1.95801 -0.26661599 0.62450689
1.9706199 -0.25862801 0.61958498
2.0114799 -0.212439 0.61534697
2.0183799 -0.204202 0.61285096
1.9475399 -0.29080099 0.61324096
1.95052 -0.278602 0.61649698
1.96172 -0.26720101 0.61217493
1.974 -0.25965101 0.60948098
2.01703 -0.213312 0.60401189
2.0244901 -0.20565501 0.60163695
1.9545399 -0.29407901 0.60083991
1.9519701 -0.279089 0.60392398
1.9654 -0.26899001 0.60021895
1.9655099 -0.256495 0.60335594
2.0253201 -0.20461398 0.59462392
1.94972 -0.291098 0.59233397
1.9536099 -0.27939698 0.59257698
1.95281 -0.26565301 0.59611893
1.9669501 -0.258591 0.59162694
1.9523399 -0.293376 0.57962096
1.9541299 -0.280532 0.5823139
1.95943 -0.26805401 0.58392996
1.96823 -0.259029 0.57950693
1.9607401 -0.26858199 0.57266998
2.0380499 -0.33180198 0.74745589
2.0393 -0.2852 0.7401889
2.0457299 -0.29306102 0.74418592
2.05562 -0.301321 0.74893194
2.04813 -0.311573 0.74512595
2.0483401 -0.32287499 0.74445397
2.03968 -0.332111 0.74065894
2.02528 -0.34026 0.73387599
2.0381899 -0.28385001 0.73313195
2.0436699 -0.291666 0.73650301
2.0520201 -0.30127701 0.74121696
2.05076 -0.311533 0.73911095
2.0501101 -0.32122698 0.73938799
2.04478 -0.33131599 0.73652893
2.0312099 -0.340372 0.72989595
2.0355799 -0.283225 0.72694594
2.0442998 -0.29047301 0.73142987
2.0502901 -0.300758 0.73440599
2.0466099 -0.31186301 0.73193389
2.0492699 -0.32219201 0.73348099
2.0434501 -0.33290797 0.73059797
2.0309701 -0.34132802 0.72428101
1.95609 -0.25032699 0.74868196
1.95496 -0.25635901 0.74852598
1.94945 -0.249576 0.73722994
1.95857 -0.25678301 0.74308497
1.9846699 -0.21881399 0.74355996
1.994 -0.226138 0.74961591
1.95468 -0.25019699 0.73247796
1.95547 -0.25608298 0.73313195
1.9857299 -0.218963 0.73809594
1.99006 -0.225435 0.74109495
1.9533299 -0.24988899 0.72497696
1.96357 -0.25672302 0.72847593
1.98612 -0.218328 0.73354292
1.9633099 -0.25110799 0.72267592
1.96807 -0.25757602 0.72453398
1.9648499 -0.25105101 0.71795791
2.04617 -0.29172799 0.74454194
2.04791 -0.30131799 0.74647093
2.0471401 -0.31204501 0.74629593
2.04772 -0.339728 0.7479279
2.0286601 -0.28240401 0.72892296
2.04633 -0.29191402 0.73731798
2.05441 -0.302461 0.74187195
2.05583 -0.311652 0.744039
2.0479 -0.322207 0.74037993
2.0436301 -0.33238602 0.73900598
2.0434399 -0.33970797 0.73758096
2.0338099 -0.28255302 0.72477394
2.0458999 -0.29118299 0.73034894
2.0479701 -0.30099198 0.73222899
2.05023 -0.31237498 0.734478
2.0561099 -0.322932 0.73735893
2.0496001 -0.33213198 0.73463792
2.04001 -0.339775 0.72916895
2.0298901 -0.28126401 0.71755797
2.0381598 -0.28929299 0.72173691
2.0483501 -0.29910401 0.72706991
2.0501499 -0.31030899 0.72876894
2.0496399 -0.32257402 0.7291159
2.04895 -0.33311799 0.72869897
2.03865 -0.340258 0.72342092
2.0234802 -0.33427101 0.74826193
2.0434999 -0.320171 0.74971998
2.0441201 -0.32951599 0.74940193
2.0245399 -0.33446601 0.74259686
2.0505099 -0.30229798 0.74379992
2.05546 -0.31064302 0.74681395
2.04795 -0.31985 0.74368393
2.0471201 -0.33041698 0.74372697
2.02986 -0.33511397 0.7376579
2.0520301 -0.30187598 0.73627001
2.0572901 -0.31083301 0.74095696
2.0498099 -0.319177 0.73608696
2.0522001 -0.330075 0.73896295
2.03865 -0.33626702 0.7342819
2.0524399 -0.301734 0.72923195
2.05351 -0.30981502 0.73086196
2.05582 -0.31973898 0.73172593
2.0516801 -0.32877898 0.73102999
2.0473299 -0.33676898 0.72979796
2.05264 -0.30236399 0.72277695
2.05703 -0.31201801 0.7256189
2.05668 -0.32183602 0.72654891
2.05303 -0.33050099 0.72509295
2.03931 -0.33652303 0.71835101
2.05073 -0.30162299 0.71615392
2.0542998 -0.31016502 0.71870893
2.0589399 -0.321931 0.722175
2.0486701 -0.33078203 0.7174629
2.0446301 -0.33778399 0.71572
1.9922 -0.21217801 0.74931198
1.9889599 -0.209629 0.73959899
1.99755 -0.220935 0.74678499
1.98694 -0.244387 0.74423796
1.99389 -0.25481099 0.74905795
1.9775901 -0.25764599 0.74211395
1.9934 -0.210788 0.73554891
1.99386 -0.21787001 0.73755294
1.99157 -0.247639 0.739079
1.9894201 -0.25376302 0.73922592
1.9907401 -0.20919099 0.72937697
1.98857 -0.247327 0.73085892
1.9864501 -0.25313401 0.72973895
1.98963 -0.24743299 0.72508192
1.9899899 -0.25419798 0.72564995
2.04967 -0.30180299 0.74787599
2.04685 -0.31045499 0.7463159
2.0457101 -0.32016799 0.747428
2.0436699 -0.32949102 0.74814695
2.0397201 -0.33704498 0.74588895
2.05427 -0.303303 0.741391
2.05778 -0.312783 0.74341995
2.0493 -0.32149398 0.74212801
2.04529 -0.33111802 0.74158293
2.0364399 -0.33645198 0.73644394
2.05058 -0.30148599 0.73188597
2.0598099 -0.31156501 0.73728895
2.0541 -0.320281 0.73590499
2.0478799 -0.33072701 0.73467392
2.0347099 -0.33651403 0.72799295
2.05671 -0.30406299 0.72730792
2.0558801 -0.31236601 0.72870392
2.0494299 -0.32185599 0.7259239
2.0397799 -0.33036599 0.72284502
2.0404201 -0.33833501 0.72379196
2.04814 -0.30131099 0.71441895
2.05059 -0.31139201 0.71793199
2.0513 -0.32263303 0.71880692
2.04934 -0.331516 0.72024393
2.0387101 -0.33745399 0.71572894
2.04268 -0.29911602 0.70464998
2.0476999 -0.308377 0.70808893
2.0528901 -0.32139701 0.71155196
2.0516701 -0.33255902 0.71369493
2.0411799 -0.33824298 0.70940596
2.0483501 -0.30153599 0.70124894
2.05986 -0.31348801 0.70693696
2.0624001 -0.32487202 0.70913798
2.0564501 -0.33310002 0.70840096
2.0520799 -0.340554 0.70823789
2.05336 -0.30395901 0.69775397
2.0627699 -0.314013 0.70298392
2.0633001 -0.32325 0.70423293
2.0621901 -0.333262 0.70544297
2.05494 -0.34012699 0.70354295
2.0264001 -0.34635201 0.74831599
2.04809 -0.30247399 0.74264795
2.0530801 -0.31218001 0.74738592
2.04285 -0.319222 0.74497795
2.0374 -0.33097598 0.74337298
2.02946 -0.33981299 0.74191302
2.0313599 -0.34846401 0.74408096
2.04582 -0.30077299 0.73349297
2.05353 -0.31288001 0.74037492
2.0445399 -0.32194099 0.73779893
2.0396001 -0.33167598 0.73631698
2.0343401 -0.340229 0.73627394
2.0311201 -0.34801102 0.73731095
2.0518501 -0.302196 0.72843397
2.0455999 -0.30849999 0.72802895
2.05127 -0.32200298 0.73303497
2.04528 -0.33138999 0.73229897
2.0427599 -0.341506 0.73172295
2.03022 -0.34663701 0.72870588
2.0392101 -0.29772601 0.71456695
2.05124 -0.30975598 0.72335893
2.0432401 -0.317332 0.72112292
2.0479801 -0.33196601 0.72557098
2.0434999 -0.34223402 0.72385299
2.0360699 -0.34891498 0.72250092
2.04163 -0.29822299 0.70775193
2.0459299 -0.30914199 0.71314096
2.0572999 -0.325279 0.72114992
2.04861 -0.33432701 0.71735191
2.0429201 -0.34401101 0.71680397
2.0369201 -0.35014197 0.71522993
2.04197 -0.297766 0.70094091
2.0452499 -0.30722499 0.70416892
2.0569999 -0.323796 0.71230197
2.0483701 -0.33386397 0.70843798
2.04827 -0.34448102 0.71193695
2.0371599 -0.349931 0.70763797
2.0460899 -0.29977399 0.69632494
2.05516 -0.312433 0.70149195
2.05638 -0.32548302 0.70301193
2.0511799 -0.336171 0.70239395
2.0458 -0.34450099 0.70292497
2.0358999 -0.34972697 0.69934595
2.05211 -0.30306998 0.69164991
2.06655 -0.31759101 0.69859195
2.0685601 -0.330071 0.701159
2.0636098 -0.339342 0.70139498
2.05323 -0.34650099 0.69838798
2.0401602 -0.350927 0.69407898
2.0668201 -0.308577 0.69142997
2.0682499 -0.31703401 0.69209695
2.06903 -0.32816699 0.69414794
2.06708 -0.33987099 0.69600099
2.0603499 -0.34801602 0.69493097
2.05286 -0.35437098 0.69251299
2.0689001 -0.30982798 0.68642592
2.0775599 -0.32198799 0.69178289
2.08074 -0.332858 0.69495499
2.0745499 -0.34119999 0.69384795
2.06408 -0.34939498 0.69098693
2.0550799 -0.35540101 0.68767792
