# .PCD v0.7 - Point Cloud Data file format
VERSION 0.7
FIELDS x y z
SIZE 4 4 4
TYPE F F F
COUNT 1 1 1
WIDTH 1586
HEIGHT 1
VIEWPOINT 0 0 0 1 0 0 0
POINTS 1586
DATA ascii
2.0209599 -0.233841 0.94884092
2.00613 -0.248016 0.94248891
2.0450399 -0.30268899 0.94756395
1.8461099 -0.125449 0.90304291
1.86431 -0.129089 0.90856689
1.88086 -0.132842 0.91288996
2.0209 -0.233463 0.94209993
2.0049601 -0.247421 0.93537992
2.0167398 -0.23496099 0.93366492
2.00228 -0.24903899 0.92724901
2.0251601 -0.26333299 0.93329793
2.0472 -0.30273598 0.93571496
2.0229499 -0.23245101 0.93024993
2.0018201 -0.24836399 0.92096692
2.0084701 -0.25670499 0.92203403
2.02546 -0.26234201 0.92652297
2.0457201 -0.30338699 0.92727602
2.02264 -0.23216 0.92553496
1.9954699 -0.252606 0.910824
2.0218499 -0.262032 0.91865999
1.9886099 -0.25529701 0.90210396
2.04656 -0.291731 0.91474992
1.99664 -0.251075 0.89841193
2.02334 -0.22612801 0.90208101
1.99672 -0.25167298 0.89106691
2.0273499 -0.261516 0.89928794
2.04615 -0.304131 0.89976394
2.0244901 -0.22551201 0.89577591
1.99714 -0.25243199 0.88327098
2.0243101 -0.227341 0.887986
1.9934599 -0.25293699 0.87514693
2.00753 -0.25747901 0.87943387
2.0327201 -0.26126701 0.88755494
2.02033 -0.229029 0.88074893
2.00335 -0.246484 0.87222695
2.0280399 -0.260959 0.87941301
2.03793 -0.26954499 0.88134992
2.0193601 -0.229895 0.87366593
2.0007601 -0.246356 0.86400896
2.0286798 -0.26191401 0.87227798
2.0046101 -0.246695 0.85886991
2.0225301 -0.263266 0.86233491
2.03443 -0.270423 0.8662889
1.99323 -0.230123 0.84840196
2.0048499 -0.24531299 0.85213393
2.0166099 -0.265513 0.85254592
2.03984 -0.269577 0.86094588
2.0113201 -0.23291402 0.84891999
2.0000901 -0.24834801 0.84277999
1.99626 -0.26065099 0.83783495
2.0134499 -0.266426 0.84404802
2.0359199 -0.27040601 0.85187894
2.05018 -0.27778998 0.85640794
2.05528 -0.30882099 0.85319
1.9971001 -0.228508 0.83566797
2.00038 -0.24641001 0.83596891
1.9930099 -0.261325 0.82929093
2.0339599 -0.27061999 0.84377396
2.0453401 -0.278662 0.84685594
2.0599699 -0.28588 0.85131592
2.04951 -0.320472 0.84102494
1.99922 -0.22825001 0.82914793
1.99629 -0.248797 0.82623696
2.0304301 -0.27083001 0.83499599
2.04142 -0.279295 0.83802396
2.0553999 -0.28623599 0.84219193
2.0483201 -0.32145402 0.8337419
1.99561 -0.22904499 0.82032293
2.0107501 -0.233115 0.82690698
2.0009398 -0.24825899 0.82070398
1.9902201 -0.26247901 0.81480998
2.0325301 -0.2712 0.82893997
2.04216 -0.27884701 0.83081895
2.0047998 -0.24334 0.81601989
1.99664 -0.25751799 0.81120193
2.0374899 -0.271752 0.82376891
2.0467901 -0.278934 0.82528597
2.0535898 -0.298471 0.82529801
2.05899 -0.306779 0.82580292
2.0046201 -0.24404101 0.80847287
1.99534 -0.25592899 0.80337888
2.04246 -0.270776 0.81745303
2.04619 -0.27809298 0.8184979
2.06229 -0.30492002 0.81952196
2.0041702 -0.243562 0.80148995
2.0381701 -0.27231601 0.80883294
2.0468202 -0.27705202 0.81157702
2.0606699 -0.29542199 0.81405991
2.0559101 -0.316829 0.80747795
2.0118899 -0.23889099 0.79694396
2.0444701 -0.27095199 0.80427396
2.06443 -0.29432601 0.80859792
2.06253 -0.30586201 0.80527598
2.0624399 -0.31463301 0.80289793
2.0058298 -0.24204999 0.78530794
2.0381799 -0.273231 0.79327589
2.0492101 -0.277888 0.79805493
2.05545 -0.28641701 0.800349
2.06306 -0.306027 0.797948
2.0060301 -0.243339 0.77875692
2.00018 -0.25374201 0.7738359
2.0340199 -0.27478501 0.78408599
2.0436001 -0.27948999 0.78798598
2.0643201 -0.29543 0.79428995
2.06425 -0.30472401 0.79157394
2.0661001 -0.31255099 0.79109102
1.9944999 -0.227824 0.76870996
2.0118401 -0.23035102 0.77676588
2.00442 -0.24382 0.77169192
1.99789 -0.25721201 0.76525694
2.0351701 -0.27454001 0.77835798
2.04177 -0.279791 0.78011203
2.0490899 -0.287624 0.78186494
2.0657699 -0.30476001 0.78591895
2.0633199 -0.31345901 0.78200793
2.00003 -0.225821 0.76577592
2.0065401 -0.231332 0.76848495
2.0006599 -0.25794899 0.76021194
1.9917901 -0.27035901 0.75326097
2.0425901 -0.27996001 0.7739659
2.0639999 -0.30461299 0.77776992
2.0659499 -0.31286898 0.77562898
1.99763 -0.22616699 0.76030791
1.9955901 -0.26239598 0.75135696
2.04251 -0.28205001 0.76543593
2.0560699 -0.28687999 0.76980394
2.06128 -0.296716 0.77041
2.06024 -0.30770999 0.76800489
2.06405 -0.31399301 0.76804793
2.03332 -0.28555799 0.75348592
2.0532501 -0.28616399 0.76141095
2.0610299 -0.29430401 0.76289994
2.0694001 -0.30192602 0.76602691
2.0641 -0.312819 0.76126397
2.0588901 -0.28592598 0.75656492
2.0607002 -0.29499599 0.75590593
2.06704 -0.31124902 0.7542389
2.06531 -0.29306701 0.75184894
1.9836999 -0.226483 1.224785
2.0048599 -0.22961001 1.227101
2.0098 -0.23820201 1.2277619
2.0174601 -0.248326 1.2277019
2.0301199 -0.256372 1.227576
2.03567 -0.266646 1.228915
2.03598 -0.27852198 1.229005
2.0220499 -0.29468399 1.2264539
1.9818801 -0.226816 1.2182449
2.0271401 -0.246612 1.222564
2.03824 -0.254053 1.222724
2.03843 -0.26504299 1.2226939
2.0413699 -0.27492201 1.223882
2.0390801 -0.28752801 1.2220769
2.0323701 -0.246638 1.21711
2.0420501 -0.27569202 1.217945
2.03813 -0.28765699 1.2152389
2.0311899 -0.30011401 1.2146389
2.0060999 -0.22842801 1.208297
2.04089 -0.276063 1.2116669
2.0415299 -0.28576002 1.2098129
2.03512 -0.29821399 1.208751
2.0153599 -0.23805201 1.203025
2.0372701 -0.27651599 1.204595
2.0447199 -0.28685701 1.204162
2.00615 -0.22940001 1.195817
2.03597 -0.26786101 1.1982889
2.04107 -0.27819499 1.198578
2.0434101 -0.28681901 1.198457
2.0350502 -0.29842299 1.196709
2.0061901 -0.22794399 1.1895499
2.0244501 -0.24709801 1.19171
2.03915 -0.27708501 1.1922129
2.04128 -0.28742799 1.1928619
2.00634 -0.23006399 1.183448
2.0357599 -0.27644598 1.185141
2.0362198 -0.28946698 1.1852329
2.16366 -0.434374 1.1902599
2.19275 -0.43019 1.194427
1.9802999 -0.226771 1.173667
2.0049698 -0.229552 1.17677
2.02807 -0.25689399 1.178141
2.0327401 -0.26632798 1.1799409
2.0424099 -0.274986 1.179325
2.04091 -0.28666002 1.179211
2.0365701 -0.298884 1.1783789
2.13043 -0.42688802 1.1809219
2.15766 -0.42689499 1.18573
2.1714599 -0.43222198 1.188051
2.1983001 -0.42862597 1.1918709
2.0077801 -0.229734 1.1707699
2.04462 -0.28430402 1.1736879
2.04177 -0.29638001 1.17255
2.0281 -0.30881599 1.171095
2.11708 -0.41022399 1.174192
2.1401801 -0.41144601 1.178373
2.1503701 -0.41847402 1.180768
2.1533 -0.42591399 1.181162
2.16766 -0.431454 1.183753
2.1877 -0.432722 1.186829
2.1965499 -0.43632099 1.18758
2.0128798 -0.237286 1.165851
2.03584 -0.25531301 1.1684259
2.04497 -0.27435899 1.1684539
2.0420101 -0.28823799 1.1672479
2.0386701 -0.29851902 1.1660919
2.03599 -0.306674 1.1653969
2.10443 -0.406214 1.168245
2.12308 -0.40712601 1.170908
2.1361001 -0.41144401 1.1734979
2.14307 -0.41802102 1.1751289
2.04266 -0.262633 1.163152
2.05092 -0.27101699 1.16369
2.0492599 -0.285101 1.162933
2.03897 -0.29883102 1.1605289
2.0339799 -0.307845 1.159021
2.07792 -0.39808398 1.156152
2.11272 -0.400401 1.16438
2.11956 -0.40575299 1.164904
2.1320601 -0.41056702 1.168092
2.0590301 -0.25752398 1.160265
2.04758 -0.297142 1.1556169
2.0337701 -0.30802798 1.153381
2.089 -0.38567403 1.1542459
2.1003199 -0.39160001 1.156631
2.09919 -0.40371299 1.1567409
2.09951 -0.41345501 1.1571989
2.01246 -0.23036301 1.1473279
2.0562501 -0.29595 1.1516689
2.0348899 -0.308144 1.147934
2.09445 -0.373014 1.150481
2.1044099 -0.379269 1.152563
2.1008799 -0.389882 1.151804
2.0773301 -0.414065 1.1492729
2.0118699 -0.230886 1.140388
2.0180199 -0.24585 1.1403689
2.0363801 -0.308314 1.143634
2.0880899 -0.35415101 1.144215
2.10355 -0.35780999 1.147076
2.10624 -0.36701801 1.147805
2.1050901 -0.377597 1.1479129
2.0875599 -0.39310199 1.144679
2.063 -0.255683 1.14036
2.10041 -0.33891898 1.140872
2.1124201 -0.34482101 1.144218
2.11127 -0.3536 1.143855
2.11919 -0.360612 1.1454469
2.0613499 -0.25711 1.1345409
2.0880702 -0.257292 1.139589
2.10215 -0.326004 1.1360641
2.12339 -0.32771197 1.1402049
2.11257 -0.34222999 1.139209
2.1141801 -0.35172698 1.1399219
2.06584 -0.25702998 1.129478
2.0764799 -0.26106399 1.132056
2.10062 -0.30865899 1.130965
2.09694 -0.31682199 1.130173
2.1170301 -0.31959102 1.1345619
2.1262 -0.32494599 1.1362489
2.0954299 -0.349841 1.132496
2.0574601 -0.25772601 1.1227719
2.06517 -0.26335099 1.124102
2.11499 -0.311656 1.129272
2.11832 -0.31883401 1.1301279
2.10816 -0.32877201 1.1272149
2.02792 -0.25418299 1.1102409
2.0517101 -0.25805199 1.115382
2.1087399 -0.31153798 1.1210769
2.1203799 -0.31599101 1.125105
2.0141599 -0.229164 1.102895
2.0378001 -0.25392598 1.10588
2.0559599 -0.25745702 1.109285
2.11344 -0.30227101 1.1168239
2.1075399 -0.309899 1.1152029
2.10606 -0.31760499 1.1156989
1.9572001 -0.379471 1.078094
2.02402 -0.226952 1.0992529
2.0209701 -0.236044 1.0973959
2.0520101 -0.25848901 1.101395
2.09161 -0.306128 1.106869
2.1024499 -0.30971599 1.1097009
1.96755 -0.369122 1.076317
1.9568 -0.37928799 1.073208
2.0174 -0.22772899 1.090542
2.0403399 -0.25222099 1.0936569
2.0513299 -0.26077101 1.094263
2.06568 -0.266388 1.096931
2.0985801 -0.293585 1.102476
2.08163 -0.306656 1.099623
1.9586 -0.37122601 1.0684689
1.96123 -0.37717801 1.069093
2.0169001 -0.23679 1.0848999
2.0473599 -0.25155899 1.0883659
2.0634801 -0.25888002 1.091085
2.05934 -0.26983899 1.0900019
2.0599298 -0.280705 1.0891099
2.0743301 -0.28936899 1.091628
2.08038 -0.29674998 1.093576
1.95287 -0.364113 1.0612299
1.9662801 -0.36689401 1.0632359
1.9630799 -0.37591201 1.0633839
2.04794 -0.24959101 1.0823779
2.06462 -0.25632998 1.0855199
2.06517 -0.26770699 1.0854739
2.0646698 -0.27880099 1.084847
2.0696599 -0.28756499 1.0856589
2.07249 -0.29547301 1.0852989
1.9844 -0.34261298 1.060714
1.96495 -0.358266 1.0575749
1.96623 -0.3662 1.0575839
1.9668 -0.37370399 1.0570979
2.04371 -0.240483 1.076813
2.05828 -0.247546 1.0790019
2.0673499 -0.25520599 1.079946
2.07165 -0.26445699 1.0807949
2.07447 -0.274878 1.081105
2.0710001 -0.28670001 1.079836
2.06459 -0.29746598 1.076149
1.99731 -0.33769199 1.0581059
1.97041 -0.35480401 1.0523599
1.967 -0.36568502 1.0520639
1.9647 -0.37545201 1.049053
2.0598199 -0.236866 1.0743519
2.06391 -0.246703 1.074261
2.0742998 -0.25527298 1.075465
2.07552 -0.26659402 1.0757439
2.0711601 -0.27830699 1.074538
2.07058 -0.28797099 1.072804
2.05831 -0.301687 1.0675169
2.0109301 -0.33250499 1.0554249
1.9900999 -0.34810799 1.0504639
1.97698 -0.36349097 1.0469519
1.9608999 -0.37979099 1.040598
2.0545499 -0.227218 1.067637
2.06689 -0.23583901 1.070213
2.0734801 -0.24442899 1.070271
2.0746899 -0.25471699 1.0689039
2.0777099 -0.26400399 1.070421
2.0743401 -0.27632099 1.0689789
2.0649099 -0.29055899 1.064863
2.0546899 -0.30466998 1.0604179
2.0263801 -0.32445201 1.0534049
2.0131299 -0.34026 1.049585
1.9915199 -0.35848901 1.043507
1.97869 -0.37459099 1.0390569
1.9736501 -0.38838902 1.035936
1.97263 -0.40055001 1.0335679
1.9921001 -0.404158 1.0366769
2.0602 -0.22542801 1.062184
2.06464 -0.234715 1.063205
2.0810299 -0.24281901 1.065536
2.0717301 -0.25554898 1.062921
2.0799699 -0.26382899 1.0643339
2.07336 -0.27865899 1.061723
2.06323 -0.29300699 1.058026
2.0513401 -0.30674499 1.0536659
2.03898 -0.32045102 1.0503149
2.0230901 -0.33641997 1.045804
2.0065401 -0.352956 1.040683
1.99584 -0.36810601 1.0368659
1.9940801 -0.38077098 1.035327
1.9885299 -0.395477 1.0325459
1.9940801 -0.40437803 1.03228
1.99466 -0.41169497 1.031845
2.04251 -0.22266199 1.0529809
2.06826 -0.224619 1.0582089
2.07621 -0.23312001 1.05924
2.07885 -0.24337299 1.0583659
2.0780799 -0.25372699 1.059175
2.0867999 -0.26142299 1.0594879
2.08551 -0.27281299 1.058152
2.0704501 -0.28888801 1.0538449
2.06055 -0.30297899 1.050462
2.0459499 -0.31825599 1.0458339
2.0211301 -0.34737501 1.038512
2.0069399 -0.363056 1.033322
1.99871 -0.37755698 1.030061
2.0001299 -0.38883901 1.029436
1.9936301 -0.40250197 1.0267329
1.9984599 -0.40980098 1.0277739
2.05352 -0.22063901 1.048703
2.07043 -0.22523099 1.052452
2.07779 -0.23393101 1.053165
2.0739799 -0.24524 1.0509779
2.08444 -0.252799 1.05413
2.0915899 -0.271653 1.0538419
2.08044 -0.28471002 1.049884
2.0723701 -0.298329 1.047421
2.05005 -0.31630301 1.0405569
2.0441401 -0.32991999 1.0380859
2.0060401 -0.36661801 1.0262949
2.0008399 -0.379518 1.0242909
1.99817 -0.39065897 1.022329
1.99761 -0.400491 1.022059
2.0442901 -0.22214599 1.039318
2.06776 -0.22375299 1.046226
2.0702 -0.232465 1.0456569
2.07266 -0.243709 1.0446379
2.0780702 -0.25351399 1.046119
2.0827498 -0.262537 1.047336
2.0857499 -0.27325499 1.046252
2.0834899 -0.28552499 1.0442959
2.0794501 -0.29555202 1.043519
2.0652699 -0.31035998 1.038469
2.05761 -0.32458001 1.0348469
2.04603 -0.33985502 1.0313919
2.02455 -0.358033 1.0253839
1.99722 -0.37944302 1.017285
1.99412 -0.39175999 1.016048
2.0313599 -0.224767 1.029485
2.0477901 -0.22870301 1.0348411
2.0497599 -0.23920099 1.0331368
2.05106 -0.25029001 1.0325379
2.0662801 -0.25637099 1.0366559
2.0746601 -0.26502401 1.0389439
2.0711901 -0.277233 1.0351689
2.0824299 -0.285175 1.038085
2.0824699 -0.29661599 1.0378209
2.06406 -0.31405899 1.031451
2.06107 -0.32449099 1.02973
2.05475 -0.33578998 1.0273739
1.9814999 -0.38706601 1.008657
2.02479 -0.226134 1.0217929
2.02635 -0.233859 1.02213
2.04216 -0.25170201 1.024422
2.0525599 -0.25910601 1.0272949
2.0591199 -0.26913798 1.0275249
2.0627902 -0.27982 1.026796
2.0715899 -0.28741801 1.0288199
2.0835199 -0.295091 1.031458
2.08284 -0.30686799 1.03037
2.0648899 -0.32429501 1.0251659
2.0515199 -0.33904597 1.0207729
2.03371 -0.35255501 1.0144339
2.0512099 -0.260205 1.0208269
2.0553598 -0.270024 1.019411
2.06005 -0.278595 1.020939
2.0601199 -0.28888699 1.0197029
2.06604 -0.298563 1.0202409
2.0932899 -0.30237699 1.0265689
2.08957 -0.31369498 1.024972
2.04228 -0.34214199 1.0133939
2.02776 -0.35426602 1.0081129
2.0122499 -0.24762399 1.002983
2.04983 -0.26095501 1.0134469
2.04918 -0.271606 1.0119669
2.05462 -0.28033102 1.012923
2.0581901 -0.291906 1.012008
2.07266 -0.299927 1.0152689
2.09918 -0.302524 1.0218639
2.1090801 -0.30761999 1.0247209
2.1129801 -0.31559098 1.0235159
1.99281 -0.251645 0.99187392
2.04758 -0.28424299 1.0035579
2.0517302 -0.29347602 1.004189
2.0634398 -0.30018601 1.0063429
2.09127 -0.30390102 1.0139729
2.12008 -0.30574301 1.0219179
2.1435201 -0.3082 1.0261379
2.1240499 -0.320959 1.0202689
1.98517 -0.25072202 0.98327392
2.0585699 -0.281239 1.000296
2.0597301 -0.300439 0.99855697
2.07304 -0.30517501 1.003033
2.1286399 -0.30543101 1.0178139
2.1500001 -0.307042 1.022375
2.1491201 -0.31380999 1.0222789
1.9825301 -0.25138 0.97604096
2.06022 -0.27878702 0.99541593
2.0591199 -0.307901 0.99252898
2.1268799 -0.30801401 1.0111569
2.1526 -0.30610201 1.0183569
2.15573 -0.31235301 1.0179849
1.98692 -0.25055999 0.97100097
2.0567799 -0.28011298 0.98833299
2.0524099 -0.301328 0.98408097
2.1565402 -0.30675101 1.013793
2.16312 -0.31234199 1.013118
2.0169799 -0.23567 0.97340995
2.0025399 -0.24950899 0.96782088
2.0420599 -0.272448 0.97702497
2.0520699 -0.30074599 0.97669494
2.16576 -0.31298101 1.008862
2.1722999 -0.31894401 1.0079999
2.00156 -0.249679 0.960181
2.0186799 -0.25691 0.96518493
2.16838 -0.31466499 1.002697
2.0160999 -0.236053 0.96049094
2.0045199 -0.24902999 0.95424998
2.03246 -0.26405799 0.96201795
2.1564999 -0.31978801 0.99310702
2.0083501 -0.23779801 0.95114988
2.0027099 -0.249768 0.94666094
2.0136199 -0.258719 0.95042592
2.0072999 -0.23808201 0.94315696
2.0003099 -0.25092399 0.93922096
2.0110002 -0.258757 0.94268888
2.0120301 -0.236301 0.93826598
2.0010002 -0.24881399 0.93322188
2.0075998 -0.25895798 0.93507093
2.0432501 -0.296682 0.94213492
2.01103 -0.236507 0.93152893
1.9996001 -0.249874 0.92542398
2.0153799 -0.23623399 0.92623794
1.99481 -0.251398 0.916848
2.0074699 -0.25981 0.92155194
1.98192 -0.257599 0.90524095
2.00087 -0.260472 0.91255099
2.0499799 -0.30500299 0.922867
2.01406 -0.232972 0.91144997
1.9797301 -0.25797001 0.89762193
1.99923 -0.26204202 0.90476793
2.0151501 -0.234368 0.90411294
1.9791701 -0.25641799 0.89126295
2.03404 -0.26318398 0.90905195
2.04161 -0.31662801 0.90636796
2.01404 -0.22753599 0.8988899
2.0186501 -0.234053 0.89965898
1.9919299 -0.251362 0.88910598
2.01773 -0.22639999 0.89358091
2.02038 -0.233051 0.89412898
1.9871601 -0.25537801 0.88008499
2.0006399 -0.26097798 0.88389796
2.0186 -0.22624399 0.88667494
2.0215199 -0.233328 0.88634896
1.99075 -0.25550199 0.87421888
2.00193 -0.26181701 0.87716097
2.0311599 -0.26463801 0.88787895
2.02315 -0.23329 0.88018298
1.99675 -0.250449 0.86976492
1.9994 -0.26152399 0.869955
2.02527 -0.26499799 0.87924194
2.0235701 -0.23342501 0.87336087
2.0081899 -0.24679899 0.86710495
1.99411 -0.26060802 0.86106598
2.0334899 -0.26474601 0.875121
2.0435801 -0.27301398 0.87697691
2.02635 -0.231437 0.86844897
2.01408 -0.243955 0.86271697
1.9961901 -0.260245 0.85421294
2.0243201 -0.26471701 0.865134
2.03877 -0.27265301 0.8686499
2.0232699 -0.23353599 0.86113393
2.00931 -0.24653299 0.85380691
1.99257 -0.260849 0.84464997
2.0290101 -0.26558 0.85969895
2.0418 -0.27223599 0.86313093
2.0218699 -0.23396999 0.85402387
2.0069001 -0.247311 0.84577197
1.99104 -0.262126 0.83707696
2.0205901 -0.26584601 0.84936798
2.0399799 -0.27314699 0.85550398
2.05689 -0.28075898 0.86074293
2.0550699 -0.303882 0.85717499
2.0202498 -0.23400499 0.8461659
2.0081398 -0.246975 0.83908689
1.98395 -0.26232702 0.82719499
2.02265 -0.26771 0.8428719
2.0439501 -0.272329 0.84948492
2.0541298 -0.27965 0.85296494
2.06127 -0.288183 0.85523498
2.04668 -0.32621899 0.84513003
2.0228901 -0.233382 0.83918494
2.0053201 -0.249043 0.83058596
1.9846001 -0.26474601 0.82045698
2.0180299 -0.26826099 0.83331496
2.0383902 -0.272544 0.84150594
2.04269 -0.281479 0.84162897
2.0192599 -0.226257 0.8314839
2.02864 -0.231315 0.83484298
2.0146301 -0.243411 0.82795298
1.98331 -0.26376802 0.81384599
1.9908999 -0.270574 0.81660295
2.04176 -0.27373302 0.83559495
2.0524201 -0.281571 0.83854192
2.0267701 -0.231563 0.82784498
2.0213401 -0.23975299 0.82328194
1.9786 -0.26696399 0.80572891
1.98304 -0.27208999 0.80741996
2.0436099 -0.274299 0.82884294
2.0499401 -0.28051901 0.83054793
2.05652 -0.31214702 0.82848895
2.05176 -0.32182097 0.82574099
2.0244 -0.231791 0.81972796
2.0200999 -0.239738 0.81546694
1.97357 -0.26839399 0.79887301
2.04528 -0.27484101 0.82216799
2.05425 -0.30310401 0.82293993
2.05983 -0.30977198 0.82314301
2.0162899 -0.24080901 0.80662692
2.04105 -0.27588302 0.81272197
2.0532899 -0.27997199 0.81837797
2.06358 -0.309075 0.8182469
2.05618 -0.319325 0.81292099
2.0122001 -0.241964 0.79850096
2.04006 -0.276443 0.80528396
2.0618801 -0.300015 0.8122099
2.06323 -0.31721202 0.80899489
2.02666 -0.231038 0.79751188
2.0191901 -0.239851 0.79498398
2.04565 -0.27549201 0.80164796
2.0551901 -0.30029899 0.80125093
2.0585999 -0.318064 0.79988497
2.03281 -0.229343 0.79381591
2.0215199 -0.23868901 0.78813493
2.0591002 -0.299723 0.79623693
2.0640299 -0.308137 0.79759687
2.06196 -0.31764799 0.79411095
2.03175 -0.229436 0.78686494
2.01931 -0.239307 0.77946901
2.0605099 -0.28177401 0.79229599
2.05216 -0.29196101 0.78739899
2.0599401 -0.31079701 0.78802991
2.05794 -0.31920201 0.78580594
2.0317101 -0.22961901 0.77992797
2.0181301 -0.23910101 0.77245092
2.056 -0.28230399 0.78234297
2.06161 -0.28938699 0.78492194
2.0641201 -0.298044 0.78455997
2.0658998 -0.30693799 0.78408194
2.0632401 -0.31672898 0.78144896
2.03391 -0.227911 0.77380198
2.0571299 -0.28138101 0.7762509
2.05615 -0.289244 0.77514398
2.0637901 -0.29822901 0.7773639
2.06161 -0.309571 0.77540892
2.0336199 -0.226786 0.76635796
2.0555401 -0.28223699 0.76881897
2.0618699 -0.28899899 0.77096796
2.0615301 -0.29861298 0.76809692
2.06762 -0.307302 0.77122301
2.06899 -0.31487301 0.76876098
2.0555499 -0.28219402 0.76153493
2.0596299 -0.288885 0.76268494
2.06229 -0.31791201 0.75741595
2.02582 -0.22798401 0.75076395
2.0604801 -0.28107899 0.75669593
2.06094 -0.28924298 0.75620896
2.0659399 -0.30850402 0.75483698
2.0643601 -0.318304 0.75169802
2.0655601 -0.28766099 0.75063795
2.07094 -0.29763401 0.75165099
1.92693 -0.29881299 1.2267929
1.91905 -0.28408 1.222157
1.92 -0.270394 1.223287
1.92057 -0.25927901 1.2250429
1.91661 -0.283685 1.212497
1.91294 -0.27031901 1.2171789
1.9159 -0.26972601 1.2042249
1.93304 -0.27074802 1.130712
1.95156 -0.31113601 1.0528189
1.9658 -0.29834199 1.005069
1.93356 -0.28300199 0.97729993
1.92946 -0.273442 0.9850589
1.93532 -0.28490499 0.96366793
1.9335099 -0.27490801 0.96919298
1.91985 -0.27082801 0.91500288
1.91451 -0.269723 0.91013199
1.9250799 -0.28234801 1.2278039
1.92048 -0.28254601 1.21884
1.8946201 -0.26574901 1.2297169
1.93672 -0.230574 1.228195
1.9611501 -0.223728 1.177527
1.94727 -0.23492999 1.161804
1.99457 -0.217297 1.12549
1.9370599 -0.24640499 1.130222
1.9434199 -0.21864 1.118011
1.9551899 -0.210089 1.0980459
1.9487 -0.21944201 1.0905499
1.9567701 -0.223791 1.0728229
1.97495 -0.21677901 1.063448
1.93866 -0.248615 1.039173
1.9405299 -0.251757 1.0224589
1.94222 -0.23894399 1.0270909
1.9451401 -0.24115901 1.0113779
1.96644 -0.2498 0.97796392
1.9211099 -0.28146201 0.98921198
1.93422 -0.27552602 0.96956694
1.93038 -0.26276198 0.97750694
1.9343801 -0.25233299 0.9601109
1.9324001 -0.261953 0.94784296
1.93773 -0.25311399 0.945777
1.93634 -0.25313199 0.93524289
1.93802 -0.253382 0.92070395
1.96243 -0.24657801 0.88605392
1.9497 -0.25466001 0.88373893
1.9473 -0.27859601 0.84967893
1.95244 -0.26935199 0.8493219
1.9495 -0.27967101 0.83204097
1.9506799 -0.269315 0.83705091
1.9611701 -0.262927 0.82725799
1.95419 -0.28232899 0.81313401
1.95367 -0.27107599 0.81968397
1.96653 -0.26517999 0.80791396
1.95638 -0.272724 0.80184799
1.9568601 -0.283418 0.78570592
1.9565101 -0.28376999 0.77154493
1.96229 -0.274905 0.76671392
1.96662 -0.26513702 0.76310396
1.9698199 -0.220147 1.2288669
1.98241 -0.213752 1.2233449
1.94205 -0.24247801 1.22716
1.9424499 -0.22762699 1.228285
1.9204601 -0.24887699 1.2113949
1.96255 -0.22321101 1.1814549
2.0153301 -0.22529499 1.146067
1.9818801 -0.22617 1.157392
1.9751601 -0.22511801 1.139478
2.02299 -0.21069001 1.1124899
1.9430901 -0.24399799 1.129234
1.97106 -0.325185 1.0606509
1.99709 -0.32704899 1.0456109
1.9358901 -0.224868 1.1131079
1.9599299 -0.31795099 1.0594939
1.96259 -0.31964898 1.028917
1.9583501 -0.227686 1.059854
1.9714 -0.32425499 1.01419
1.96083 -0.30636901 1.025494
1.94595 -0.249405 1.035821
1.94152 -0.26102501 1.0235269
1.9474699 -0.248932 1.021852
1.9703701 -0.242295 0.99422592
1.9425501 -0.25040701 0.99965096
1.99129 -0.24449401 0.96775299
2.0108399 -0.25300801 0.94249499
2.00916 -0.24143401 0.94678897
1.9872099 -0.217528 0.97114396
2.0220199 -0.25911599 0.92463297
1.9467101 -0.25437501 0.95353788
1.93866 -0.251647 0.94672292
1.94215 -0.252628 0.92946792
1.93951 -0.25091499 0.91923195
1.95541 -0.28175101 0.84105194
1.95181 -0.26877999 0.84928697
1.9516901 -0.26988599 0.83595794
1.95682 -0.260737 0.83455694
1.95903 -0.28330901 0.80956995
1.95679 -0.27157 0.81836396
1.9655701 -0.26399001 0.81110293
1.95632 -0.28220302 0.79727495
1.9565101 -0.27110001 0.8040579
1.9593401 -0.284318 0.77947593
1.96298 -0.28724301 0.76028395
1.97071 -0.26627702 0.76215589
1.9645101 -0.27578601 0.75243098
1.97552 -0.22321801 1.2297499
1.9897901 -0.22485599 1.2287889
1.99777 -0.23189899 1.2291989
2.0183299 -0.26130399 1.2291499
1.99523 -0.224069 1.2210929
1.9989301 -0.232999 1.217176
2.0105801 -0.237215 1.2255369
2.0179 -0.247674 1.2259279
2.02562 -0.26679501 1.2215219
2.0023398 -0.231739 1.2092769
2.01982 -0.249548 1.2148139
2.0258501 -0.25792998 1.215714
2.0261199 -0.266918 1.210022
2.0034599 -0.22985001 1.2006559
2.02723 -0.25634801 1.2067069
2.00331 -0.22899799 1.190393
2.0302601 -0.26456299 1.1920699
1.98918 -0.22973199 1.168213
2.0039201 -0.23069499 1.1788899
2.01686 -0.248235 1.178571
2.02405 -0.25673202 1.1815469
2.0310202 -0.26349899 1.182207
2.0122399 -0.238469 1.169572
2.01967 -0.24798299 1.169385
2.02653 -0.25577 1.1724539
2.02844 -0.26677501 1.1651629
2.00053 -0.23394801 1.1515089
2.00702 -0.24050801 1.15257
2.01455 -0.24882999 1.155864
2.02405 -0.25733101 1.1578289
2.0304699 -0.26666 1.1548529
2.0074899 -0.23072299 1.1470399
2.0063901 -0.24202299 1.138718
2.0301402 -0.266947 1.1439719
2.00542 -0.23245101 1.133248
2.0248599 -0.25920999 1.1350219
2.03247 -0.26604 1.1357239
2.0341101 -0.275695 1.130229
2.0293701 -0.25545001 1.129081
2.0396299 -0.275253 1.1213449
2.03915 -0.27851802 1.1088809
2.00858 -0.23047701 1.0996439
2.0364301 -0.24877399 1.1118909
2.04459 -0.25805402 1.111962
2.04953 -0.27015901 1.109749
2.0488698 -0.28496799 1.101812
2.0348699 -0.30878499 1.079782
2.0204699 -0.34129199 1.052317
2.01635 -0.22544399 1.0942379
2.0188799 -0.23300301 1.0950179
2.0443799 -0.25806701 1.100486
2.0541 -0.26438701 1.104072
2.06337 -0.27374801 1.105386
2.0550201 -0.29398301 1.090603
2.0404601 -0.234928 1.0968469
2.05021 -0.241446 1.1008929
2.0550301 -0.251138 1.1003919
2.06444 -0.260407 1.101
2.0738499 -0.267299 1.104849
2.0704 -0.281409 1.0958029
2.0620799 -0.29931101 1.0821259
2.04491 -0.228912 1.0909599
2.0530999 -0.239502 1.091993
2.06319 -0.247866 1.0959769
2.0697 -0.25591499 1.0948129
2.0722702 -0.28123599 1.0873029
2.06057 -0.30031499 1.070678
2.0495501 -0.22923 1.082395
2.0553999 -0.237922 1.0823859
2.06422 -0.245946 1.084708
2.0689399 -0.257994 1.082585
2.0714102 -0.26887599 1.0805769
2.0234499 -0.2211 1.0527689
2.0532 -0.22424801 1.0768629
2.0573199 -0.235397 1.0737469
2.0720301 -0.25304198 1.076048
2.07236 -0.26401699 1.0701759
2.01528 -0.22656602 1.0326469
2.03529 -0.22361 1.050146
2.0605299 -0.233937 1.0637929
2.0566399 -0.25066701 1.0503709
2.0692501 -0.25503501 1.0612489
2.0685201 -0.265421 1.05328
2.03284 -0.226486 1.034596
2.0478699 -0.228295 1.047375
2.0511599 -0.24016501 1.041063
2.0499601 -0.25507 1.0308379
2.0620599 -0.25958201 1.041513
2.0601101 -0.27035299 1.033672
2.0452499 -0.23061301 1.031706
2.0421 -0.246646 1.018857
2.0454202 -0.25778902 1.015672
2.0568299 -0.26150599 1.0253639
2.0500998 -0.26354501 1.00922
2.0071201 -0.23448601 1.2288309
2.02615 -0.27358699 1.228851
2.00313 -0.227276 1.2193869
2.02163 -0.25157201 1.2254139
2.00157 -0.228055 1.2058229
2.0072799 -0.23414499 1.21007
2.02229 -0.25203401 1.2138059
2.02759 -0.27339101 1.2077659
2.0248899 -0.28433299 1.1996919
1.9983799 -0.22941601 1.1909969
2.0083702 -0.234373 1.198566
2.0188601 -0.25204501 1.2003449
2.0265801 -0.28455698 1.1899639
1.99571 -0.23072901 1.177411
2.0283401 -0.27477199 1.185356
2.03162 -0.281928 1.184701
1.99159 -0.23343399 1.16325
2.00049 -0.237665 1.1684749
2.0313799 -0.259354 1.183399
2.0339 -0.26889899 1.1810679
2.0332601 -0.279762 1.1756549
2.0002401 -0.239066 1.156261
2.02349 -0.25072801 1.16984
2.0291901 -0.26048902 1.171688
2.0338299 -0.27000201 1.1694469
2.0348599 -0.27905899 1.1645399
2.0004799 -0.24045601 1.1428459
2.02268 -0.25054899 1.1574919
2.0308199 -0.26057899 1.160684
2.0351899 -0.27056801 1.159524
2.0318899 -0.28079399 1.1502709
2.00196 -0.239627 1.1324739
2.0209899 -0.250278 1.1457939
2.0272 -0.260759 1.144959
2.0023899 -0.239004 1.1231179
2.0208099 -0.251959 1.132838
2.0279801 -0.26206198 1.132894
2.03301 -0.27037099 1.135535
2.03581 -0.27860701 1.130935
2.02865 -0.25969201 1.1228499
2.0357101 -0.269137 1.12599
2.03178 -0.258742 1.114362
2.0429699 -0.27795601 1.1139729
2.01491 -0.32510602 1.065622
2.0152299 -0.231369 1.0995979
2.0297501 -0.24729499 1.104829
2.0376301 -0.25638598 1.10851
2.0399201 -0.26867202 1.1041859
2.0439701 -0.27809998 1.1049429
2.0464101 -0.289511 1.0985179
2.01879 -0.34612098 1.050092
2.0156798 -0.36043999 1.039948
2.01229 -0.37508202 1.030818
2.02001 -0.22919101 1.0939549
2.0332601 -0.24246201 1.0989239
2.03949 -0.252139 1.099363
2.0495598 -0.26108998 1.1029669
2.0478301 -0.27614099 1.097194
2.06144 -0.28098601 1.102469
2.0556901 -0.296141 1.0931989
2.0452201 -0.31456301 1.076589
2.0252099 -0.341865 1.049127
2.0081398 -0.36717302 1.0243219
2.01401 -0.37497699 1.025499
2.0237398 -0.37804198 1.0312059
2.0406501 -0.240089 1.0944469
2.05235 -0.24696399 1.099643
2.0591199 -0.25632998 1.09936
2.0637801 -0.26673999 1.101691
2.0710402 -0.27499399 1.1013199
2.0636301 -0.29191199 1.0897889
2.05036 -0.31187999 1.0715089
2.0194199 -0.34952301 1.0346469
2.0509 -0.23560899 1.0934259
2.0604401 -0.24339199 1.0967029
2.06201 -0.25440702 1.092204
2.0701699 -0.26341701 1.0957179
2.0776501 -0.27305999 1.0979069
2.06896 -0.28913298 1.0853649
2.0575399 -0.233787 1.090835
2.0592599 -0.24572599 1.086484
2.0675399 -0.25366101 1.089334
2.0739701 -0.26128599 1.0910649
2.08131 -0.26792401 1.0943899
2.07917 -0.28014901 1.0879999
1.99739 -0.23263201 1.222804
2.0008001 -0.23085399 1.2144779
2.0093899 -0.236121 1.221197
2.0163801 -0.244505 1.224442
2.02302 -0.25237 1.2277299
2.0290499 -0.26079902 1.22911
2.03231 -0.269876 1.228225
2.0025702 -0.230102 1.205063
2.00545 -0.23733801 1.206775
2.0248301 -0.25320899 1.2181139
2.0267701 -0.26437101 1.216185
2.0272901 -0.27431601 1.21109
2.00335 -0.22975099 1.194665
2.00877 -0.23608801 1.198831
2.0165401 -0.242842 1.2039649
2.0206101 -0.25398701 1.2020899
2.0283401 -0.26353201 1.207206
2.02862 -0.273855 1.2024239
2.0005901 -0.23106301 1.181181
2.0180399 -0.24366301 1.1934849
2.02578 -0.26523501 1.1922909
1.99175 -0.235285 1.1631589
2.00613 -0.23747499 1.1743199
2.0281701 -0.26245701 1.182274
2.0318201 -0.27234501 1.1832809
2.0278001 -0.26319799 1.1714519
2.03175 -0.27094299 1.1716549
2.03213 -0.26149598 1.1661429
2.03091 -0.27259001 1.159073
2.0329401 -0.27257901 1.1492889
2.0357499 -0.27211201 1.1408099
2.02686 -0.28462499 1.126178
2.0313599 -0.26009199 1.1294119
2.0357101 -0.27166098 1.128372
2.0324001 -0.28420499 1.1186839
2.0417399 -0.26944798 1.123449
2.0381701 -0.28160998 1.115083
2.0419099 -0.28039601 1.1108119
2.0367301 -0.29211199 1.101644
2.03704 -0.300271 1.0987329
1.99703 -0.23106501 1.2270349
1.99684 -0.231534 1.21548
2.0072 -0.236656 1.225022
2.01596 -0.24556999 1.2291579
2.0180001 -0.255977 1.2271829
2.0257299 -0.27494401 1.229211
2.0246699 -0.28319401 1.225852
2.0011001 -0.23024 1.2083589
2.0072701 -0.237011 1.2028949
2.0164399 -0.245619 1.2080599
2.01931 -0.256161 1.207655
2.02285 -0.26575899 1.208454
2.0269201 -0.281991 1.2060319
2.0005 -0.23002 1.185362
2.00367 -0.23757401 1.18757
2.02775 -0.27409598 1.199018
2.0003901 -0.23021001 1.1757019
2.0246201 -0.252285 1.1926639
2.0264199 -0.26211798 1.189011
2.0292799 -0.28220502 1.1839659
1.9996899 -0.23141001 1.1651729
2.0000901 -0.238548 1.1625789
2.0260699 -0.26385501 1.1775739
2.02774 -0.27472299 1.1746469
2.03056 -0.284114 1.173157
2.0035899 -0.23966801 1.1544499
2.0244901 -0.26562402 1.1654099
2.01917 -0.25485799 1.1527629
2.0113201 -0.23773099 1.1414449
2.0144401 -0.244211 1.1427419
2.0221899 -0.251681 1.1479379
2.02846 -0.26280099 1.1507139
2.00302 -0.23774901 1.22252
2.0055099 -0.24509101 1.225088
2.0011799 -0.23809099 1.209921
2.0262301 -0.26148701 1.229836
2.0267899 -0.271063 1.2293559
2.0274601 -0.281201 1.227404
2.00036 -0.23780599 1.1983739
2.0053999 -0.244808 1.202865
2.02268 -0.26224002 1.2157019
2.0292199 -0.27145201 1.221262
2.0267401 -0.28259501 1.21416
2.0021801 -0.23732799 1.190161
2.0194199 -0.25180301 1.203333
2.02654 -0.261172 1.20824
2.0291901 -0.272203 1.2090919
2.0320101 -0.28121999 1.208604
2.02917 -0.28936702 1.2041869
2.02194 -0.25141799 1.1944079
2.0255299 -0.26123801 1.1964669
2.02932 -0.27047899 1.199086
2.03477 -0.287806 1.1985739
2.0192001 -0.25165999 1.1818219
2.0266001 -0.26093 1.1872009
2.03355 -0.27004901 1.192641
2.03163 -0.28020298 1.186821
1.9905299 -0.239417 1.14964
2.00455 -0.243781 1.1619389
2.02613 -0.259541 1.1788719
2.0300999 -0.27095401 1.180373
2.0301402 -0.281591 1.177545
2.03107 -0.28896701 1.1768959
1.91337 -0.29964599 1.224736
1.91634 -0.37638801 1.1063509
1.90424 -0.238739 1.111095
1.91671 -0.37658599 1.10048
1.9272 -0.36851701 1.099039
1.91625 -0.239291 1.1044029
1.9242101 -0.23174299 1.102605
1.9123399 -0.37567198 1.094825
1.9210299 -0.36736402 1.0930129
1.94875 -0.36018503 1.088781
1.91785 -0.37625703 1.086597
1.92739 -0.36785197 1.0841279
1.9298199 -0.35605597 1.0839279
1.95959 -0.345476 1.079075
1.92909 -0.23874001 1.087757
1.91983 -0.37477699 1.078473
1.92848 -0.365569 1.076844
1.9391701 -0.35357299 1.073887
1.96059 -0.34027699 1.071393
1.9697599 -0.385425 1.0556929
1.93092 -0.36530998 1.0685769
1.9409801 -0.35519901 1.064742
1.95224 -0.341153 1.063556
1.9774899 -0.21768299 1.0616629
1.9624001 -0.38486198 1.050341
1.9530799 -0.37029201 1.054243
1.9535699 -0.354635 1.0545779
1.9534199 -0.33984199 1.0547279
1.9513299 -0.32574403 1.057222
1.9611501 -0.228681 1.0560399
1.9766001 -0.21659499 1.0537629
2.02368 -0.199534 1.047889
1.96912 -0.386628 1.04198
1.9613299 -0.373698 1.04344
1.95621 -0.35779202 1.0457829
1.95542 -0.34273499 1.0468709
1.9516001 -0.32722801 1.0476799
1.9407001 -0.31329301 1.04774
1.94981 -0.22936399 1.049089
1.9658799 -0.38601503 1.0337019
1.9593899 -0.37221801 1.034917
1.96103 -0.36012501 1.0366809
1.95339 -0.34296399 1.038559
1.93082 -0.23900101 1.0420059
1.9442 -0.22974701 1.041099
1.94972 -0.216842 1.0408449
1.97281 -0.39965197 1.02306
1.9705 -0.388713 1.0244629
1.9654201 -0.37464902 1.0256209
1.9604499 -0.35850897 1.0284899
1.94753 -0.33961299 1.0299159
1.92562 -0.238967 1.034604
1.92787 -0.22911699 1.0358349
1.9309 -0.21598801 1.034606
1.94095 -0.20311099 1.033456
1.97103 -0.38800898 1.017929
1.9641401 -0.37342602 1.0188709
1.9625701 -0.35744703 1.019051
1.9047099 -0.236385 1.030701
1.92661 -0.22862101 1.02736
1.92304 -0.214616 1.0267969
1.9206799 -0.20047301 1.0280589
1.9177699 -0.185856 1.027123
1.9974201 -0.13813201 1.012584
1.9948 -0.125845 1.0135429
1.9825901 -0.36476898 1.009807
1.9425101 -0.33578399 1.0131
1.91088 -0.236486 1.0221599
1.92811 -0.22657499 1.0174179
1.9188299 -0.21014799 1.020057
1.91408 -0.195833 1.0215369
1.91205 -0.181943 1.019827
1.91881 -0.16944799 1.0190649
1.97611 -0.152234 1.0092959
1.9659899 -0.13859001 1.011512
1.97883 -0.12637299 1.0093249
1.93445 -0.239802 1.008691
1.93554 -0.22923499 1.0062399
1.92193 -0.21221599 1.010541
1.91311 -0.19582801 1.01375
1.9013001 -0.18022101 1.013459
1.9116 -0.166306 1.012979
1.9470199 -0.152877 1.0080119
1.9617 -0.138404 1.0044069
1.98121 -0.124912 1.002345
1.90437 -0.25012898 1.002234
1.93058 -0.24215001 0.99918902
1.9370199 -0.230716 0.997688
1.94549 -0.21688299 0.99669999
1.91668 -0.196289 1.0037799
1.88617 -0.17729799 1.008172
1.89923 -0.16634701 1.006483
1.94567 -0.15098099 0.99967992
1.96004 -0.13913999 0.99663591
1.9683 -0.12780699 0.99590296
1.92553 -0.30947798 0.98940796
1.91171 -0.25059301 0.99370694
1.94619 -0.22911501 0.98872697
1.95941 -0.21765301 0.98493296
1.93782 -0.204023 0.99136996
1.88297 -0.175742 1.001261
1.88377 -0.163855 1.001195
1.9184101 -0.15164299 0.99603701
1.96004 -0.140259 0.98964995
1.9784399 -0.13114001 0.98603791
1.91931 -0.30828899 0.98157197
1.9095399 -0.251993 0.98494893
1.92379 -0.24233499 0.98343992
1.9522901 -0.230368 0.97869402
1.9655 -0.21799801 0.97513795
1.97054 -0.208134 0.97597992
1.8794701 -0.17297301 0.99384493
1.8721601 -0.162265 0.995161
1.88369 -0.15106399 0.99269998
1.94908 -0.14034601 0.98534501
1.90343 -0.32604599 0.97323495
1.9130599 -0.31645399 0.9745549
1.9255099 -0.30968499 0.97261792
1.9056101 -0.252222 0.97810394
1.9197 -0.244109 0.97541499
1.96421 -0.22003901 0.96737093
1.97075 -0.20864901 0.96618897
1.86165 -0.15968001 0.98988801
1.85383 -0.14724201 0.98988694
1.86041 -0.13624901 0.98810595
1.87468 -0.33595401 0.97023499
1.89056 -0.327546 0.96837801
1.9114 -0.318818 0.96588594
1.9154299 -0.308797 0.96693391
1.91216 -0.25209498 0.96901995
1.9257201 -0.24160901 0.965011
1.96943 -0.218132 0.95827699
1.97173 -0.20827499 0.95623696
1.8575901 -0.15610699 0.98235595
1.84149 -0.14362401 0.98393196
1.86562 -0.124177 0.979599
1.86151 -0.33356398 0.96715593
1.88328 -0.328437 0.96344298
1.8966701 -0.31890401 0.96083999
1.9088401 -0.30888501 0.95860094
1.9238601 -0.241882 0.95627695
1.93699 -0.22934701 0.95495194
1.96649 -0.218063 0.95019394
1.9775901 -0.20845801 0.94580197
1.88103 -0.32590902 0.95762897
1.90308 -0.31722602 0.95227891
1.91778 -0.30912101 0.94917893
1.91142 -0.25203899 0.95052397
1.9177001 -0.24256 0.94905496
1.9200301 -0.231536 0.95016187
1.9650199 -0.217962 0.94030493
1.97746 -0.20829901 0.93745196
1.8959301 -0.326011 0.94819903
1.916 -0.30836999 0.94367099
1.9110899 -0.25134799 0.94265497
1.92638 -0.24270999 0.93919593
1.93239 -0.229222 0.93823594
1.96252 -0.217813 0.93195796
1.97135 -0.207838 0.93024492
1.9061099 -0.249834 0.937334
1.9242799 -0.240466 0.93233991
1.92105 -0.22593398 0.93127197
1.9508799 -0.216428 0.92655295
1.98281 -0.20883101 0.92024493
1.91918 -0.22498199 0.92345995
1.92855 -0.214653 0.92145693
1.9711099 -0.207185 0.91690898
1.9090899 -0.16282801 0.92282397
1.88748 -0.14975001 0.92788589
1.9214599 -0.222489 0.91440696
1.91751 -0.211871 0.91539294
1.92405 -0.20062901 0.91341895
1.9052299 -0.18260799 0.91653794
1.90151 -0.16402599 0.91795194
1.88826 -0.148929 0.921767
1.85849 -0.132396 0.92982095
1.9127699 -0.20947701 0.90862793
1.91219 -0.19620301 0.90801299
1.90311 -0.17933799 0.91076493
1.90965 -0.165758 0.90774894
1.89912 -0.15075099 0.91158998
1.8833799 -0.13799199 0.91666692
1.90982 -0.205964 0.90012497
1.91236 -0.19426599 0.89900798
1.90192 -0.18005501 0.903157
1.91521 -0.167087 0.89752793
1.92135 -0.152448 0.89719993
1.90991 -0.139336 0.90095091
1.9181199 -0.206411 0.89123797
1.9113499 -0.194243 0.89262795
1.90704 -0.180729 0.89374793
1.9102901 -0.167208 0.89145601
1.92256 -0.15308 0.88808793
1.92892 -0.139358 0.88720489
1.92239 -0.128222 0.88879895
1.91491 -0.179804 0.88534296
1.91782 -0.164683 0.88335693
1.9220901 -0.14958499 0.88096893
1.9299999 -0.13874699 0.87909096
1.93808 -0.126526 0.87584794
1.9431399 -0.135198 0.86753297
1.94116 -0.122867 0.8661229
1.93502 -0.11412 0.86809695
1.94107 -0.12109 0.85825396
1.9403 -0.113016 0.85912687
1.95886 -0.121089 0.84580994
1.94803 -0.112239 0.84943891
1.94093 -0.11096 0.84482592
1.9124401 -0.37771401 1.096815
1.9235899 -0.370123 1.094695
1.91838 -0.26946101 1.0974979
1.9158701 -0.37795398 1.090227
1.9226601 -0.36877602 1.0881289
1.94247 -0.36250198 1.0853679
1.92031 -0.26956901 1.0910679
1.92435 -0.379352 1.080667
1.92576 -0.36902601 1.080635
1.93751 -0.35951 1.078826
1.94416 -0.35037801 1.0788709
1.91562 -0.26824701 1.084545
1.93274 -0.38180402 1.0694619
1.9313999 -0.36951199 1.071712
1.93524 -0.35705298 1.070735
1.94372 -0.34900501 1.071023
1.92102 -0.26986301 1.0747759
1.96101 -0.39064801 1.05581
1.93855 -0.37244302 1.061168
1.93716 -0.35891497 1.062941
1.9393401 -0.34743801 1.0624009
1.9209 -0.27150899 1.065666
1.9219099 -0.25906798 1.067552
1.92811 -0.21528299 1.0636799
1.95382 -0.38884899 1.04888
1.95898 -0.37865102 1.0482739
1.93799 -0.358437 1.0536909
1.93726 -0.34627301 1.054073
1.91353 -0.280734 1.0588039
1.9546499 -0.232765 1.054068
1.94638 -0.218545 1.0550809
1.94989 -0.20678699 1.0538069
1.9577401 -0.388987 1.039616
1.9602799 -0.37858599 1.0396819
1.95583 -0.364427 1.0408139
1.94687 -0.349673 1.0443559
1.9094901 -0.280332 1.050356
1.95313 -0.21629401 1.0461819
1.9631599 -0.20755699 1.0447119
1.95972 -0.38882801 1.0294899
1.9573599 -0.37671399 1.031966
1.9606301 -0.36515701 1.031969
1.9457 -0.350981 1.0358199
1.89723 -0.277033 1.0445759
1.9291999 -0.24486201 1.0392709
1.92557 -0.228002 1.040466
1.93776 -0.21469101 1.0401169
1.9513099 -0.2054 1.03918
1.96427 -0.39024898 1.0212219
1.96763 -0.380896 1.0216489
1.96469 -0.36800301 1.0241719
1.9227901 -0.25533599 1.032427
1.9202299 -0.23951201 1.032751
1.9197 -0.224545 1.0325029
1.9185001 -0.21119601 1.034143
1.9359801 -0.203134 1.0329199
1.9715101 -0.38253701 1.0146379
1.96453 -0.37027901 1.0168939
1.92337 -0.25742701 1.0233189
1.92057 -0.24275601 1.0249209
1.92215 -0.22720301 1.0236039
1.9162199 -0.21042801 1.025751
1.92123 -0.198228 1.0254579
1.97592 -0.1347 1.013463
1.9921499 -0.124212 1.011917
1.9275 -0.24420099 1.013844
1.9305 -0.22717801 1.0129739
1.9090101 -0.208902 1.018539
1.9195399 -0.19719 1.0177789
1.9136901 -0.18073499 1.0167919
1.92887 -0.16433001 1.0128609
1.95287 -0.15143099 1.0093089
1.96716 -0.13777401 1.0082729
1.98577 -0.125855 1.0064839
1.9346499 -0.246299 1.003107
1.93538 -0.230947 1.003158
1.92984 -0.212414 1.006001
1.91295 -0.19419201 1.0109169
1.90125 -0.17774001 1.0114429
1.9145199 -0.16532801 1.0090489
1.9391999 -0.152115 1.0047469
1.94733 -0.13878 1.005075
1.97349 -0.128227 1.00086
1.92063 -0.25627002 0.99812198
1.9499401 -0.23326901 0.99151093
1.9559801 -0.220919 0.99075699
1.9067501 -0.189354 1.003819
1.89556 -0.172556 1.0046339
1.91536 -0.16078301 1.0008949
1.94092 -0.150308 0.99632996
1.9484199 -0.13854 0.99745196
1.9724001 -0.128243 0.99373597
1.92203 -0.273974 0.98746699
1.91987 -0.25727901 0.98874098
1.9589 -0.219319 0.98240095
1.96119 -0.20997299 0.98112696
1.8823199 -0.17084999 0.99872392
1.8927799 -0.15999199 0.99670595
1.9157201 -0.149073 0.9935289
1.9383501 -0.138338 0.99162596
1.92138 -0.270753 0.97915387
1.91696 -0.25705099 0.98062897
1.95985 -0.21942499 0.97433698
1.9658 -0.209328 0.97145998
1.86212 -0.16610201 0.99413896
1.86774 -0.157433 0.99326688
1.87457 -0.14703301 0.99175692
1.94916 -0.14214501 0.98288697
1.91958 -0.257236 0.97235698
1.93827 -0.24446699 0.96721697
1.9614999 -0.21947099 0.96405196
1.97075 -0.209387 0.9624849
1.8586301 -0.162999 0.98746294
1.8504801 -0.15192099 0.98880887
1.84138 -0.13939999 0.98852998
1.9255999 -0.25791299 0.96130097
1.93269 -0.24250999 0.95902598
1.9608001 -0.218024 0.95480502
1.9621401 -0.20784901 0.9563809
1.8387899 -0.147882 0.98250496
1.9289999 -0.26185399 0.95097995
1.92396 -0.24398001 0.952034
1.9469399 -0.23196399 0.94843894
1.96106 -0.21957199 0.94625902
1.96382 -0.20869699 0.946953
1.9227201 -0.25659001 0.943546
1.9232001 -0.23056601 0.94430494
1.95775 -0.219813 0.93848097
1.9656399 -0.20872101 0.93670899
1.9264301 -0.26052901 0.93402499
1.9172901 -0.24259099 0.93670392
1.91731 -0.22744101 0.93505394
1.96675 -0.21722001 0.92708594
1.9748 -0.208878 0.92561996
1.92182 -0.27011698 0.92597395
1.9232001 -0.255703 0.92579192
1.91105 -0.23755501 0.92860991
1.91931 -0.22459298 0.92640394
1.94909 -0.216912 0.92168093
1.9659599 -0.20810801 0.91995794
1.9269 -0.26960301 0.91444993
1.9214 -0.25713101 0.91690397
1.91524 -0.24061801 0.91887194
1.91067 -0.22435699 0.92065793
1.92861 -0.21338499 0.91748488
1.9583701 -0.20860399 0.91401398
1.90265 -0.17627101 0.92016101
1.8903199 -0.16053399 0.92386991
1.8830299 -0.149215 0.92652595
1.9106101 -0.265596 0.91018796
1.9206599 -0.258019 0.90876192
1.92345 -0.244287 0.90739
1.91046 -0.22507 0.91190094
1.90737 -0.210042 0.91394997
1.9116299 -0.19389601 0.91175491
1.89605 -0.17340499 0.91566694
1.89455 -0.159529 0.91657901
1.87956 -0.14775901 0.92125493
1.92064 -0.25635001 0.90004593
1.9229201 -0.243507 0.89751297
1.91553 -0.226014 0.90132993
1.9094599 -0.208092 0.90447998
1.9147 -0.194304 0.90302992
1.9037399 -0.17824399 0.90552795
1.89928 -0.16162901 0.90741396
1.8951801 -0.14857501 0.90906394
1.89323 -0.26007301 0.89901894
1.91887 -0.255907 0.89047593
1.9277699 -0.245341 0.88786095
1.9243201 -0.22903199 0.88998199
1.91461 -0.21020201 0.89380997
1.9107201 -0.19303499 0.89620501
1.9067199 -0.17846 0.89722794
1.9085001 -0.165235 0.89682597
1.91251 -0.15003601 0.89537895
1.8941499 -0.136528 0.90074492
1.90589 -0.296828 0.87771791
1.91848 -0.255784 0.88224298
1.93405 -0.24510901 0.87798995
1.9470799 -0.21716 0.87621289
1.9417701 -0.201482 0.88004297
1.91301 -0.178966 0.88907897
1.91827 -0.16142599 0.88615096
1.9206901 -0.147742 0.8844679
1.9169999 -0.136812 0.88626099
1.92713 -0.258232 0.87165099
1.96672 -0.23397399 0.85992891
1.96561 -0.22047199 0.86227798
1.9605701 -0.20797101 0.86589599
1.9457401 -0.163472 0.87230897
1.92864 -0.14847201 0.87574887
1.9277099 -0.13605399 0.87535894
1.9058099 -0.123443 0.88117194
1.9698801 -0.22148001 0.85243994
1.9686501 -0.21002899 0.85468096
1.9385 -0.13644201 0.86600691
1.92334 -0.124513 0.86998993
1.9683599 -0.23564899 0.84503293
1.96975 -0.222045 0.84514296
1.97109 -0.210489 0.84587497
1.94444 -0.12655801 0.85859388
1.9273801 -0.289684 0.84487396
1.9168401 -0.27311799 0.84852493
1.9154401 -0.260674 0.84957993
1.9594901 -0.208492 0.84252
1.93071 -0.22753599 1.229847
1.95925 -0.208023 1.228641
1.9053 -0.265892 1.221532
1.88525 -0.27360901 1.215237
1.9105999 -0.27138299 1.212693
1.90847 -0.255999 1.213033
1.89987 -0.278887 1.2064619
1.90567 -0.26930201 1.205145
1.90362 -0.27971101 1.196983
1.97566 -0.212678 1.163206
1.95319 -0.218068 1.1572529
1.9710001 -0.21006599 1.1482079
1.93479 -0.24682699 1.1332949
1.93325 -0.245268 1.124892
1.92769 -0.24165399 1.117373
1.9277699 -0.22792201 1.115396
1.9311999 -0.24113399 1.1096209
1.9449899 -0.220447 1.106084
1.95239 -0.22176 1.0990219
1.94102 -0.32355899 1.0661139
1.9505099 -0.32741901 1.0564569
1.9557201 -0.31827399 1.0561249
1.93527 -0.32289502 1.049158
1.9421699 -0.31388301 1.05053
1.9254401 -0.26168901 1.0523649
1.92241 -0.245341 1.051562
1.9405299 -0.235369 1.04198
1.94892 -0.2202 1.039555
1.9533401 -0.209196 1.0394239
1.92961 -0.26363701 1.0343339
1.92925 -0.245133 1.0366579
1.9413201 -0.23117 1.0347279
1.9369099 -0.215922 1.0342309
1.94959 -0.20796101 1.033443
1.9286599 -0.26331699 1.025582
1.9283299 -0.24687901 1.0263569
1.9254601 -0.227293 1.029017
1.9249899 -0.21266299 1.0289369
1.9293699 -0.20114499 1.027717
1.9892 -0.12754101 1.0156609
1.9266901 -0.23014799 1.0183799
1.92067 -0.211504 1.0221519
1.91199 -0.19462299 1.022175
1.91844 -0.18048 1.019958
1.93457 -0.166962 1.016282
1.96881 -0.136932 1.0124159
1.9861901 -0.128121 1.0103509
1.94451 -0.23572201 1.0048039
1.9147 -0.20731001 1.013965
1.9132299 -0.19165899 1.0143269
1.91485 -0.177672 1.0126959
1.92381 -0.16500799 1.012066
1.9466799 -0.154006 1.0081049
1.9576 -0.13880101 1.0074239
1.9839901 -0.130189 1.003812
1.94311 -0.23515801 0.99718893
1.94086 -0.21815901 0.99826795
1.91514 -0.192535 1.0052949
1.90624 -0.173876 1.0062349
1.91822 -0.164408 1.005741
1.93117 -0.15251 1.0036739
1.95324 -0.140351 1.0006729
1.9844099 -0.130142 0.99619895
1.9290601 -0.30904698 0.99024796
1.91891 -0.27339199 0.99073792
1.92645 -0.259049 0.99029493
1.96071 -0.222848 0.98503095
1.9382601 -0.204785 0.99215996
1.88895 -0.169516 1.0014249
1.9134899 -0.160657 0.99847496
1.9376301 -0.150171 0.99513793
1.9513201 -0.14022 0.992791
1.91956 -0.31832001 0.97838897
1.9174899 -0.30540001 0.98067492
1.91214 -0.27159598 0.98320192
1.9638699 -0.223685 0.97526199
1.95916 -0.21099702 0.97896993
1.86963 -0.163754 0.99666995
1.87819 -0.155709 0.99459791
1.93751 -0.150056 0.98868591
1.94959 -0.141807 0.98636091
1.9108599 -0.31612599 0.97325498
1.923 -0.30897498 0.97024399
1.93444 -0.249699 0.97238189
1.96843 -0.224428 0.96516097
1.9720399 -0.214231 0.9672969
1.8602901 -0.159811 0.99060494
1.84947 -0.147311 0.99117094
1.86842 -0.143426 0.98851293
1.91787 -0.318342 0.962475
1.9205201 -0.30587602 0.96245795
1.92671 -0.27875701 0.96223098
1.93664 -0.24555001 0.96297997
1.97232 -0.224323 0.95577788
1.9708999 -0.213594 0.95851791
1.85191 -0.15608901 0.98395395
1.8402801 -0.14378001 0.98501998
1.84497 -0.136373 0.98536193
1.90845 -0.315649 0.955598
1.92203 -0.30812401 0.95280492
1.92338 -0.292615 0.95422995
1.92193 -0.26072901 0.95541894
1.92988 -0.245856 0.95509601
1.9481701 -0.23533601 0.95263791
1.96864 -0.224932 0.94762594
1.9756199 -0.21449101 0.94828796
1.9237 -0.319159 0.94388199
1.9369701 -0.31122199 0.94042099
1.9285699 -0.26446101 0.94483697
1.92584 -0.24691099 0.94597292
1.9402601 -0.232621 0.94493592
1.9732201 -0.22389901 0.93723792
1.9695101 -0.21132499 0.93917102
1.92391 -0.25830999 0.93726295
1.9192101 -0.24403299 0.93896502
1.9257001 -0.233659 0.93805295
1.97183 -0.22302099 0.93004698
1.95095 -0.194673 0.93492597
1.92487 -0.26024801 0.92796797
1.9229 -0.24393199 0.92974198
1.91584 -0.22811899 0.93050897
1.9585201 -0.216914 0.92295992
1.9650799 -0.20640801 0.92146295
1.94721 -0.19260901 0.92727095
1.9287 -0.26266101 0.91767591
1.9265 -0.245481 0.91954499
1.9196 -0.228934 0.92233491
1.93013 -0.21450301 0.91950995
1.95409 -0.20525801 0.91603196
1.9454499 -0.190598 0.91821396
1.9058 -0.16446801 0.92308593
1.9275501 -0.27893698 0.90642899
1.92778 -0.246003 0.90973997
1.92032 -0.22705299 0.91307592
1.91149 -0.20848101 0.91469389
1.92862 -0.197842 0.91261792
1.9121801 -0.177798 0.91586494
1.90106 -0.163405 0.91799194
1.92853 -0.26494399 0.89925689
1.93142 -0.24873699 0.898871
1.92317 -0.22909701 0.90282196
1.9099801 -0.21073 0.90761793
1.91504 -0.19718 0.90626496
1.92156 -0.18256001 0.90529096
1.9153 -0.16646099 0.90658194
1.9323599 -0.232444 0.890423
1.91548 -0.211091 0.8978079
1.92028 -0.194591 0.89584398
