# .PCD v0.7 - Point Cloud Data file format
VERSION 0.7
FIELDS x y z
SIZE 4 4 4
TYPE F F F
COUNT 1 1 1
WIDTH 107
HEIGHT 1
VIEWPOINT 0 0 0 1 0 0 0
POINTS 107
DATA ascii
2.0506799 -0.231443 0.29104996
2.0292101 -0.21666799 0.29556993
2.0352299 -0.20797701 0.29086
2.036 -0.21847099 0.28090996
2.0399101 -0.208866 0.27698997
2.03547 -0.21933599 0.26800996
2.02932 -0.20679301 0.27244994
2.0276899 -0.20723699 0.26366997
2.0380599 -0.20967101 0.24876991
2.0367301 -0.213577 0.29947999
2.03897 -0.21544901 0.28633994
2.0310202 -0.212584 0.27847993
2.0343101 -0.21370199 0.26396996
2.03022 -0.21166201 0.25444993
2.0252199 -0.211456 0.24488999
2.06529 -0.21734199 0.19398995
2.0586998 -0.21564199 0.19086999
2.05407 -0.214431 0.18656997
2.0481598 -0.200846 0.29937994
2.0351801 -0.21966 0.29698998
2.0439901 -0.20011601 0.29172996
2.0346699 -0.220212 0.28450996
2.0283098 -0.208667 0.29117996
2.0415299 -0.20030701 0.28180993
2.03004 -0.209649 0.27829993
2.0488501 -0.20066901 0.26637992
2.0275199 -0.21042101 0.26683
2.0432699 -0.20008101 0.25870994
2.01862 -0.210324 0.25969994
2.03339 -0.200009 0.25246993
2.02599 -0.210049 0.24509995
2.0423598 -0.20060499 0.23469993
2.02613 -0.20904601 0.23311996
2.0448501 -0.19965701 0.22173996
2.03161 -0.20811 0.21861991
2.0413699 -0.198789 0.21383995
2.0362101 -0.199053 0.20644997
2.02683 -0.199892 0.19887993
2.0281599 -0.19956301 0.18431991
2.0321701 -0.19948798 0.16953994
2.0316999 -0.19946399 0.15787995
2.0337501 -0.19968399 0.14463997
2.0357401 -0.199892 0.13135993
2.0549002 -0.22712 0.29578996
2.04602 -0.225851 0.28924996
2.0438201 -0.21665701 0.29186997
2.0471101 -0.226374 0.27599999
2.0404 -0.21551999 0.28276992
2.0387499 -0.216631 0.27091995
2.0276101 -0.21340099 0.26427993
2.0629601 -0.204317 0.24231994
2.0373299 -0.210788 0.24792992
2.0575101 -0.20357099 0.23781997
2.0315599 -0.21122801 0.24004997
2.0488901 -0.20239599 0.23357993
2.01929 -0.209977 0.23469993
2.0436001 -0.20270799 0.22325997
2.0295701 -0.20975299 0.21888992
2.0442801 -0.20237601 0.20951995
2.04545 -0.201874 0.19647995
2.0415299 -0.200445 0.18786995
2.0388 -0.200783 0.17740998
2.03845 -0.20099001 0.16436997
2.0346899 -0.20039101 0.15404992
2.03899 -0.20146099 0.13928993
2.0469599 -0.22632499 0.29514992
2.0422599 -0.22617599 0.28649995
2.0267 -0.209793 0.29841995
2.0325501 -0.212631 0.28330994
2.02443 -0.20986201 0.27431992
2.0248599 -0.20881201 0.26268998
2.02268 -0.209463 0.25164995
2.03019 -0.20967199 0.23512992
2.0664101 -0.20432699 0.21250992
2.0362198 -0.207642 0.22122994
2.0641799 -0.204464 0.20599999
2.0318999 -0.20809001 0.21314995
2.06074 -0.204244 0.20013992
2.0244799 -0.20700899 0.20426995
2.0506899 -0.20254101 0.17414993
2.0560501 -0.20225 0.16090995
2.0582201 -0.202455 0.14938995
2.0500801 -0.201222 0.14175995
2.05496 -0.20167299 0.12578994
2.0518 -0.20030001 0.11634994
2.0477901 -0.200734 0.10624992
2.0573101 -0.239076 0.28991997
2.0559101 -0.23733999 0.28122994
2.03146 -0.21382201 0.28929994
2.0325599 -0.21433501 0.28134996
2.0317101 -0.21333499 0.27304992
2.03299 -0.21247 0.25986993
2.0603199 -0.209271 0.24287994
2.0334599 -0.21242201 0.24762993
2.0532699 -0.205658 0.23597991
2.0327299 -0.210394 0.23580994
2.0527 -0.20487 0.22472993
2.03315 -0.210255 0.22363998
2.05006 -0.204027 0.21404991
2.0313902 -0.209711 0.21253997
2.0483298 -0.20306401 0.20320992
2.0469999 -0.202316 0.19217995
2.0441499 -0.20176099 0.18256997
2.04144 -0.201847 0.17159995
2.0404201 -0.201346 0.15849999
2.0504801 -0.20500401 0.13974999
2.0448599 -0.20306499 0.13056992
