# .PCD v0.7 - Point Cloud Data file format
VERSION 0.7
FIELDS x y z
SIZE 4 4 4
TYPE F F F
COUNT 1 1 1
WIDTH 131
HEIGHT 1
VIEWPOINT 0 0 0 1 0 0 0
POINTS 131
DATA ascii
2.0896499 -0.25733 0.43016297
2.0574698 -0.250909 0.43379793
2.08478 -0.247189 0.42459092
2.0296099 -0.22399099 0.44338799
2.0436399 -0.24776301 0.43058196
2.0448899 -0.23789699 0.43054298
2.02547 -0.222976 0.43735495
2.02825 -0.24446601 0.42839095
2.0241299 -0.23275499 0.42924592
2.01759 -0.220671 0.43118799
2.02107 -0.24257499 0.42048493
2.0069098 -0.228825 0.42571297
2.00703 -0.2184 0.42692992
2.1036 -0.239924 0.50417793
2.0959699 -0.22857 0.50742495
2.0946898 -0.237407 0.50056994
2.07917 -0.224985 0.50604492
2.0829 -0.23400299 0.49586296
2.0787699 -0.224002 0.49600196
2.07866 -0.23344499 0.48567694
2.07008 -0.222563 0.48964491
2.0769 -0.23264299 0.47554496
2.0696201 -0.22187799 0.47948998
2.05707 -0.228754 0.47311798
2.0553501 -0.219457 0.47468293
2.0575302 -0.22804399 0.46208695
2.0478399 -0.21680599 0.46717095
2.04796 -0.227249 0.45496291
2.04439 -0.216958 0.45772392
2.0436099 -0.227608 0.44456595
2.0464201 -0.21796601 0.44542092
2.05777 -0.24305099 0.42652398
2.0393701 -0.22778401 0.43589294
2.0406501 -0.217494 0.43718192
2.03444 -0.23999099 0.42578492
2.02476 -0.22507499 0.43225998
2.0302901 -0.21524799 0.43107995
1.9949601 -0.249947 0.43189895
2.0236599 -0.24045601 0.42069298
2.0239701 -0.226151 0.42196494
2.0286 -0.250229 0.42725694
2.03582 -0.23051201 0.42669296
2.0236099 -0.226061 0.42470697
2.0264001 -0.239443 0.43027297
2.0288498 -0.254619 0.42075691
2.01793 -0.234997 0.42636192
2.0130701 -0.23121999 0.42057198
2.0353599 -0.21199699 0.47653091
2.0978501 -0.24519899 0.43801796
2.05792 -0.22578101 0.45890695
2.0376999 -0.213533 0.46864793
2.0907099 -0.24390399 0.43432495
2.07109 -0.23045799 0.44398391
2.04195 -0.215895 0.45774993
2.0694399 -0.240877 0.43600792
2.0415401 -0.226887 0.44742393
2.0278599 -0.21452299 0.45240897
2.04268 -0.236807 0.43687493
2.0211899 -0.223775 0.44495797
2.0176301 -0.213061 0.44722497
2.0118201 -0.23537399 0.43817598
2.00404 -0.22288099 0.4427439
2.01387 -0.21358 0.43868592
2.00701 -0.237533 0.43021393
1.99939 -0.22360501 0.43503493
2.00881 -0.21300301 0.42940795
1.99783 -0.23742099 0.42402497
1.99757 -0.222085 0.42554596
2.06582 -0.25224799 0.43011695
2.0341201 -0.246849 0.43705598
2.0457699 -0.238435 0.43311691
2.0089998 -0.21901698 0.44706893
2.0139501 -0.24804501 0.43709594
2.0185299 -0.23286699 0.43642396
1.99877 -0.21631399 0.44410193
2.01601 -0.24460199 0.42756492
2.0025799 -0.22777501 0.43300897
1.9872999 -0.213578 0.44121796
2.0009201 -0.24263799 0.42372894
2.00021 -0.22792 0.42247695
1.99217 -0.21488899 0.42953095
2.09113 -0.227901 0.43165994
2.07974 -0.236462 0.42795098
2.08531 -0.226768 0.42759392
2.0699799 -0.24549401 0.42332298
2.05388 -0.23152901 0.43074197
2.0857 -0.22734 0.42011893
2.03881 -0.240107 0.42706895
2.0144999 -0.225229 0.43668497
2.01352 -0.23922101 0.42577597
2.00734 -0.22525601 0.43040192
2.00611 -0.22533101 0.42129692
2.0850599 -0.22225201 0.48873496
2.0555799 -0.22416401 0.49235299
2.08114 -0.22250299 0.48310393
2.0511999 -0.221901 0.48570794
2.07338 -0.219744 0.47742996
2.0476 -0.22180599 0.47666496
2.0636501 -0.217759 0.47121391
2.0408599 -0.21999599 0.46761993
2.0587199 -0.215968 0.46296692
2.03703 -0.219703 0.45881593
2.05002 -0.21459199 0.45431992
2.02123 -0.2465 0.44591096
2.0290198 -0.21982799 0.45137694
2.04896 -0.21483999 0.44239593
2.0159199 -0.246209 0.44019395
2.04181 -0.24010599 0.43255591
2.02527 -0.220366 0.44200096
2.0478301 -0.214296 0.43456993
2.0130401 -0.248638 0.43102294
2.0149601 -0.23388299 0.43403596
2.0054901 -0.217669 0.43842492
2.0490301 -0.21451901 0.42696097
2.0040801 -0.24421699 0.42583993
2.0102401 -0.23027399 0.42544791
2.00124 -0.21544001 0.43107995
2.0032301 -0.21441601 0.42006195
2.0127001 -0.257476 0.48381796
2.0093899 -0.25702101 0.47778398
1.9958299 -0.25285998 0.47436392
1.9945199 -0.25208101 0.46258897
1.99461 -0.24937999 0.45066497
2.0176101 -0.22497801 0.44184294
1.99366 -0.24707001 0.44117096
2.02054 -0.23990801 0.43129098
2.0093501 -0.22187001 0.43878296
2.00296 -0.246712 0.42778197
2.0225201 -0.238104 0.42079794
2.0078399 -0.22015801 0.43109292
1.9910001 -0.245222 0.42207092
