# .PCD v0.7 - Point Cloud Data file format
VERSION 0.7
FIELDS x y z
SIZE 4 4 4
TYPE F F F
COUNT 1 1 1
WIDTH 1610
HEIGHT 1
VIEWPOINT 0 0 0 1 0 0 0
POINTS 1610
DATA ascii
1.4439999 -0.509848 1.4691221
1.4480901 -0.500696 1.4701779
1.4409399 -0.48894799 1.465732
1.4569701 -0.516424 1.468118
1.4389701 -0.49792001 1.458836
1.4566499 -0.516204 1.4595649
1.46332 -0.52785802 1.455629
1.45795 -0.516868 1.4517819
1.46849 -0.52825201 1.4482238
1.46358 -0.51776904 1.4456799
1.47326 -0.52975798 1.4431239
1.46621 -0.51814097 1.4388549
1.4495 -0.49984199 1.4290779
1.47119 -0.527641 1.435699
1.45726 -0.51175702 1.4268939
1.45155 -0.49864399 1.4232199
1.4485699 -0.48810002 1.4206549
1.4676 -0.52509898 1.4272059
1.4564999 -0.51125699 1.418586
1.4522001 -0.497769 1.4158409
1.4603 -0.49003202 1.4173939
1.45684 -0.47877201 1.4073929
1.4572999 -0.487084 1.402554
1.45716 -0.47755599 1.3997809
1.45481 -0.48575699 1.3927629
1.46069 -0.477534 1.393759
1.4631701 -0.48850602 1.3879399
1.4611099 -0.4765 1.3859189
1.45776 -0.48247102 1.379371
1.46403 -0.474635 1.3801481
1.46515 -0.46682799 1.3789819
1.4659599 -0.51458597 1.3777671
1.4632699 -0.47257802 1.3741739
1.4700301 -0.53451401 1.371967
1.47203 -0.52811003 1.371698
1.47157 -0.519683 1.372131
1.47324 -0.46711102 1.3719299
1.47706 -0.529724 1.3673999
1.47868 -0.523166 1.36659
1.4778399 -0.52920401 1.3601249
1.4757 -0.520172 1.356575
1.48071 -0.52853799 1.3529779
1.47554 -0.51771599 1.3477589
1.4772999 -0.52595901 1.3439109
1.4754601 -0.51612204 1.340187
1.48092 -0.52692598 1.3374869
1.47469 -0.51534498 1.3329331
1.47471 -0.50348002 1.3317239
1.4706799 -0.490224 1.329047
1.47905 -0.5255 1.3284249
1.47627 -0.51368898 1.326365
1.47436 -0.50102299 1.324366
1.4762601 -0.47996101 1.322686
1.4858201 -0.52847302 1.3230859
1.4804201 -0.516743 1.320233
1.47814 -0.50437802 1.319505
1.48155 -0.49348 1.3193949
1.4851199 -0.482485 1.319313
1.48745 -0.52887404 1.3162069
1.4829899 -0.51758999 1.31398
1.4836 -0.50574201 1.31345
1.49808 -0.47255501 1.31373
1.4944099 -0.53159201 1.3114439
1.48158 -0.51701498 1.3065339
1.4806199 -0.50513399 1.3042779
1.48711 -0.48082802 1.3042419
1.51235 -0.46514702 1.309924
1.49291 -0.53053701 1.304149
1.48347 -0.51675898 1.2991999
1.4812601 -0.50335401 1.297395
1.4827499 -0.490419 1.2968659
1.50722 -0.47166198 1.3026539
1.5189799 -0.45723802 1.3053
1.49459 -0.529944 1.2967639
1.48474 -0.51574004 1.2915959
1.48209 -0.501845 1.290712
1.48834 -0.49143001 1.290694
1.52748 -0.468591 1.302359
1.4917799 -0.52923101 1.2872299
1.49001 -0.51859903 1.2860589
1.4858 -0.50500101 1.284407
1.48593 -0.492201 1.282518
1.5078501 -0.472 1.287851
1.52554 -0.46810901 1.2944909
1.5044299 -0.452292 1.2855939
1.5015601 -0.53674901 1.2821389
1.4928 -0.52021599 1.279446
1.48409 -0.502621 1.276526
1.49863 -0.48291302 1.2779139
1.52503 -0.46887401 1.2868689
1.51692 -0.55246401 1.2812039
1.4985001 -0.53483003 1.274464
1.49489 -0.52153802 1.2720649
1.4901601 -0.505539 1.270306
1.50328 -0.48226398 1.2724891
1.5084 -0.46515301 1.2743939
1.51423 -0.55028701 1.272561
1.50077 -0.53387296 1.267735
1.48809 -0.516599 1.263433
1.4950999 -0.48237801 1.263093
1.5053999 -0.47449401 1.265921
1.51686 -0.55223 1.265034
1.5058399 -0.53798002 1.262412
1.49643 -0.52107203 1.258188
1.49884 -0.50696599 1.258011
1.4909101 -0.49111697 1.255661
1.4958099 -0.48155898 1.255775
1.52389 -0.55483299 1.259987
1.5074699 -0.53847903 1.2552099
1.4971499 -0.52255499 1.250469
1.5181301 -0.55123699 1.251097
1.4980099 -0.52107203 1.243781
1.52017 -0.55201799 1.243168
1.49766 -0.51985002 1.235994
1.4947301 -0.50509101 1.2331779
1.5082 -0.485769 1.238264
1.5237399 -0.55446798 1.2367909
1.50157 -0.53443503 1.230466
1.49558 -0.517483 1.227903
1.49974 -0.49605399 1.227419
1.53054 -0.56901902 1.230575
1.5176101 -0.55287999 1.227334
1.50067 -0.53464699 1.222855
1.50134 -0.52288401 1.222685
1.49798 -0.50743598 1.2211739
1.49763 -0.495251 1.21943
1.52836 -0.56762904 1.2243079
1.5025101 -0.53416902 1.216363
1.4970399 -0.51828802 1.2148869
1.4961301 -0.50574499 1.213396
1.50653 -0.53680003 1.2093359
1.5043499 -0.52211201 1.210063
1.5161901 -0.55051601 1.205749
1.50188 -0.534154 1.2007099
1.5051601 -0.52445704 1.2030849
1.5175 -0.549936 1.198529
1.50237 -0.53521097 1.1942029
1.5044999 -0.52688903 1.195184
1.51825 -0.54969198 1.192796
1.50217 -0.53501302 1.18865
1.49761 -0.53234696 1.182466
1.5711701 -0.47491699 1.162431
1.53939 -0.461077 1.132444
1.53148 -0.46164 1.123724
1.43145 -0.475719 1.5252409
1.42942 -0.46549901 1.520982
1.4445701 -0.45991799 1.5263199
1.42825 -0.47262698 1.5151219
1.4423801 -0.46923801 1.5193869
1.4472301 -0.459721 1.5193131
1.4478 -0.46124899 1.51311
1.4536799 -0.45195201 1.513562
1.45224 -0.47100499 1.5065069
1.45253 -0.461189 1.506783
1.4641 -0.45322499 1.5098261
1.4534801 -0.46144199 1.498693
1.4667701 -0.44409999 1.5015149
1.4608099 -0.46006501 1.4697109
1.45627 -0.44940799 1.4654199
1.4548 -0.45672297 1.4589219
1.4561701 -0.44933999 1.457799
1.45638 -0.457919 1.451748
1.4612499 -0.45311201 1.452749
1.45218 -0.45631301 1.4441899
1.46298 -0.45359501 1.447896
1.4691 -0.52859998 1.375121
1.4572501 -0.50502998 1.369067
1.47957 -0.53418303 1.3714149
1.4629201 -0.51640201 1.3653519
1.4604499 -0.506329 1.362947
1.47446 -0.53116101 1.3633569
1.47368 -0.52246702 1.362525
1.46627 -0.50885504 1.3530329
1.4980299 -0.508219 1.158013
1.53057 -0.47021401 1.1483159
1.5287399 -0.46675 1.1414069
1.5373399 -0.45860001 1.141645
1.5324 -0.46603 1.134805
1.53736 -0.456433 1.135206
1.5404299 -0.46820202 1.1290189
1.4333999 -0.49260399 1.523415
1.43487 -0.480308 1.520246
1.4423801 -0.47126701 1.5225689
1.43608 -0.49277303 1.515954
1.4387699 -0.483392 1.5144989
1.44213 -0.471371 1.5142419
1.45028 -0.46211299 1.516626
1.48032 -0.45044699 1.5243961
1.43653 -0.49113098 1.5077358
1.4439399 -0.48458001 1.5084289
1.4556301 -0.463754 1.509794
1.4715101 -0.45641398 1.5141189
1.4755 -0.44733199 1.515445
1.4746499 -0.43741903 1.51323
1.4139 -0.47512099 1.485389
1.45048 -0.47513402 1.502576
1.45916 -0.46606499 1.502607
1.48235 -0.45186698 1.5110959
1.4527299 -0.47465098 1.4945951
1.46373 -0.46623099 1.497126
1.47082 -0.45808998 1.497074
1.43002 -0.473162 1.4756219
1.46235 -0.46565101 1.488757
1.4672 -0.453201 1.486577
1.4270599 -0.470433 1.4669158
1.4622301 -0.46548301 1.478945
1.4549099 -0.47320998 1.4696131
1.45281 -0.46008098 1.466545
1.4684 -0.45642799 1.4715461
1.47431 -0.44635299 1.472769
1.4556 -0.47325 1.4625709
1.4592 -0.46330202 1.4617701
1.48597 -0.45311698 1.467824
1.45601 -0.47085202 1.4531769
1.46507 -0.46385503 1.4557719
1.48866 -0.45416501 1.4603698
1.46609 -0.47575402 1.449602
1.4960001 -0.45688999 1.455429
1.49963 -0.45841703 1.449708
1.4895101 -0.46076801 1.4376929
1.4995301 -0.45810699 1.4422919
1.49108 -0.46088001 1.4316859
1.49651 -0.45598099 1.4335359
1.47447 -0.46717203 1.3729379
1.4951199 -0.465354 1.379388
1.51475 -0.46254501 1.3849061
1.47421 -0.479673 1.368197
1.5036 -0.46684301 1.376799
1.51982 -0.46345502 1.3813269
1.5211799 -0.45474499 1.379686
1.4693201 -0.49027801 1.360757
1.4871601 -0.47594398 1.364725
1.5168201 -0.46242198 1.3732691
1.47409 -0.4937 1.3563719
1.48129 -0.48516399 1.3570399
1.4933701 -0.47712398 1.3594251
1.50502 -0.46819901 1.362072
1.52845 -0.46628502 1.368506
1.47715 -0.49495301 1.3494
1.5103999 -0.46821898 1.3555789
1.5380599 -0.46899602 1.363868
1.5594701 -0.45811099 1.3680949
1.47648 -0.49485999 1.340735
1.50769 -0.47073701 1.346964
1.5375501 -0.46938598 1.355144
1.5610601 -0.45761698 1.361353
1.4962801 -0.47814 1.3363589
1.51728 -0.47196901 1.3416018
1.5432899 -0.471405 1.3484629
1.54865 -0.462125 1.349998
1.55839 -0.45586601 1.351853
1.49756 -0.47743598 1.3273289
1.5181799 -0.47390097 1.333967
1.5411301 -0.47186798 1.3409599
1.56634 -0.45941201 1.346017
1.4796201 -0.49178001 1.3163409
1.48851 -0.48559299 1.3193109
1.51597 -0.47241402 1.324747
1.5465699 -0.47291303 1.3344079
1.47012 -0.48605701 1.3060679
1.5157601 -0.47346002 1.31642
1.5543699 -0.46259999 1.3273638
1.56461 -0.45720798 1.3293689
1.48972 -0.48597801 1.30453
1.51519 -0.471894 1.3074219
1.56164 -0.455686 1.3208358
1.51871 -0.472902 1.3015869
1.53496 -0.46916303 1.3057081
1.5040699 -0.47894502 1.290488
1.5014399 -0.47996601 1.281878
1.5114399 -0.47128701 1.2838719
1.57042 -0.456653 1.296965
1.5188 -0.47197101 1.2774339
1.57189 -0.45855701 1.2904779
1.5230099 -0.471699 1.270265
1.55955 -0.46380797 1.280345
1.5788699 -0.46234402 1.2834959
1.48954 -0.50885099 1.256956
1.54125 -0.46952 1.266299
1.4920501 -0.51257998 1.249669
1.4951301 -0.50151402 1.2513039
1.4963901 -0.51685399 1.2432909
1.52886 -0.47576699 1.2484009
1.4828399 -0.51809901 1.233801
1.49608 -0.51535499 1.2363499
1.5054899 -0.49354303 1.238174
1.5363499 -0.47773701 1.2425849
1.5766499 -0.45845902 1.250232
1.4819701 -0.50607497 1.2257609
1.5338 -0.48024601 1.2344849
1.4899499 -0.49787199 1.218557
1.5191001 -0.485901 1.2239729
1.5416701 -0.48183498 1.229528
1.56151 -0.476982 1.232559
1.58963 -0.47644797 1.2370149
1.5934199 -0.49016601 1.232689
1.60329 -0.48603699 1.233044
1.52924 -0.48031899 1.209649
1.59646 -0.49190602 1.22489
1.60511 -0.487023 1.2263139
1.57652 -0.45342702 1.216599
1.51326 -0.48921001 1.184006
1.54027 -0.48035198 1.189358
1.54059 -0.476156 1.174035
1.5560899 -0.46869099 1.1690849
1.43752 -0.47757 1.527439
1.4430901 -0.46585301 1.5262821
1.4522799 -0.45577899 1.5282469
1.43358 -0.50297099 1.522926
1.43545 -0.49085999 1.520932
1.4395399 -0.476468 1.518862
1.4571401 -0.45743302 1.5224539
1.48283 -0.44627398 1.529128
1.43472 -0.50335801 1.5145371
1.43722 -0.489831 1.512548
1.4419299 -0.477788 1.511199
1.44795 -0.46634302 1.511887
1.4601101 -0.45769501 1.5156
1.47495 -0.451186 1.5193809
1.4920399 -0.44994801 1.5251
1.4947301 -0.442561 1.5248469
1.4407099 -0.508452 1.5099919
1.44095 -0.49554002 1.506134
1.4447501 -0.48253101 1.5057889
1.4516499 -0.47094399 1.5049961
1.45781 -0.45800999 1.50568
1.4740801 -0.45322299 1.5117679
1.48669 -0.44822299 1.5159149
1.4383501 -0.50482702 1.4998509
1.43698 -0.49154499 1.495297
1.45442 -0.47185501 1.497928
1.45961 -0.46074903 1.49804
1.4344701 -0.498945 1.489347
1.44446 -0.494362 1.4911729
1.4473599 -0.48319301 1.4887179
1.45532 -0.47178501 1.489713
1.44582 -0.493772 1.4839619
1.4463401 -0.491815 1.4748081
1.4532601 -0.48396099 1.4739659
1.45827 -0.47090501 1.4726379
1.45058 -0.493422 1.467575
1.4541099 -0.48346803 1.464933
1.4571 -0.47003102 1.4634659
1.49797 -0.43954101 1.4767231
1.4509101 -0.49341801 1.458635
1.46104 -0.475622 1.457702
1.4619501 -0.45891899 1.456097
1.46433 -0.44586799 1.4543821
1.45329 -0.494066 1.4509159
1.4555099 -0.48352799 1.449796
1.4614999 -0.47154999 1.448581
1.45998 -0.45443803 1.445792
1.4388901 -0.48325101 1.43801
1.45581 -0.48271099 1.442778
1.46334 -0.47239301 1.4412658
1.4642301 -0.44698602 1.4386549
1.46935 -0.457221 1.36877
1.48883 -0.456716 1.369018
1.49835 -0.44813401 1.369543
1.4716201 -0.52048802 1.3642089
1.4754 -0.50990003 1.3652989
1.50045 -0.462897 1.366644
1.5195 -0.45837003 1.3701739
1.53211 -0.45400903 1.3722639
1.47237 -0.532709 1.3591559
1.47623 -0.52470297 1.3591781
1.47588 -0.51089501 1.3587259
1.49286 -0.473315 1.3573639
1.5036501 -0.46080899 1.358598
1.5342799 -0.465065 1.3674519
1.4839901 -0.528988 1.3551719
1.47314 -0.508627 1.349771
1.5063001 -0.467253 1.351772
1.4793899 -0.493532 1.3395649
1.49641 -0.475429 1.3424749
1.5072701 -0.464991 1.3432469
1.48092 -0.51140398 1.332642
1.48189 -0.497668 1.331889
1.50105 -0.47445098 1.334662
1.51302 -0.46516898 1.33647
1.4839 -0.52540898 1.326633
1.4789901 -0.50890303 1.3242389
1.48051 -0.49513501 1.3228589
1.48885 -0.48725498 1.325313
1.49546 -0.47511002 1.325021
1.51223 -0.46743599 1.327778
1.48597 -0.52774101 1.3199829
1.48334 -0.514027 1.317572
1.51389 -0.46645099 1.31932
1.56451 -0.45955199 1.3327519
1.4849 -0.52656603 1.3117219
1.48045 -0.51167899 1.309101
1.51168 -0.468346 1.3114239
1.5240101 -0.459481 1.313329
1.48549 -0.52690202 1.3030729
1.48447 -0.51372397 1.302912
1.49069 -0.50224298 1.301065
1.51266 -0.46585399 1.303844
1.52948 -0.463283 1.3065
1.49019 -0.53051102 1.297027
1.48808 -0.516761 1.295159
1.4897599 -0.50193298 1.2919431
1.51817 -0.47022 1.297349
1.4903101 -0.529571 1.289613
1.49062 -0.51695597 1.2870029
1.4889901 -0.50140595 1.2839019
1.5095199 -0.48010701 1.2876348
1.55742 -0.46086499 1.2958859
1.49103 -0.52788299 1.280327
1.4876601 -0.51214403 1.2774869
1.5215601 -0.47099498 1.2812171
1.50528 -0.53781801 1.2764659
1.4931901 -0.51768899 1.271415
1.5092701 -0.481511 1.2703329
1.5181799 -0.47078201 1.271297
1.56879 -0.45629701 1.2846249
1.4913901 -0.51587999 1.263443
1.4995199 -0.508277 1.2638559
1.53056 -0.46538398 1.2661229
1.4960699 -0.51522601 1.2555299
1.5028399 -0.519853 1.248826
1.53196 -0.47693598 1.252468
1.5033001 -0.52156699 1.240571
1.49981 -0.50647599 1.2377499
1.50617 -0.49473998 1.2385809
1.5313901 -0.47710097 1.2438809
1.5206599 -0.54588503 1.238647
1.50438 -0.52241403 1.232303
1.5347999 -0.47845298 1.235404
1.50529 -0.535478 1.226638
1.50569 -0.52443004 1.224121
1.50651 -0.51055902 1.2245289
1.5358 -0.47777802 1.2269289
1.50308 -0.53393102 1.217291
1.49994 -0.52040404 1.215609
1.5098399 -0.51292998 1.217298
1.5066 -0.535882 1.209133
1.5062699 -0.523862 1.210223
1.50578 -0.50748199 1.207541
1.5358701 -0.47882998 1.2121559
1.57567 -0.447411 1.2144049
1.5120399 -0.53957802 1.202139
1.5051301 -0.52200103 1.2008799
1.5094701 -0.50719798 1.199904
1.5403301 -0.48148999 1.20426
1.57998 -0.44939098 1.20819
1.5102201 -0.53707498 1.1944649
1.5103 -0.52687097 1.19436
1.5142701 -0.51439601 1.193597
1.5093601 -0.52215201 1.1857409
1.60341 -0.443602 1.189741
1.5667999 -0.43979001 1.126214
1.51185 -0.542983 1.2230589
1.4992399 -0.53697699 1.220349
1.5039799 -0.54489398 1.2138519
1.4951199 -0.53565103 1.212064
1.53407 -0.55664396 1.211161
1.52031 -0.55197799 1.208728
1.5076401 -0.54597598 1.207361
1.5036099 -0.53530604 1.207171
1.49972 -0.52425599 1.2063609
1.53935 -0.55618101 1.205645
1.5267 -0.55126703 1.2041739
1.51335 -0.543881 1.2017989
1.50431 -0.53264201 1.199816
1.49709 -0.52275503 1.197948
1.5449001 -0.55443799 1.2004139
1.5282 -0.55013102 1.1969299
1.51257 -0.54113901 1.193924
1.5027499 -0.53056401 1.1920459
1.5078599 -0.51758999 1.1944619
1.49975 -0.51231897 1.1943699
1.5410401 -0.55544204 1.192225
1.5299001 -0.55012101 1.189989
1.5196099 -0.54258096 1.188053
1.50621 -0.533144 1.185634
1.5084599 -0.51899505 1.187338
1.5047001 -0.51039296 1.188835
1.54505 -0.55438101 1.186224
1.51282 -0.54203302 1.178669
1.5129499 -0.52823001 1.1810249
1.53976 -0.55655199 1.177804
1.5141001 -0.54141402 1.1710351
1.50534 -0.53136003 1.171873
1.52353 -0.55050302 1.166245
1.51362 -0.54155701 1.16343
1.51212 -0.54189098 1.156631
1.5139999 -0.50419897 1.15254
1.51186 -0.50453901 1.145594
1.5082201 -0.49492198 1.144599
1.5296899 -0.54871297 1.137607
1.51912 -0.498633 1.1403459
1.52289 -0.48648 1.141402
1.5571201 -0.56384301 1.134302
1.53661 -0.54753703 1.1316099
1.51414 -0.54043597 1.1279819
1.5172701 -0.52709299 1.130141
1.5106 -0.51775098 1.1295979
1.51606 -0.50205398 1.132332
1.5230701 -0.48609298 1.1347649
1.55581 -0.56483799 1.127025
1.54096 -0.55722404 1.125478
1.52693 -0.54844499 1.1221809
1.51636 -0.53843397 1.121244
1.51494 -0.527174 1.123548
1.5096099 -0.515468 1.1222209
1.5228701 -0.49692798 1.1272769
1.5289999 -0.48310298 1.128503
1.52622 -0.47495899 1.130443
1.56232 -0.56407601 1.1214759
1.5413699 -0.55807096 1.1176369
1.5301601 -0.547943 1.115499
1.52416 -0.53700399 1.115947
1.51255 -0.52766901 1.1156039
1.51491 -0.51456296 1.115744
1.5182401 -0.49959999 1.11856
1.5367999 -0.47080898 1.125652
1.5810601 -0.56833196 1.117978
1.56064 -0.56433797 1.1138539
1.53653 -0.54823703 1.110273
1.5629699 -0.46757197 1.122929
1.54318 -0.467327 1.11992
1.57973 -0.56832999 1.110533
1.50568 -0.54184198 1.395014
1.51379 -0.54025501 1.39373
1.45819 -0.524863 1.371624
1.51836 -0.531645 1.3916199
1.4812801 -0.52741599 1.3747189
1.47087 -0.521281 1.370522
1.4815899 -0.52491498 1.365817
1.46851 -0.518574 1.360997
1.50739 -0.52730596 1.368304
1.4837601 -0.525361 1.358879
1.4744 -0.51658201 1.356149
1.49964 -0.52946299 1.3582209
1.4792501 -0.52548301 1.349788
1.47054 -0.51603103 1.347307
1.46535 -0.50623202 1.347043
1.4911901 -0.53133798 1.3466949
1.47595 -0.52693295 1.3413959
1.47852 -0.51614398 1.3435649
1.49262 -0.53120202 1.3395439
1.48897 -0.52292001 1.339332
1.4780201 -0.51379603 1.336931
1.48246 -0.50108999 1.3383889
1.47264 -0.49271098 1.337273
1.48194 -0.47049999 1.3429829
1.4941901 -0.53122503 1.3321769
1.4778199 -0.525168 1.3268669
1.4832801 -0.51272601 1.331678
1.47366 -0.503901 1.327774
1.47767 -0.490118 1.331471
1.4980201 -0.532435 1.325076
1.48709 -0.52504802 1.322778
1.47709 -0.51429296 1.320999
1.48397 -0.49919799 1.3255039
1.50965 -0.538261 1.3218369
1.49297 -0.53354001 1.3160061
1.48642 -0.52256 1.315708
1.47504 -0.51440001 1.313102
1.47806 -0.50219399 1.315575
1.4786 -0.490293 1.3156999
1.4802099 -0.48034599 1.318226
1.50957 -0.53860497 1.3149868
1.49066 -0.53516996 1.307626
1.4882001 -0.52401698 1.3080989
1.4803799 -0.51283199 1.308458
1.4796201 -0.50010699 1.308098
1.50598 -0.53908402 1.305652
1.4955299 -0.53247201 1.303063
1.4903901 -0.52272397 1.300917
1.48265 -0.51165098 1.30114
1.47744 -0.50133497 1.300378
1.47724 -0.490998 1.3013089
1.50912 -0.53903997 1.298273
1.4982201 -0.53177202 1.296615
1.49217 -0.52256602 1.295007
1.48734 -0.511922 1.2943649
1.4835 -0.49985501 1.296265
1.48443 -0.48814097 1.2967141
1.51072 -0.539316 1.2920709
1.50331 -0.53269696 1.2905029
1.48763 -0.51141602 1.286397
1.48702 -0.49869201 1.289905
1.48763 -0.486781 1.2901819
1.50158 -0.53155303 1.2827339
1.49018 -0.52235901 1.27937
1.4849299 -0.51188201 1.278242
1.4853101 -0.49925098 1.281153
1.51571 -0.469576 1.292285
1.50244 -0.53933996 1.2754951
1.49186 -0.532049 1.2713289
1.4838099 -0.52174902 1.270247
1.4839101 -0.50930399 1.271893
1.50375 -0.48142898 1.2809548
1.52819 -0.46559602 1.290009
1.5038699 -0.53907603 1.267458
1.49255 -0.53270799 1.26376
1.48957 -0.52215999 1.264658
1.4825901 -0.51199299 1.264354
1.51223 -0.47909001 1.2773889
1.5329601 -0.46382001 1.286387
1.5061301 -0.539505 1.2610899
1.4995301 -0.53279299 1.259348
1.493 -0.52315497 1.258269
1.48841 -0.510037 1.2583859
1.49503 -0.53175402 1.250616
1.49185 -0.52039599 1.251569
1.49098 -0.50924802 1.250875
1.5039901 -0.48465598 1.25851
1.49287 -0.52083999 1.2446059
1.49397 -0.50938398 1.244622
1.50192 -0.53843302 1.237728
1.4982699 -0.51934397 1.2382239
1.52203 -0.476385 1.2483029
1.49874 -0.53020698 1.231353
1.49641 -0.51986802 1.229432
1.50892 -0.49008501 1.237633
1.53082 -0.473331 1.245001
1.4965301 -0.52952099 1.2235579
1.49295 -0.52060598 1.221435
1.5004401 -0.50719202 1.2248089
1.50141 -0.51665902 1.2180099
1.4986999 -0.50680101 1.2171739
1.4976699 -0.51660097 1.20989
1.50319 -0.51434201 1.204087
1.5042599 -0.50512904 1.205825
1.5024201 -0.51246899 1.1969199
1.56207 -0.55232298 1.197353
1.55896 -0.55272901 1.1919479
1.53411 -0.55139101 1.184996
1.54144 -0.47788399 1.19572
1.54931 -0.55654901 1.1835229
1.53327 -0.56094801 1.172317
1.5433 -0.475766 1.173526
1.57048 -0.55910701 1.140402
1.5360401 -0.458415 1.147446
1.5700301 -0.55956101 1.1350219
1.5411999 -0.55624402 1.1307549
1.53854 -0.54644001 1.12985
1.5151 -0.538472 1.12545
1.51759 -0.52660298 1.126935
1.50095 -0.52242202 1.1226729
1.5711501 -0.55929601 1.129231
1.54693 -0.55536401 1.1247799
1.5299499 -0.54681301 1.1210769
1.5207801 -0.53698397 1.1193579
1.5104201 -0.52786702 1.118552
1.50937 -0.517923 1.117746
1.57242 -0.55853003 1.122474
1.5459801 -0.55345601 1.117052
1.5261199 -0.54517502 1.113192
1.51556 -0.53500801 1.1118549
1.57946 -0.55758798 1.1166139
1.5540199 -0.55373502 1.111447
1.5851899 -0.556467 1.110431
1.47321 -0.52597898 1.354684
1.4850301 -0.52442801 1.354714
1.4762 -0.51835996 1.3514459
1.4775101 -0.52532697 1.3459849
1.47727 -0.51687998 1.3453259
1.4659899 -0.50768 1.34052
1.4803901 -0.52382398 1.339793
1.4793299 -0.51520997 1.3387129
1.46817 -0.50581598 1.334342
1.4700799 -0.495033 1.337791
1.47752 -0.52410197 1.3303229
1.4705299 -0.51573002 1.3279331
1.47184 -0.50472802 1.3288291
1.4869901 -0.52355802 1.326587
1.48112 -0.51657099 1.3248749
1.4723899 -0.50744897 1.322103
1.47393 -0.49486101 1.3239899
1.4896801 -0.52262598 1.3208609
1.47774 -0.51546401 1.316295
1.47795 -0.50330698 1.316901
1.4795101 -0.49091998 1.3194969
1.4974 -0.469015 1.328051
1.4832201 -0.522708 1.310451
1.47923 -0.51348901 1.3093109
1.4744099 -0.50322604 1.308069
1.50052 -0.46882197 1.3209469
1.48781 -0.52350104 1.3044831
1.48015 -0.516316 1.302294
1.47957 -0.504875 1.302586
1.47711 -0.493471 1.3040481
1.5115499 -0.46541899 1.3166111
1.4851199 -0.52466702 1.2961299
1.48151 -0.515737 1.295398
1.47613 -0.50549001 1.293767
1.4834199 -0.49177399 1.2986591
1.5237801 -0.46093202 1.3135519
1.5097001 -0.52986598 1.2966269
1.4817799 -0.52548099 1.2875339
1.4798 -0.51488 1.2877319
1.47826 -0.50274104 1.2877809
1.5089999 -0.472882 1.300722
1.52254 -0.46092302 1.307196
1.50263 -0.53233397 1.2861139
1.48745 -0.52379102 1.2824578
1.48105 -0.51321703 1.2815039
1.48224 -0.50260901 1.2813308
1.48578 -0.49115101 1.2849201
1.5084 -0.53386003 1.281117
1.49591 -0.52604699 1.2778059
1.4841 -0.51418 1.2747719
1.48164 -0.50270802 1.274937
1.4888099 -0.48968202 1.2784179
1.51638 -0.47078601 1.2893261
1.5102201 -0.53414398 1.2751559
1.49354 -0.52507001 1.2696519
1.4855701 -0.51389998 1.26711
1.5109199 -0.474428 1.280206
1.52596 -0.540075 1.273266
1.50745 -0.53357399 1.266776
1.48892 -0.52425098 1.260399
1.4835299 -0.51385701 1.2600789
1.4856501 -0.50232399 1.2621559
1.4877499 -0.48997602 1.2627549
1.5158401 -0.472859 1.2743109
1.52371 -0.53958398 1.265079
1.50534 -0.53309602 1.258417
1.49183 -0.52398103 1.2537279
1.48615 -0.51281101 1.2544229
1.4834199 -0.50041199 1.2541289
1.50026 -0.48494801 1.2605369
1.52897 -0.46683103 1.2712369
1.5208099 -0.53982103 1.2558589
1.50125 -0.53274703 1.2496449
1.49544 -0.522506 1.248165
1.4878999 -0.51406598 1.247793
1.4867901 -0.50291502 1.2481699
1.4919 -0.489665 1.2503489
1.52265 -0.54045796 1.2492149
1.5151199 -0.53314996 1.247081
1.49971 -0.523633 1.2423459
1.4937601 -0.51144004 1.2427399
1.5214101 -0.53988099 1.24208
1.49561 -0.52373201 1.2342119
1.49503 -0.51253104 1.234974
1.4924099 -0.49157798 1.235229
1.5112399 -0.54041696 1.231037
1.5036099 -0.533095 1.22905
1.4968899 -0.52315104 1.227744
1.48684 -0.51312697 1.2255909
1.4916 -0.50157297 1.2283299
1.49164 -0.492235 1.2275599
1.51254 -0.54124904 1.2240759
1.5066 -0.53301698 1.2228639
1.49524 -0.523453 1.220345
1.49789 -0.51082903 1.222124
1.4965401 -0.49907699 1.2230699
1.49518 -0.49123901 1.221701
1.51455 -0.54189897 1.217253
1.5094 -0.53393698 1.21601
1.50202 -0.523072 1.2153419
1.4980999 -0.510526 1.2138429
1.5389199 -0.54776102 1.216243
1.5160899 -0.54211599 1.211188
1.5091701 -0.53306502 1.209415
1.5044399 -0.52114302 1.208409
1.49707 -0.51017898 1.2060989
1.5392101 -0.548738 1.2097709
1.52343 -0.542099 1.2061419
1.5055499 -0.53222901 1.200642
1.49884 -0.52001101 1.2001109
1.50395 -0.50898397 1.2022671
1.5396899 -0.54871297 1.203761
1.5148801 -0.54288101 1.1961219
1.5079601 -0.53291202 1.193288
1.5030999 -0.52086496 1.194154
1.49632 -0.51022702 1.194162
1.5399499 -0.54804301 1.1967289
1.51337 -0.54295397 1.188387
1.5053101 -0.53389096 1.185879
1.5036999 -0.522102 1.18646
1.50309 -0.50852299 1.188519
1.53396 -0.54804099 1.187791
1.51326 -0.54161 1.1812749
1.5142399 -0.53075004 1.1828699
1.5280499 -0.547638 1.178715
1.5124899 -0.54095399 1.17395
1.51025 -0.53127199 1.175229
1.58052 -0.45332298 1.1970869
1.51402 -0.53995699 1.167786
1.50993 -0.530303 1.1677669
1.5823599 -0.45237201 1.1842149
1.5721 -0.44610801 1.181806
1.5831701 -0.452649 1.1791511
1.5071601 -0.49483898 1.1472319
1.5052099 -0.497145 1.139504
1.5173199 -0.48449299 1.145126
1.50003 -0.515728 1.131858
1.5053101 -0.50633997 1.1325259
1.50315 -0.488372 1.1333939
1.50121 -0.51419801 1.1254719
1.5056 -0.50477201 1.1261479
1.50674 -0.49545801 1.127286
1.52499 -0.55514401 1.1187739
1.50292 -0.50562102 1.119619
1.54653 -0.55776697 1.11655
1.5338 -0.55303198 1.114965
1.4724801 -0.46660998 1.377836
1.4979401 -0.45686698 1.3838699
1.4561501 -0.475609 1.3600159
1.49854 -0.45706099 1.3782759
1.4702201 -0.476614 1.358297
1.5002201 -0.45696601 1.371483
1.50088 -0.52431303 1.356416
1.4686199 -0.47786799 1.350372
1.5046699 -0.456034 1.365219
1.5103199 -0.53065896 1.355318
1.48754 -0.52351201 1.346118
1.4682201 -0.513165 1.3391119
1.46838 -0.48792303 1.342303
1.4746499 -0.47591302 1.346115
1.51115 -0.45526201 1.360168
1.50357 -0.53040099 1.347258
1.4895799 -0.52370203 1.3409259
1.4807601 -0.51270902 1.338069
1.4763 -0.50111198 1.337175
1.47473 -0.47846001 1.339155
1.5213699 -0.45359099 1.356694
1.5022999 -0.53053904 1.339877
1.489 -0.52297401 1.3340548
1.48088 -0.51332998 1.330569
1.47685 -0.50079101 1.3301409
1.4680901 -0.48900399 1.3272979
1.47551 -0.477202 1.332009
1.5067199 -0.46271402 1.3440909
1.5248101 -0.45268399 1.351229
1.49809 -0.53012198 1.330874
1.4878999 -0.522093 1.326242
1.4795101 -0.510952 1.3228979
1.47651 -0.49943501 1.3223829
1.4736099 -0.47883499 1.3240939
1.49411 -0.53016603 1.3210911
1.4845599 -0.52122599 1.3175999
1.47492 -0.511177 1.313821
1.4748199 -0.50053 1.314985
1.47758 -0.48898101 1.316933
1.49737 -0.53065699 1.3147569
1.49314 -0.52291304 1.31358
1.47675 -0.51332301 1.3078839
1.47552 -0.50133497 1.30775
1.4782699 -0.49013001 1.3103878
1.4816499 -0.477862 1.3114609
1.5134399 -0.46275002 1.324405
1.49544 -0.52996099 1.306756
1.4872099 -0.52107501 1.3042909
1.48067 -0.50998598 1.302482
1.47293 -0.50025201 1.3003501
1.4778301 -0.48922798 1.302634
1.48061 -0.477714 1.304209
1.50735 -0.464748 1.3146961
1.5053999 -0.52952498 1.302352
1.49455 -0.52202499 1.30002
1.48586 -0.51159698 1.29677
1.47475 -0.50026399 1.2946479
1.48224 -0.48929599 1.296677
1.4822501 -0.47901601 1.2979339
1.5276101 -0.45835498 1.3153889
1.5087399 -0.52929401 1.29696
1.4961799 -0.52150702 1.2928699
1.4841 -0.51130301 1.2890799
1.48403 -0.49924302 1.289858
1.4829601 -0.48763901 1.2906588
1.4857401 -0.479193 1.291037
1.5050101 -0.52937198 1.2893389
1.49878 -0.52175802 1.2862289
1.48677 -0.51074702 1.2826591
1.48834 -0.49754399 1.2835779
1.48414 -0.48718601 1.283778
1.48185 -0.47901699 1.2830529
1.5051601 -0.52894598 1.2823861
1.4952099 -0.52100897 1.278178
1.48278 -0.51131898 1.2731309
1.4790601 -0.49985099 1.273427
1.49287 -0.47634801 1.280357
1.5271001 -0.46072602 1.291045
1.49963 -0.52900797 1.273101
1.4958 -0.52077204 1.2710719
1.47847 -0.51223803 1.265013
1.48226 -0.501459 1.2673059
1.4834801 -0.48945901 1.2686529
1.5284899 -0.46066102 1.284592
1.49476 -0.53010601 1.262839
1.4862 -0.52064401 1.261338
1.48095 -0.51059604 1.2596279
1.51359 -0.53860402 1.261475
1.50388 -0.53162897 1.2583569
1.4871001 -0.52135199 1.2539129
1.48871 -0.50777102 1.2551301
1.48686 -0.49575001 1.255206
1.48248 -0.48692799 1.254231
1.49892 -0.53143197 1.2508359
1.4958701 -0.52215302 1.249074
1.48752 -0.51041698 1.246938
1.4905701 -0.497747 1.249323
1.5145799 -0.53973097 1.2482699
1.49809 -0.520428 1.24254
1.4874201 -0.50870496 1.2398299
1.4882699 -0.49922299 1.24189
1.48789 -0.48844898 1.2421429
1.4963001 -0.47820202 1.244988
1.51314 -0.53935599 1.241212
1.50183 -0.52073598 1.2365669
1.48923 -0.50967801 1.233357
1.4902999 -0.49713001 1.235629
1.50799 -0.53897101 1.231676
1.50471 -0.52961701 1.2306859
1.4927001 -0.51869303 1.2272819
1.4971299 -0.507505 1.229115
1.49117 -0.49828398 1.2289599
1.49731 -0.486175 1.230823
1.51487 -0.53987801 1.226241
1.50746 -0.531865 1.2244679
1.49819 -0.52077401 1.2217489
1.49589 -0.508551 1.222267
1.49763 -0.486931 1.2232629
1.5033901 -0.47732899 1.225533
1.5121499 -0.53986299 1.217971
1.49756 -0.53085601 1.215047
1.50003 -0.520401 1.214883
1.4961799 -0.51009601 1.215629
1.5117999 -0.47465402 1.2203209
1.5131 -0.540299 1.2109209
1.5026401 -0.53078902 1.2098809
1.5019799 -0.52059501 1.208909
1.4980299 -0.50900698 1.2089989
1.5439501 -0.54886502 1.213488
1.52008 -0.54150301 1.2061949
1.50532 -0.53026402 1.203308
1.49612 -0.51857698 1.201419
1.49658 -0.50689799 1.2009799
1.51054 -0.47391701 1.206737
1.54634 -0.54881799 1.2088619
1.51885 -0.54088902 1.199759
1.51091 -0.53143799 1.1969209
1.50201 -0.51848799 1.195878
1.4920399 -0.50775099 1.193002
1.5258299 -0.468593 1.204404
1.51315 -0.539056 1.191421
1.51491 -0.53083301 1.1909829
1.5048399 -0.52115798 1.1889189
1.4995799 -0.50753897 1.188143
1.52496 -0.471533 1.197017
1.55155 -0.45708802 1.205003
1.51907 -0.53767699 1.186415
1.52933 -0.46962202 1.191214
1.5150501 -0.53702098 1.1781689
1.5061001 -0.52859801 1.174755
1.5430599 -0.467123 1.187544
1.5164399 -0.53749597 1.1704849
1.54668 -0.46785399 1.181152
1.5496299 -0.552432 1.170386
1.5215601 -0.541664 1.1640469
1.54651 -0.46768901 1.175144
1.5266099 -0.553069 1.1594859
1.51726 -0.54146099 1.1567529
1.5031301 -0.495978 1.1491389
1.5084801 -0.49740398 1.144207
1.49422 -0.50846601 1.1318949
1.53196 -0.55022097 1.133615
1.51748 -0.54022199 1.1291969
1.51539 -0.52949697 1.128305
1.50754 -0.51830298 1.1281699
1.53591 -0.417142 1.138505
1.52674 -0.54883999 1.125692
1.52002 -0.53866798 1.122704
1.51438 -0.52809697 1.122527
1.5086501 -0.51929903 1.121212
1.5166 -0.53856701 1.1155009
1.5178101 -0.52896601 1.116339
1.5203 -0.53643298 1.1102849
1.51905 -0.527803 1.110001
1.45073 -0.44527698 1.5022769
1.4628 -0.43822202 1.5093781
1.4512199 -0.45408699 1.4887779
1.43813 -0.51175398 1.4733161
1.44507 -0.47619098 1.4772431
1.44836 -0.45553699 1.4798149
1.4502001 -0.51328701 1.4728749
1.4425101 -0.50207102 1.4691651
1.44038 -0.489636 1.4684501
1.43673 -0.477211 1.4667029
1.4527 -0.45404801 1.47466
1.4713299 -0.522255 1.4750819
1.45129 -0.51173997 1.4655359
1.4460601 -0.49875802 1.4634548
1.43768 -0.48722303 1.460332
1.44201 -0.47685701 1.461726
1.45022 -0.45516399 1.465845
1.46615 -0.42080602 1.475611
1.46541 -0.52012503 1.4654889
1.45672 -0.51157397 1.4609571
1.44803 -0.501499 1.4567341
1.4453101 -0.488489 1.455502
1.4486901 -0.47559699 1.4572189
1.4543899 -0.464068 1.4603909
1.4407099 -0.51707804 1.446089
1.4536301 -0.510342 1.4528869
1.44472 -0.49948102 1.4475989
1.44225 -0.488965 1.445707
1.44973 -0.47825298 1.4500389
1.45044 -0.46598998 1.450657
1.45692 -0.45431802 1.455721
1.4442101 -0.50808698 1.440451
1.4469399 -0.497435 1.4409519
1.45216 -0.48650399 1.443517
1.45275 -0.47524101 1.4442059
1.4501401 -0.465345 1.44324
1.4647 -0.45488098 1.451105
1.48677 -0.44410598 1.461243
1.4483701 -0.49964401 1.4348979
1.44876 -0.488516 1.4342788
1.45443 -0.47735801 1.4380879
1.45752 -0.46541598 1.439392
1.4439999 -0.48765498 1.425077
1.4530499 -0.47729599 1.429724
1.45649 -0.46569198 1.4305271
1.49929 -0.44668999 1.4513221
1.4449 -0.48639402 1.418486
1.45306 -0.47465697 1.421967
1.45173 -0.46739799 1.4148489
1.49422 -0.45498502 1.437431
1.45542 -0.467794 1.392742
1.4622799 -0.47594503 1.380798
1.4660699 -0.46742699 1.382061
1.4616499 -0.493626 1.3739749
1.46147 -0.48489398 1.372771
1.46746 -0.47465801 1.375751
1.4667799 -0.49493599 1.3672949
1.4713901 -0.48637298 1.3697929
1.4645 -0.47684503 1.3672889
1.46948 -0.46740502 1.3695689
1.44726 -0.503407 1.3523709
1.46443 -0.49709901 1.3589951
1.4672799 -0.48698398 1.3611979
1.4686099 -0.47563899 1.361205
1.4748501 -0.46710899 1.364327
1.4710201 -0.497154 1.3550079
1.4712399 -0.48604697 1.355031
1.46883 -0.475573 1.3536
1.47243 -0.466488 1.3559619
1.4704601 -0.50624299 1.347224
1.46778 -0.496268 1.346264
1.4693201 -0.48438799 1.346506
1.4798199 -0.47323701 1.3516749
1.5196401 -0.45159301 1.3672949
1.5460401 -0.44224 1.3782649
1.47627 -0.51719302 1.34066
1.4752001 -0.49516898 1.3419189
1.4741299 -0.47455502 1.3421289
1.5508599 -0.441302 1.373175
1.50149 -0.52933699 1.343665
1.48509 -0.52075499 1.3375659
1.47883 -0.50964904 1.3352851
1.4738699 -0.49812803 1.3348911
1.46937 -0.48746699 1.3327709
1.47001 -0.476394 1.332999
1.4773899 -0.46670398 1.336494
1.50362 -0.52919996 1.338758
1.4858201 -0.52005202 1.3311299
1.47877 -0.50999099 1.3278259
1.4776 -0.49846599 1.3287849
1.469 -0.48570499 1.3252939
1.4784199 -0.47436199 1.328629
1.485 -0.46618402 1.331759
1.4974 -0.52799302 1.329326
1.48623 -0.51941299 1.324113
1.47587 -0.50842798 1.320148
1.47192 -0.49612099 1.318965
1.4751101 -0.483872 1.319932
1.47926 -0.47404301 1.32206
1.48004 -0.46611598 1.322724
1.4963601 -0.52775002 1.3216429
1.48323 -0.51863301 1.315725
1.47698 -0.50711602 1.3129179
1.47021 -0.49446201 1.311106
1.46759 -0.484115 1.3104249
1.48009 -0.47442299 1.3153369
1.48043 -0.46610099 1.3157581
1.49834 -0.52727699 1.314729
1.4817799 -0.51786304 1.307482
1.47987 -0.50823802 1.3072181
1.47869 -0.49781898 1.3070489
1.4755901 -0.48463401 1.3062481
1.4770501 -0.47408402 1.307106
1.49603 -0.52719897 1.3058178
1.48807 -0.51900297 1.3030468
1.48291 -0.50887102 1.3016989
1.4788001 -0.495603 1.299529
1.4849899 -0.484274 1.302537
1.4877901 -0.46573699 1.3040199
1.50117 -0.52790099 1.300687
1.4934 -0.51945299 1.298322
1.4811 -0.50776297 1.293373
1.47753 -0.49563703 1.2910959
1.4834199 -0.48341501 1.295179
1.4835601 -0.47334701 1.295392
1.50029 -0.52742201 1.2937188
1.4917599 -0.51817799 1.2901081
1.4802001 -0.50675601 1.285669
1.47935 -0.48458499 1.286034
1.4897599 -0.47276402 1.290758
1.5006399 -0.52722001 1.2857809
1.48508 -0.51678395 1.280443
1.47835 -0.505364 1.2782359
1.4734501 -0.49568599 1.276698
1.47533 -0.48637199 1.277614
1.4824899 -0.475196 1.280549
1.4951199 -0.464028 1.285105
1.50565 -0.52897704 1.279785
1.49163 -0.519777 1.275598
1.48595 -0.50831902 1.27387
1.47798 -0.49595901 1.271848
1.48101 -0.48401502 1.2727249
1.4896201 -0.47257701 1.27588
1.50729 -0.52829701 1.273765
1.4865199 -0.51737303 1.266824
1.4819599 -0.50522399 1.2654229
1.4820199 -0.49318001 1.2658139
1.49262 -0.48172501 1.269825
1.50736 -0.46339902 1.273837
1.5046201 -0.52798802 1.265924
1.4984801 -0.519593 1.2637089
1.4830999 -0.50803 1.2585269
1.4847701 -0.49558601 1.259099
1.4892999 -0.48435003 1.261956
1.5001601 -0.472909 1.2654899
1.512 -0.46195099 1.26767
1.50377 -0.52666497 1.2587839
1.4868801 -0.51707 1.252332
1.4858299 -0.50532401 1.2524279
1.48569 -0.49470699 1.2526469
1.51718 -0.45986697 1.263492
1.4987601 -0.52575403 1.249496
1.49362 -0.51794201 1.247808
1.48947 -0.50816298 1.246668
1.4878501 -0.494854 1.2462859
1.49254 -0.48272702 1.2476519
1.50035 -0.471634 1.250954
1.52455 -0.45925099 1.259391
1.50106 -0.52665502 1.2429179
1.49702 -0.51805902 1.242244
1.48926 -0.50615603 1.2395059
1.48932 -0.49454799 1.238826
1.4877499 -0.48438302 1.239949
1.49702 -0.473553 1.242927
1.51366 -0.46200803 1.248564
1.5 -0.52730101 1.234916
1.4914 -0.51587701 1.2329899
1.4920399 -0.50410199 1.233429
1.4957299 -0.48346099 1.2352639
1.52315 -0.459966 1.2443529
1.52246 -0.53745997 1.2350399
1.49992 -0.52950799 1.227789
1.49885 -0.51960701 1.227991
1.49295 -0.494441 1.227963
1.4986999 -0.48375598 1.2286299
1.50905 -0.47130901 1.2329069
1.53457 -0.45808601 1.2401069
1.51843 -0.53771901 1.2275369
1.5003999 -0.51796401 1.221679
1.48903 -0.50667799 1.2178169
1.49771 -0.49446499 1.221224
1.5210099 -0.468907 1.2291809
1.5332401 -0.45861199 1.2327629
1.51511 -0.53733504 1.2189419
1.49332 -0.51605999 1.2132629
1.4967599 -0.50495398 1.2134199
1.50252 -0.48322102 1.2158769
1.50878 -0.47152999 1.2189889
1.53291 -0.45927602 1.2256529
1.5245301 -0.53847098 1.214424
1.5113901 -0.52961397 1.210834
1.49997 -0.51744902 1.208015
1.49974 -0.50534499 1.206664
1.51274 -0.47193402 1.212997
1.5303 -0.46049598 1.217203
1.52984 -0.538293 1.208854
1.50359 -0.52719599 1.201551
1.50089 -0.51512599 1.2008859
1.5170399 -0.470801 1.206983
1.54204 -0.45891997 1.2139
1.5356799 -0.53885102 1.20339
1.5142599 -0.52920401 1.197459
1.50228 -0.51719701 1.1939039
1.52143 -0.47043097 1.201131
1.55127 -0.458386 1.209373
1.53804 -0.53930497 1.1969379
1.5038 -0.52635896 1.1877029
1.4975101 -0.51651198 1.18602
1.50262 -0.50650102 1.187335
1.5288901 -0.469623 1.1959929
1.55393 -0.45828399 1.2033269
1.5435001 -0.449175 1.201702
1.54242 -0.53961104 1.191018
1.51965 -0.52965999 1.1850009
1.51298 -0.52836698 1.175728
1.52052 -0.47222 1.1799279
1.5272599 -0.46277902 1.182904
1.55656 -0.55042601 1.180773
1.5291901 -0.54030204 1.1732759
1.52423 -0.472736 1.175118
1.5351501 -0.55290401 1.1687269
1.52733 -0.54055697 1.1654259
1.52906 -0.54239798 1.1586109
1.5516499 -0.56307101 1.144909
1.53043 -0.551714 1.1388769
1.5339999 -0.55155301 1.1335759
1.52564 -0.54145801 1.1310509
1.5155001 -0.53101301 1.129369
1.54084 -0.42062402 1.1371109
1.5331501 -0.54866499 1.125827
1.52214 -0.53964597 1.1239239
1.5032401 -0.53175902 1.119413
1.5334899 -0.54817903 1.118745
1.52606 -0.54081404 1.1176879
1.5316701 -0.54804599 1.1111879
1.50762 -0.54175204 1.229519
1.4817799 -0.530752 1.2245029
1.5099601 -0.54100001 1.2236689
1.49315 -0.53371298 1.212728
1.5321699 -0.55459702 1.211699
1.5183799 -0.54996896 1.2093101
1.50569 -0.54400301 1.2079849
1.50164 -0.53334403 1.2078079
1.49771 -0.522304 1.2070129
1.53742 -0.55411899 1.2061679
1.52476 -0.54923999 1.204736
1.51138 -0.54189098 1.202405
1.50231 -0.53067601 1.200452
1.49506 -0.52081001 1.1986079
1.54296 -0.55236 1.20092
1.52623 -0.54809999 1.197488
1.51056 -0.53914905 1.1945329
1.50071 -0.52860099 1.192686
1.5058 -0.51561499 1.1950899
1.4976699 -0.51036596 1.1950229
1.53907 -0.55337298 1.192742
1.52791 -0.54808301 1.190542
1.5175999 -0.54057097 1.18864
1.5041701 -0.53117198 1.1862639
1.50638 -0.51701599 1.187963
1.5026 -0.508425 1.189474
1.5430599 -0.55229998 1.186729
1.5307201 -0.54699302 1.1843539
1.51078 -0.54004002 1.179276
1.53776 -0.55448502 1.178326
1.5271201 -0.547396 1.175501
1.51203 -0.53941602 1.1716399
1.5214701 -0.54847801 1.1668179
1.51153 -0.53956103 1.1640359
1.5354401 -0.55879599 1.161221
1.5100101 -0.53989702 1.157241
1.51177 -0.50220001 1.1531509
1.5096 -0.50254399 1.146212
1.50595 -0.492937 1.145229
1.52754 -0.54666597 1.1381609
1.5168401 -0.49661702 1.140942
1.5205799 -0.48445401 1.141989
1.5549999 -0.56172001 1.1347671
1.5365801 -0.55662298 1.1320239
1.5344299 -0.54547 1.1321419
1.51193 -0.538432 1.128585
1.51503 -0.52507997 1.130738
1.5137601 -0.500045 1.132937
1.52073 -0.48406503 1.1353509
1.5536599 -0.56271702 1.127494
1.53879 -0.555143 1.125996
1.5247301 -0.546404 1.122744
1.51412 -0.53642201 1.121841
1.5126899 -0.52516603 1.1241519
1.50731 -0.513475 1.1228429
1.52054 -0.49490002 1.1278609
1.5266299 -0.481058 1.129071
1.5238299 -0.47292197 1.131021
1.56016 -0.56193697 1.121926
1.53918 -0.55598903 1.118153
1.52793 -0.54589099 1.1160519
1.52191 -0.53497005 1.1165199
1.5102699 -0.52566701 1.116215
1.51589 -0.497583 1.1191579
1.5416701 -0.47536901 1.125378
1.53439 -0.46874198 1.126197
1.5789 -0.56614 1.118369
1.55845 -0.56220198 1.114309
1.54031 -0.55608004 1.111303
1.53429 -0.546166 1.1108069
1.5174201 -0.497082 1.1127139
1.54074 -0.46523997 1.120446
1.5775501 -0.56614 1.1109279
1.506 -0.54213297 1.395232
1.51411 -0.54053998 1.393935
1.45846 -0.52516496 1.3719369
1.51868 -0.53192502 1.3918229
1.4815601 -0.52770597 1.37499
1.47114 -0.52157396 1.370816
1.48185 -0.525199 1.3660879
1.46876 -0.51886296 1.3612959
1.50766 -0.52757597 1.3685291
1.48401 -0.52563798 1.3591471
1.47464 -0.516864 1.3564399
1.49989 -0.52973098 1.358459
1.47948 -0.52575701 1.350063
1.47077 -0.51630902 1.3476039
1.46558 -0.506513 1.347356
1.49143 -0.53160304 1.3469471
1.4761701 -0.52720404 1.341676
1.47874 -0.51641399 1.343848
1.4928501 -0.53146195 1.339793
1.4891901 -0.52318197 1.3395929
1.4782201 -0.51406199 1.3372159
1.4826601 -0.50135499 1.3386749
1.47284 -0.49298099 1.337582
1.4821401 -0.470768 1.3432919
1.4944 -0.531479 1.332423
1.4780099 -0.525428 1.327145
1.4834801 -0.512986 1.331955
1.4738499 -0.50416398 1.328074
1.47786 -0.490381 1.331774
1.4982201 -0.532682 1.325315
1.48728 -0.52529997 1.323041
1.47727 -0.51454902 1.321286
1.4841499 -0.49945301 1.3257889
1.50985 -0.538499 1.322052
1.49315 -0.53378505 1.316252
1.4866 -0.52280802 1.3159729
1.4752001 -0.51465201 1.313393
1.4782201 -0.50244498 1.3158669
1.4787601 -0.49054402 1.3159999
1.4803599 -0.48059899 1.3185309
1.50976 -0.53883803 1.3152009
1.4908299 -0.53540903 1.3078749
1.4883599 -0.52425802 1.30836
1.48054 -0.51307899 1.3087399
1.4797701 -0.50035399 1.308391
1.50614 -0.53931302 1.305871
1.49568 -0.53270501 1.303305
1.49054 -0.52295899 1.301174
1.4828 -0.51189101 1.3014189
1.47758 -0.50157797 1.3006729
1.47738 -0.49124199 1.3016119
1.5092701 -0.53926301 1.2984869
1.4983701 -0.53199899 1.2968531
1.49231 -0.52279598 1.2952629
1.4874699 -0.51215398 1.2946359
1.4836301 -0.50009203 1.2965509
1.5108701 -0.53953397 1.2922831
1.50345 -0.53291696 1.290731
1.4942 -0.52313799 1.288938
1.4877499 -0.51164401 1.2866669
1.4871401 -0.49892199 1.290185
1.48774 -0.48701099 1.2904691
1.5017101 -0.53176999 1.282966
1.4902999 -0.52257997 1.2796289
1.4850399 -0.51210499 1.278518
1.4854 -0.49947602 1.2814349
1.51582 -0.469791 1.2925349
1.50256 -0.53955102 1.2757199
1.49196 -0.53226298 1.271578
1.4839101 -0.52196699 1.2705179
1.484 -0.50952303 1.272172
1.50384 -0.48164299 1.2812171
1.5282899 -0.465801 1.2902409
1.50397 -0.53928101 1.267681
1.49264 -0.53291601 1.264007
1.48965 -0.52237099 1.2649179
1.4826699 -0.51220798 1.2646329
1.51231 -0.479296 1.277638
1.53304 -0.46402001 1.2866111
1.50621 -0.53970301 1.26131
1.4996099 -0.53299499 1.259583
1.49308 -0.52336001 1.258523
1.4884801 -0.51024401 1.258656
1.4950999 -0.53195202 1.2508609
1.49191 -0.52059698 1.2518259
1.49104 -0.50944901 1.251141
1.5040401 -0.48485401 1.25877
1.4929299 -0.52103502 1.244861
1.49401 -0.509579 1.2448829
1.50489 -0.48430002 1.2514729
1.5019701 -0.53861803 1.2379559
1.4983001 -0.51953202 1.2384709
1.5220701 -0.47656602 1.248538
1.49877 -0.53039098 1.2315899
1.49643 -0.520051 1.229682
1.53084 -0.47350398 1.245222
1.4965401 -0.52970099 1.223802
1.4929601 -0.52078605 1.2216899
1.50045 -0.50737 1.2250609
1.52859 -0.47467098 1.237596
1.50141 -0.51683104 1.218254
1.49869 -0.50697398 1.217428
1.49766 -0.51677001 1.2101399
1.50316 -0.51450402 1.2043281
1.5042399 -0.50529099 1.2060709
1.50238 -0.51262701 1.1971649
1.5620599 -0.55244601 1.197466
1.5589399 -0.55285001 1.192066
1.53407 -0.55152303 1.1851579
1.54138 -0.47801799 1.19592
1.54927 -0.556669 1.1836549
1.5531 -0.47359198 1.190542
1.53321 -0.56107199 1.172473
1.5506301 -0.47399798 1.182133
1.5432 -0.47588402 1.1737239
1.5703701 -0.559187 1.140497
1.5358901 -0.45851898 1.147668
1.5699099 -0.55963701 1.135116
1.54107 -0.55633497 1.1309019
1.5383999 -0.54653198 1.130008
1.5149499 -0.53857303 1.1256549
1.5174299 -0.52670503 1.127144
1.50079 -0.52252996 1.122913
1.57102 -0.55936795 1.129324
1.54679 -0.55544698 1.124918
1.5297999 -0.54690301 1.12125
1.52063 -0.53707802 1.119554
1.51026 -0.52796698 1.118772
1.5092 -0.518022 1.117975
1.5722799 -0.55859601 1.122565
1.54582 -0.55353498 1.117193
1.52596 -0.54526299 1.1133729
1.51539 -0.53509998 1.112062
1.5793099 -0.55764699 1.116693
1.5538499 -0.55380404 1.111573
1.5850101 -0.55651796 1.1105
1.4733701 -0.52541697 1.354466
1.48518 -0.52384001 1.3544869
1.4763299 -0.51778901 1.35123
1.47765 -0.52474999 1.345764
1.4773899 -0.51630402 1.345109
1.48051 -0.523238 1.33957
1.47944 -0.51462603 1.3384949
1.4682499 -0.50525397 1.3341379
1.4701401 -0.49447 1.3375909
1.47765 -0.52351797 1.330103
1.4706399 -0.51516104 1.3277229
1.47192 -0.50415498 1.3286231
1.48711 -0.52295297 1.3263589
1.48123 -0.51597697 1.3246559
1.4724801 -0.506872 1.321895
1.47399 -0.49428201 1.323787
1.4898 -0.52201098 1.3206309
1.4778301 -0.51487303 1.3160778
1.4780201 -0.502716 1.31669
1.4795599 -0.49032798 1.3192909
1.4974099 -0.46838799 1.3278409
1.4833299 -0.52210301 1.310226
1.47931 -0.51289201 1.309094
1.47447 -0.50263804 1.307861
1.50052 -0.46818501 1.3207331
1.48792 -0.522883 1.3042541
1.48024 -0.51571399 1.3020749
1.47963 -0.50427401 1.3023731
1.47715 -0.49287602 1.3038429
1.51153 -0.46475601 1.316389
1.4852099 -0.52405202 1.295903
1.4815899 -0.51512796 1.2951779
1.4761901 -0.504893 1.2935559
1.4834501 -0.49116299 1.29845
1.5237499 -0.460242 1.3133219
1.5098 -0.52919799 1.296376
1.4818699 -0.52486902 1.2873099
1.47987 -0.51427102 1.2875141
1.4783 -0.50213599 1.2875699
1.50899 -0.47221801 1.300498
1.5225101 -0.460233 1.3069659
1.5027299 -0.53167599 1.2858679
1.4875301 -0.52316397 1.2822289
1.48111 -0.51260298 1.281286
1.4858 -0.49052799 1.2847079
1.5085001 -0.53318697 1.2808648
1.4960001 -0.52539998 1.277568
1.4841599 -0.513556 1.27455
1.48168 -0.50208998 1.2747229
1.51636 -0.47009999 1.2890979
1.5103199 -0.53346503 1.274902
1.4936099 -0.52442402 1.2694169
1.48562 -0.51327002 1.266888
1.5109 -0.47375 1.279979
1.52607 -0.53936201 1.2729959
1.50754 -0.53289801 1.266526
1.4889799 -0.52361101 1.260168
1.48358 -0.51322901 1.2598579
1.48567 -0.501692 1.2619389
1.48774 -0.48933899 1.262542
1.5158099 -0.472168 1.274081
1.5238099 -0.538872 1.2648109
1.50543 -0.53241998 1.2581689
1.49189 -0.52333099 1.253495
1.4861799 -0.512173 1.2542
1.48343 -0.49978 1.253915
1.50024 -0.48428398 1.260316
1.52891 -0.466111 1.2709999
1.52091 -0.53911 1.2555939
1.5013299 -0.53207499 1.249401
1.49549 -0.521846 1.24793
1.4879401 -0.51342201 1.247569
1.4867901 -0.50227296 1.247951
1.4918801 -0.48901403 1.250132
1.52273 -0.53973997 1.2489489
1.51519 -0.53244704 1.246825
1.49976 -0.52296102 1.2421069
1.49378 -0.51078099 1.242512
1.52149 -0.53916299 1.241814
1.4956399 -0.52306497 1.233977
1.4950399 -0.51186502 1.234743
1.49238 -0.49091899 1.235011
1.51131 -0.53971601 1.23078
1.5036701 -0.532408 1.2288029
1.4969299 -0.522479 1.227507
1.48684 -0.51247501 1.225368
1.49158 -0.50091201 1.2281079
1.4916099 -0.49157399 1.2273419
1.51261 -0.54054099 1.223817
1.50664 -0.53232104 1.2226139
1.49526 -0.52278101 1.2201099
1.49789 -0.51015097 1.2218919
1.4965199 -0.498404 1.2228459
1.4951301 -0.49056801 1.221481
1.5146201 -0.54118299 1.216993
1.5094501 -0.53323197 1.215758
1.50205 -0.52238297 1.2151009
1.4980999 -0.50984502 1.213612
1.53899 -0.54699403 1.215959
1.5092 -0.53235799 1.209163
1.5044501 -0.52044499 1.2081679
1.4970599 -0.50949699 1.205869
1.5392799 -0.54796702 1.2094859
1.52349 -0.54136002 1.205874
1.5055799 -0.53152597 1.200393
1.49884 -0.51932204 1.1998739
1.5039301 -0.50828499 1.2020309
1.53976 -0.547939 1.203476
1.51492 -0.54215503 1.195861
1.50798 -0.53220004 1.193038
1.5030999 -0.52016401 1.193913
1.4963001 -0.50953996 1.1939319
1.54 -0.54726398 1.1964439
1.5134101 -0.54222798 1.188127
1.5053301 -0.53318101 1.1856309
1.5036999 -0.52139497 1.1862179
1.50305 -0.507819 1.188284
1.5340101 -0.54727101 1.1875119
1.5132899 -0.54088098 1.1810149
1.51425 -0.53002 1.1826149
1.52809 -0.54687697 1.17844
1.51252 -0.540223 1.173692
1.51025 -0.53054696 1.1749779
1.58038 -0.45245799 1.196811
1.51403 -0.53922004 1.1675259
1.50992 -0.52957404 1.167516
1.58301 -0.45176998 1.1788729
1.5070599 -0.49410802 1.146999
1.4991001 -0.50799102 1.137229
1.5051199 -0.49641401 1.1392729
1.5172 -0.48373902 1.14489
1.49997 -0.51500499 1.131622
1.50524 -0.50560498 1.132291
1.5030299 -0.487643 1.1331689
1.50114 -0.51346898 1.125236
1.50551 -0.504035 1.1259129
1.5066299 -0.494717 1.1270549
1.54318 -0.558532 1.121837
1.52499 -0.55436099 1.118499
1.50282 -0.50488496 1.1193849
1.54654 -0.55693698 1.1162549
1.5338 -0.55222899 1.1146829
1.55567 -0.555776 1.111318
1.49966 -0.45663399 1.3846508
1.4579201 -0.47548801 1.3608
1.50026 -0.456824 1.379056
1.4719901 -0.47645301 1.3590779
1.50194 -0.45672402 1.3722628
1.4703799 -0.47771001 1.3511539
1.50638 -0.45577702 1.365999
1.5122399 -0.53038502 1.3560779
1.48944 -0.52329898 1.346884
1.4700799 -0.51300502 1.339885
1.47018 -0.48776299 1.343082
1.5128599 -0.45498601 1.360947
1.5054899 -0.53014398 1.3480201
1.49147 -0.52348101 1.3416919
1.47813 -0.500929 1.3379489
1.4712 -0.49013901 1.33573
1.4764999 -0.478282 1.3399349
1.5230701 -0.45328602 1.357471
1.50421 -0.53028399 1.340639
1.49089 -0.522753 1.334821
1.4827499 -0.51313299 1.3313379
1.47868 -0.50060397 1.330915
1.4698801 -0.48884201 1.328076
1.47727 -0.47702 1.3327889
1.50845 -0.46244597 1.3448681
1.52651 -0.45236802 1.352005
1.5 -0.52987498 1.3316361
1.4897901 -0.52187401 1.327009
1.48137 -0.510755 1.323669
1.4783299 -0.499248 1.3231571
1.4810899 -0.48849702 1.325598
1.4753799 -0.47865701 1.3248739
1.4960201 -0.52992898 1.321854
1.4864399 -0.52101499 1.318367
1.4767799 -0.51099199 1.3145928
1.47664 -0.50034499 1.3157589
1.47937 -0.48878801 1.3177091
