# .PCD v0.7 - Point Cloud Data file format
VERSION 0.7
FIELDS x y z
SIZE 4 4 4
TYPE F F F
COUNT 1 1 1
WIDTH 144
HEIGHT 1
VIEWPOINT 0 0 0 1 0 0 0
POINTS 144
DATA ascii
1.28236 -0.57703602 2.391969
1.28907 -0.57430303 2.3818588
1.3053 -0.58622897 2.380039
1.3005201 -0.571989 2.3690789
1.3052001 -0.587937 2.3701692
1.31329 -0.59788501 2.3681588
1.2919999 -0.55756998 2.358979
1.3029 -0.56918901 2.3569191
1.3116601 -0.58465999 2.359129
1.3067 -0.600595 2.3598189
1.29735 -0.55376101 2.347559
1.3121899 -0.56482297 2.3469689
1.31498 -0.58120704 2.3473787
1.30896 -0.59881502 2.3505991
1.27566 -0.546664 2.3406491
1.29965 -0.550412 2.3371389
1.30705 -0.56723899 2.337239
1.31778 -0.58219099 2.3369188
1.3117501 -0.59744096 2.3399091
1.28487 -0.54286802 2.3298991
1.31821 -0.56349301 2.3256087
1.3186301 -0.58043998 2.327069
1.3169501 -0.560009 2.3161089
1.3203 -0.57756305 2.3166289
1.28642 -0.58206296 2.3953989
1.28509 -0.56667197 2.3859689
1.29317 -0.58063704 2.3843589
1.2964 -0.58056903 2.373389
1.3003399 -0.60949498 2.373569
1.2904601 -0.56381303 2.3640587
1.3033201 -0.57766604 2.3615491
1.2947501 -0.59831202 2.3656089
1.28742 -0.614411 2.3644888
1.30177 -0.56073999 2.352639
1.3137399 -0.57356095 2.350369
1.29237 -0.59890598 2.354779
1.2842599 -0.61568701 2.3553391
1.3116001 -0.55824399 2.3427491
1.3215899 -0.56917197 2.3406689
1.3075501 -0.59071201 2.3426788
1.29491 -0.61032003 2.3445389
1.3161099 -0.55569196 2.3330991
1.3185099 -0.57127303 2.331929
1.3040299 -0.59323901 2.333189
1.29407 -0.60970098 2.334249
1.31661 -0.55400699 2.321919
1.31782 -0.57287902 2.3220291
1.3112601 -0.558173 2.3121188
1.3109 -0.57505298 2.313349
1.28536 -0.57795602 2.3899188
1.2968401 -0.57606298 2.377789
1.29053 -0.56365603 2.370069
1.2970599 -0.57463002 2.3672488
1.30187 -0.58804899 2.3689687
1.30782 -0.59985501 2.3683889
1.29914 -0.56114501 2.3590789
1.30511 -0.58751202 2.359129
1.31399 -0.59879202 2.3567491
1.30474 -0.559259 2.348809
1.31516 -0.58511603 2.3469191
1.31459 -0.59893399 2.3471889
1.31464 -0.55670899 2.3378289
1.31709 -0.57039201 2.3362789
1.3182601 -0.584943 2.3373787
1.3140199 -0.555336 2.3258889
1.31707 -0.57068098 2.326139
1.3223399 -0.58394796 2.3282387
1.3209399 -0.56629902 2.3159189
1.2835699 -0.57359904 2.3966088
1.28381 -0.57142198 2.3861389
1.29228 -0.56774104 2.3750391
1.30679 -0.55279702 2.3447189
1.31769 -0.55168802 2.333569
1.3224699 -0.56308901 2.3332388
1.31662 -0.55123299 2.3246288
1.32315 -0.56194097 2.323869
1.2884101 -0.52436399 2.325649
1.27958 -0.53374499 2.3246589
1.2879801 -0.58517301 2.3929589
1.3011301 -0.582344 2.3714688
1.3267999 -0.60178298 2.3618188
1.29343 -0.56554598 2.360029
1.30687 -0.57977003 2.3539889
1.30879 -0.59619099 2.3597791
1.32735 -0.60144699 2.3510189
1.30774 -0.56303197 2.338079
1.3106799 -0.57905996 2.3393991
1.3110499 -0.59385401 2.3457489
1.3111701 -0.55909199 2.321919
1.31463 -0.575266 2.3246288
1.31287 -0.59084302 2.330699
1.2764601 -0.61112803 2.3430789
1.29493 -0.61317599 2.3504591
1.27588 -0.61027002 2.3289688
1.26086 -0.60604101 2.3127489
1.28618 -0.61491102 2.3252189
1.27649 -0.60953802 2.3172588
1.2944701 -0.612432 2.3209391
1.2843 -0.60733199 2.313019
1.25648 -0.605088 2.3232191
1.2993 -0.61385798 2.3553791
1.2845199 -0.61051702 2.338309
1.27012 -0.60467601 2.3242691
1.2918899 -0.61549598 2.3344088
1.28043 -0.610358 2.3213489
1.2720799 -0.60221899 2.314029
1.29576 -0.61411202 2.3241689
1.28177 -0.60801202 2.310039
1.25923 -0.606152 2.3276589
1.2650399 -0.60545701 2.317019
1.28065 -0.611027 2.3222589
1.27201 -0.60552603 2.3123388
1.2853 -0.610448 2.3151989
1.2975501 -0.609056 2.3158789
1.26091 -0.60712504 2.330929
1.2824299 -0.59984297 2.3178689
1.28693 -0.60022902 2.314929
1.27824 -0.60998797 2.3443992
1.2967399 -0.61198503 2.3517289
1.27763 -0.60912901 2.3302889
1.26254 -0.60493898 2.3141189
1.28793 -0.61374098 2.3265188
1.27819 -0.608392 2.318589
1.29619 -0.611238 2.3222089
1.2859801 -0.60616499 2.3143189
1.28154 -0.61106998 2.3455789
1.25846 -0.606152 2.3238289
1.30135 -0.61491901 2.3559089
1.28653 -0.61157501 2.3388691
1.27211 -0.60573298 2.3248489
1.2938901 -0.61654699 2.334949
1.28241 -0.61140597 2.321919
1.27405 -0.60326803 2.3146091
1.29774 -0.61515301 2.3247089
1.2837399 -0.609052 2.3105991
1.26039 -0.60649699 2.327589
1.2661799 -0.605784 2.3169391
1.25866 -0.59726202 2.3130991
1.28183 -0.611323 2.3221688
1.27315 -0.60583597 2.3122489
1.2864599 -0.61073101 2.315109
1.25984 -0.60696602 2.3302391
1.2813699 -0.59970599 2.317199
1.2858701 -0.60009599 2.314249
