# .PCD v0.7 - Point Cloud Data file format
VERSION 0.7
FIELDS x y z
SIZE 4 4 4
TYPE F F F
COUNT 1 1 1
WIDTH 1608
HEIGHT 1
VIEWPOINT 0 0 0 1 0 0 0
POINTS 1608
DATA ascii
1.37983 -0.44052503 1.8528119
1.3860201 -0.527794 1.8669541
1.36515 -0.470532 1.8415509
1.36814 -0.45850497 1.839538
1.37485 -0.49894401 1.8439231
1.36411 -0.48224601 1.8308789
1.3686501 -0.47061402 1.833649
1.37025 -0.45926601 1.832179
1.3766701 -0.44987097 1.835126
1.36438 -0.482346 1.821429
1.37238 -0.47274601 1.826332
1.37578 -0.46041599 1.827143
1.38785 -0.451098 1.8328431
1.4054401 -0.44475898 1.8432019
1.3702099 -0.49674499 1.820209
1.36959 -0.48392102 1.81599
1.36938 -0.47271001 1.8155469
1.3769299 -0.46255001 1.817627
1.3730299 -0.49687698 1.812313
1.37126 -0.48426899 1.8092599
1.37975 -0.46243599 1.808898
1.3976101 -0.44461399 1.8194009
1.41205 -0.43853599 1.8292191
1.37589 -0.49928001 1.8055099
1.3754699 -0.48635799 1.8037909
1.3765401 -0.47293702 1.800981
1.3794999 -0.46164101 1.7993078
1.3836701 -0.45144501 1.801374
1.3995799 -0.44573501 1.811375
1.4063001 -0.43857497 1.8156879
1.3801401 -0.49952099 1.7997519
1.3744501 -0.48344201 1.792136
1.37835 -0.46087003 1.7909909
1.38679 -0.45386699 1.795007
1.3954899 -0.44487202 1.7989719
1.4069901 -0.438811 1.805658
1.3773199 -0.497145 1.7876849
1.3749001 -0.48431501 1.783833
1.37949 -0.473975 1.7845011
1.40517 -0.44545299 1.796185
1.4134101 -0.43985999 1.800439
1.37957 -0.49917802 1.780141
1.3784 -0.48597899 1.7777869
1.38832 -0.46322399 1.7798489
1.39982 -0.44451302 1.7840869
1.4121499 -0.439935 1.7904609
1.3818699 -0.51111501 1.7752521
1.3815199 -0.49739701 1.772705
1.3815199 -0.47444302 1.767207
1.3866 -0.46400902 1.768645
1.3921601 -0.45366901 1.7718799
1.40183 -0.44528198 1.7762101
1.4214 -0.44235599 1.7863801
1.38466 -0.50133401 1.766194
1.3850501 -0.47382501 1.7617459
1.43424 -0.44522098 1.7862531
1.38317 -0.49725202 1.755329
1.3873 -0.47401401 1.7541499
1.3935001 -0.46313801 1.7556461
1.4328799 -0.44529 1.770111
1.44865 -0.44186699 1.779954
1.3845199 -0.48638698 1.737963
1.38299 -0.473562 1.7335559
1.3894401 -0.45022702 1.7334501
1.35824 -0.44278198 1.947139
1.3498199 -0.487901 1.9441489
1.3584801 -0.46569699 1.9455991
1.35113 -0.498454 1.9390188
1.35384 -0.49071702 1.936689
1.35901 -0.465653 1.9356689
1.3591 -0.45205799 1.930705
1.3561301 -0.463662 1.9216189
1.36239 -0.45197201 1.9236239
1.35598 -0.46289003 1.910104
1.3639301 -0.45366099 1.9154649
1.35549 -0.46216598 1.8993069
1.36148 -0.45234901 1.9034369
1.36271 -0.4149 1.8920219
1.3675101 -0.40683997 1.8938309
1.35174 -0.50088 1.8985379
1.3542399 -0.47478402 1.8930398
1.35308 -0.46002799 1.8876691
1.3625799 -0.45217401 1.894354
1.3953999 -0.415934 1.9039899
1.3569299 -0.47604099 1.88571
1.35922 -0.45069697 1.8810029
1.3618801 -0.47876999 1.88034
1.35765 -0.46168202 1.8718039
1.3598 -0.44796199 1.8705009
1.39483 -0.42500702 1.8868099
1.3559599 -0.50032699 1.8720509
1.3599601 -0.475752 1.8673911
1.35569 -0.46106702 1.8610779
1.3662801 -0.43994701 1.8632159
1.3727601 -0.43006599 1.863443
1.4222301 -0.397645 1.889541
1.3612 -0.490522 1.863482
1.36155 -0.47744599 1.858811
1.3628 -0.46478698 1.8577399
1.36501 -0.451729 1.855383
1.38185 -0.43236402 1.861728
1.36246 -0.48861599 1.8534379
1.3614501 -0.47423699 1.849213
1.40789 -0.43143299 1.8680539
1.36594 -0.49352199 1.8475919
1.36696 -0.480041 1.844612
1.3648399 -0.463909 1.8391309
1.3707001 -0.453769 1.8403299
1.37306 -0.50855702 1.8470081
1.3661 -0.49001899 1.8371769
1.36175 -0.47454 1.8309948
1.3671401 -0.46559399 1.8307099
1.37061 -0.45370999 1.8312379
1.4308701 -0.436618 1.8656479
1.37287 -0.49563301 1.832955
1.37165 -0.46491799 1.824584
1.3719299 -0.45176497 1.822186
1.36489 -0.48910499 1.816223
1.37203 -0.48033002 1.8188778
1.37219 -0.46797401 1.816095
1.36317 -0.48950699 1.8059599
1.36903 -0.47834599 1.8069071
1.37437 -0.46541402 1.8075399
1.37746 -0.45484501 1.8072929
1.3875999 -0.447328 1.811872
1.40356 -0.43988898 1.8187821
1.36734 -0.49030101 1.799912
1.37084 -0.47930899 1.7983689
1.3758999 -0.46795899 1.7989899
1.38402 -0.45765799 1.8035709
1.40917 -0.44218299 1.8130859
1.41614 -0.43407902 1.8183299
1.3689901 -0.48875198 1.7912179
1.37044 -0.47653598 1.7893201
1.37485 -0.46638301 1.7877209
1.39108 -0.44594502 1.79345
1.40521 -0.44156301 1.8016299
1.3775001 -0.49625999 1.788741
1.37422 -0.47895402 1.782473
1.3744701 -0.46611598 1.779115
1.37763 -0.49274799 1.778663
1.39142 -0.46108299 1.7790669
1.4017501 -0.44049099 1.782442
1.41934 -0.43959302 1.791716
1.38175 -0.49808997 1.7732239
1.3834599 -0.471324 1.7670419
1.3858099 -0.51121497 1.770239
1.3804401 -0.49543899 1.7628751
1.3910099 -0.45832402 1.7593061
1.37901 -0.49376702 1.7524029
1.3786399 -0.48060101 1.738964
1.3877001 -0.45763001 1.7384909
1.3738099 -0.50282103 1.735252
1.38072 -0.47983199 1.732695
1.38403 -0.46807098 1.7313708
1.3744099 -0.474159 1.7215799
1.36998 -0.45910701 1.715537
1.35454 -0.45509201 1.934749
1.35518 -0.49516401 1.939229
1.35076 -0.48164999 1.929863
1.35324 -0.46921101 1.928707
1.35706 -0.455955 1.926021
1.35729 -0.44206199 1.9201269
1.3524001 -0.48092601 1.920491
1.3550999 -0.46794301 1.9196839
1.35926 -0.45721802 1.917598
1.3581101 -0.470911 1.9119769
1.3601199 -0.44306099 1.903519
1.35906 -0.45537299 1.897383
1.35164 -0.506598 1.898191
1.3575101 -0.46812099 1.890892
1.36147 -0.44224301 1.884645
1.3607401 -0.47358102 1.8837869
1.3632201 -0.44178903 1.8749299
1.3679601 -0.42961898 1.875697
1.3570501 -0.498649 1.881019
1.35614 -0.46827599 1.8695179
1.3610001 -0.45562598 1.86803
1.36308 -0.44231999 1.864005
1.37431 -0.43354699 1.8702639
1.3610699 -0.49784198 1.8741001
1.35741 -0.481929 1.864938
1.3610899 -0.469733 1.862582
1.3618801 -0.45480597 1.8579479
1.36201 -0.49498501 1.863098
1.35947 -0.48183101 1.8558139
1.3595599 -0.467296 1.8504928
1.36157 -0.45498502 1.8488071
1.3813699 -0.43798301 1.8559699
1.42936 -0.435817 1.882522
1.36612 -0.49607798 1.8552879
1.3595101 -0.48071998 1.8450379
1.36485 -0.47120899 1.845708
1.36702 -0.45840198 1.843416
1.43468 -0.43831402 1.8776579
1.36255 -0.49339598 1.8414079
1.36567 -0.48525003 1.8407041
1.3661799 -0.47263199 1.8378
1.37061 -0.46095002 1.8357291
1.3749001 -0.50222701 1.841156
1.3625599 -0.483055 1.828472
1.3691901 -0.47095299 1.8287619
1.3756399 -0.45975301 1.829559
1.38459 -0.45165598 1.833306
1.41265 -0.43779701 1.8448689
1.37011 -0.48938999 1.8237959
1.3701401 -0.47388303 1.8195999
1.37694 -0.461898 1.82116
1.38774 -0.45256197 1.825567
1.37075 -0.487784 1.8141099
1.37009 -0.472065 1.8091669
1.3753799 -0.46168998 1.8104089
1.39836 -0.44474301 1.819483
1.40914 -0.436746 1.8225659
1.37155 -0.48944199 1.8055868
1.37465 -0.47727901 1.8044651
1.3762 -0.46278501 1.80118
1.38191 -0.45233601 1.8030468
1.3968899 -0.44650599 1.809235
1.4089199 -0.437958 1.8130718
1.37061 -0.50081301 1.8006879
1.36974 -0.48608503 1.7948151
1.37401 -0.473977 1.7948179
1.3791901 -0.46434298 1.793682
1.3853301 -0.45252201 1.7944049
1.4043 -0.446109 1.803161
1.4114 -0.43715301 1.8045759
1.3730299 -0.50291401 1.793561
1.37088 -0.48840401 1.7864799
1.39756 -0.44519797 1.7891099
1.37414 -0.50281 1.7839389
1.3731599 -0.487919 1.7787509
1.37625 -0.47451198 1.7766761
1.3759599 -0.50172901 1.77534
1.3741299 -0.48625499 1.7688559
1.3894701 -0.46452701 1.7719389
1.39548 -0.45458999 1.7733428
1.4033099 -0.44653499 1.774918
1.40853 -0.438362 1.7758631
1.3790699 -0.504188 1.767789
1.39726 -0.45620999 1.7655679
1.4064101 -0.447909 1.7687131
1.3956101 -0.432785 1.7586579
1.3966701 -0.459813 1.756079
1.38272 -0.50735599 1.751122
1.38138 -0.47610298 1.733649
1.3797799 -0.46199101 1.7290379
1.36805 -0.46652001 1.7162548
1.3957601 -0.43412101 1.6815189
1.41062 -0.42445302 1.6871039
1.35446 -0.44377202 1.9417289
1.3461 -0.49383801 1.946059
1.34609 -0.480773 1.9409391
1.3492799 -0.468353 1.939099
1.3516901 -0.45548099 1.934999
1.3503599 -0.48508203 1.936039
1.3534501 -0.45519698 1.924912
1.3572 -0.44116402 1.9238369
1.34711 -0.47963798 1.9216969
1.3516901 -0.46953201 1.918978
1.35418 -0.45705798 1.915221
1.36157 -0.44592801 1.917329
1.35229 -0.46890599 1.9081689
1.35957 -0.45819199 1.910537
1.35375 -0.47082099 1.898725
1.35314 -0.47167099 1.8890579
1.39477 -0.41824299 1.895292
1.3543401 -0.470732 1.880393
1.3578501 -0.45650902 1.877297
1.3605701 -0.44140998 1.873055
1.3529201 -0.497839 1.879751
1.3506 -0.481511 1.8729221
1.35491 -0.46935502 1.8699989
1.35618 -0.45344397 1.8647569
1.3632699 -0.444011 1.8663181
1.36648 -0.431463 1.864812
1.39017 -0.42995203 1.875584
1.3624099 -0.503232 1.875723
1.35218 -0.48234299 1.862864
1.35233 -0.46499401 1.8572929
1.3544999 -0.45265999 1.854758
1.36084 -0.44282299 1.855502
1.3734599 -0.43445998 1.858747
1.39272 -0.432385 1.867517
1.3645599 -0.503034 1.867146
1.3564301 -0.48539397 1.8546978
1.3573101 -0.47123101 1.8519769
1.35632 -0.45395303 1.8475919
1.3798 -0.43567601 1.8523749
1.3589301 -0.486808 1.8481531
1.36305 -0.477366 1.847092
1.36364 -0.46035701 1.842464
1.3729401 -0.450376 1.842435
1.4035699 -0.43811402 1.8565531
1.3600301 -0.48533601 1.8404279
1.36335 -0.47375199 1.8364569
1.3697901 -0.46182999 1.834859
1.37793 -0.45058799 1.8362548
1.40177 -0.43972099 1.8459179
1.42732 -0.41974998 1.854074
1.3623101 -0.48413399 1.830227
1.36308 -0.47155702 1.8247141
1.3662399 -0.460145 1.823314
1.37468 -0.45206797 1.82556
1.3643401 -0.47347599 1.816597
1.3718801 -0.464513 1.8187009
1.36465 -0.49061099 1.81124
1.3696201 -0.47733602 1.8108979
1.37571 -0.46403199 1.811319
1.3813499 -0.45317701 1.809305
1.38562 -0.444464 1.8094989
1.36774 -0.49163899 1.804274
1.3694 -0.47656 1.7995969
1.37954 -0.467646 1.8045529
1.38875 -0.44680801 1.802511
1.37023 -0.49118099 1.795928
1.3774 -0.45049399 1.785486
1.39096 -0.44602403 1.7922909
1.3712801 -0.494279 1.788739
1.3697701 -0.48938701 1.7767199
1.41014 -0.441479 1.7827139
1.4218401 -0.43874699 1.7878931
1.37937 -0.49778402 1.7721329
1.37983 -0.49785098 1.7630529
1.37683 -0.470117 1.735759
1.3780099 -0.48333901 1.7320199
1.42468 -0.43329498 1.688174
1.3477299 -0.48924598 1.945639
1.36386 -0.49727401 1.944319
1.35291 -0.488628 1.939389
1.3460001 -0.47926101 1.939029
1.36186 -0.49604303 1.933069
1.35383 -0.48701501 1.9310309
1.3515199 -0.46151799 1.9367388
1.34953 -0.47579601 1.9215269
1.3476199 -0.46436 1.9228599
1.3876801 -0.512061 1.927195
1.37071 -0.505198 1.916221
1.35008 -0.46141499 1.9151289
1.3587601 -0.44637901 1.9274009
1.38614 -0.51168799 1.914858
1.36373 -0.506446 1.9008341
1.34937 -0.47585601 1.9004349
1.3511599 -0.46171799 1.906462
1.3538901 -0.44796002 1.913373
1.39311 -0.51082599 1.909493
1.3575 -0.498676 1.8893629
1.35175 -0.47605598 1.890733
1.3517799 -0.46195599 1.8963599
1.3868401 -0.51192904 1.895242
1.35677 -0.49683601 1.8795689
1.35464 -0.47453299 1.883214
1.35026 -0.463348 1.8836499
1.3810099 -0.51362902 1.880275
1.37281 -0.50473499 1.876466
1.36198 -0.49515098 1.873042
1.35897 -0.48301101 1.8756949
1.3576801 -0.47186902 1.8770639
1.35281 -0.46121201 1.8752991
1.38273 -0.51193404 1.8715689
1.36386 -0.49441102 1.863151
1.36384 -0.48166803 1.8698649
1.35423 -0.47261003 1.8642099
1.3514 -0.46111697 1.8644
1.35578 -0.44774503 1.873883
1.38586 -0.51210099 1.8636121
1.36727 -0.49309599 1.856729
1.36217 -0.48219699 1.856889
1.35765 -0.46920601 1.85764
1.35244 -0.459885 1.857052
1.35955 -0.44478101 1.867106
1.37287 -0.50301099 1.84808
1.3681799 -0.49244499 1.848109
1.35892 -0.48371899 1.8441598
1.36013 -0.45654598 1.8543351
1.36303 -0.44316301 1.8603809
1.36735 -0.42925203 1.868085
1.3730099 -0.50231898 1.8391891
1.37358 -0.49021998 1.8428019
1.3595901 -0.470734 1.838897
1.36184 -0.458249 1.844696
1.36765 -0.44179401 1.854455
1.3718801 -0.49148899 1.8319169
1.3696699 -0.47887 1.831829
1.36352 -0.46757197 1.83327
1.3674001 -0.45270598 1.841252
1.3745301 -0.48862898 1.8248029
1.3734599 -0.47821799 1.825331
1.3693601 -0.46707001 1.8258771
1.36789 -0.452346 1.8313941
1.37283 -0.49013302 1.8140439
1.36595 -0.48048401 1.810708
1.3712699 -0.49107602 1.8020979
1.3658999 -0.46526599 1.8055999
1.3975799 -0.426615 1.838393
1.40863 -0.51476896 1.8102319
1.3932401 -0.50757301 1.8014538
1.37916 -0.499448 1.794112
1.3722999 -0.48855498 1.794021
1.37151 -0.47703701 1.794489
1.3680201 -0.46603698 1.7969918
1.37088 -0.45409098 1.803786
1.40956 -0.513928 1.8010809
1.3910201 -0.50769901 1.7902899
1.38483 -0.498366 1.7882111
1.3765301 -0.48830602 1.786644
1.36739 -0.47871399 1.781652
1.3711901 -0.45410901 1.793355
1.4054401 -0.51459402 1.787838
1.39291 -0.50589699 1.783286
1.38008 -0.49840999 1.7759579
1.3744501 -0.48683798 1.7761859
1.4133 -0.51342899 1.7830881
1.3936 -0.50732499 1.773452
1.38131 -0.49873102 1.766353
1.37623 -0.48859298 1.768306
1.4076401 -0.51444799 1.7706009
1.38353 -0.51045203 1.756171
1.40125 -0.51555902 1.756904
1.38679 -0.50837898 1.7493908
1.3697799 -0.50344396 1.7396508
1.3979499 -0.51496899 1.7455249
1.41462 -0.512707 1.7476
1.4073 -0.51105201 1.732583
1.3793601 -0.472579 1.7268579
1.3853999 -0.45762002 1.733266
1.43204 -0.51076198 1.7386099
1.4108299 -0.510535 1.725296
1.40558 -0.50221401 1.726082
1.3887399 -0.481388 1.7210269
1.3886501 -0.46622199 1.7250259
1.3874699 -0.45610902 1.7270731
1.42699 -0.51373202 1.726115
1.4108299 -0.51122397 1.7172629
1.40897 -0.50094599 1.7193609
1.39869 -0.48982799 1.714642
1.39293 -0.478576 1.714204
1.3904201 -0.467657 1.716588
1.39203 -0.45401999 1.721576
1.4255 -0.51486498 1.716488
1.41746 -0.50883096 1.713546
1.40554 -0.50062901 1.7074249
1.39811 -0.49057701 1.704125
1.39882 -0.47748601 1.709276
1.3918099 -0.46857497 1.7086129
1.39552 -0.45484698 1.7141
1.4234599 -0.51579303 1.7065711
1.4125999 -0.50980902 1.700466
1.40543 -0.49942502 1.697821
1.3975199 -0.49091202 1.6957818
1.3937399 -0.480946 1.6964301
1.42489 -0.51594502 1.696997
1.41398 -0.50908899 1.691481
1.4115 -0.497765 1.6934439
1.3997501 -0.48956001 1.6887131
1.40241 -0.473699 1.6946908
1.3774699 -0.44693601 1.687088
1.44091 -0.52015901 1.6963669
1.42731 -0.51645499 1.6889969
1.4164599 -0.51019597 1.683463
1.41107 -0.498833 1.6841629
1.3993201 -0.47621602 1.6829871
1.4371699 -0.52228099 1.6851889
1.35632 -0.49011397 1.941799
1.3580201 -0.48753798 1.9334588
1.35017 -0.46772099 1.931051
1.3530499 -0.44322202 1.9407589
1.3739101 -0.50799102 1.929332
1.35001 -0.46646401 1.9219339
1.3515199 -0.45465001 1.9262729
1.37586 -0.50708801 1.9206109
1.3550999 -0.464012 1.917034
1.3545101 -0.45306301 1.9190909
1.4000701 -0.51233697 1.928118
1.36918 -0.50854498 1.904706
1.3591299 -0.49964198 1.89767
1.3545101 -0.46492299 1.9052109
1.3569 -0.451267 1.9115781
1.40126 -0.51163 1.9187299
1.3533299 -0.47860101 1.891449
1.3507899 -0.46707499 1.890976
1.3495899 -0.454483 1.89439
1.39552 -0.51295 1.9037809
1.3786701 -0.50575697 1.892607
1.3700501 -0.49641103 1.8880218
1.35571 -0.47751799 1.8829939
1.3500999 -0.46658599 1.8795968
1.37792 -0.505404 1.882112
1.3640801 -0.49667999 1.8733239
1.35511 -0.47530299 1.8722299
1.3514999 -0.46556702 1.8723029
1.3511599 -0.45525798 1.8749851
1.3877901 -0.51391798 1.877532
1.37852 -0.50433999 1.872546
1.36094 -0.486009 1.865624
1.35708 -0.47535899 1.8628269
1.35598 -0.462906 1.8671899
1.35312 -0.45094001 1.8680469
1.36455 -0.48548999 1.8577139
1.35957 -0.47467399 1.854697
1.35632 -0.464091 1.856438
1.35835 -0.45090598 1.862101
1.35558 -0.43902802 1.8641379
1.3739901 -0.40863898 1.8852201
1.36841 -0.49478802 1.848811
1.3639101 -0.48323399 1.847778
1.3587601 -0.47461602 1.845685
1.3597701 -0.464288 1.8492279
1.35991 -0.440359 1.8563809
1.3817101 -0.50382704 1.8459779
1.3783001 -0.49358898 1.845418
1.36903 -0.48412102 1.8426639
1.36471 -0.47289798 1.8412728
1.36208 -0.46029201 1.842702
1.3657899 -0.436968 1.8514481
1.3695799 -0.49501899 1.828208
1.37072 -0.483154 1.834324
1.36307 -0.47409099 1.829242
1.3621899 -0.46247798 1.832164
1.36452 -0.44850701 1.8384531
1.37245 -0.49385399 1.821651
1.3703599 -0.48223498 1.823151
1.3689799 -0.469053 1.8255119
1.36702 -0.45716202 1.8276858
1.3695101 -0.44481799 1.8334799
1.3798699 -0.43065301 1.8434589
1.3922099 -0.41395199 1.855569
1.37459 -0.49325299 1.813858
1.3682899 -0.481861 1.8113159
1.36651 -0.47110501 1.8138009
1.3677299 -0.45868802 1.8180319
1.3748801 -0.443371 1.827724
1.3866701 -0.42678797 1.8403101
1.3765601 -0.48124999 1.807724
1.3702699 -0.470429 1.807074
1.3700999 -0.45966098 1.8105289
1.37112 -0.447402 1.8137619
1.38793 -0.42792499 1.8306659
1.39712 -0.50960201 1.808056
1.38762 -0.50124198 1.802423
1.3836099 -0.49036598 1.8014139
1.3698699 -0.48257199 1.7926419
1.3724201 -0.47061798 1.799453
1.3712399 -0.457865 1.8014239
1.39825 -0.42148998 1.829059
1.4255999 -0.51596904 1.8163409
1.40095 -0.51001203 1.8008121
1.3904099 -0.50011396 1.794991
1.37528 -0.492466 1.785863
1.37148 -0.482564 1.7847558
1.37121 -0.46958899 1.788626
1.37029 -0.45756802 1.7912171
1.40634 -0.50757998 1.794693
1.3844701 -0.501302 1.781018
1.3741601 -0.49226397 1.776087
1.38399 -0.43051103 1.7984129
1.3819299 -0.42246601 1.7975169
1.39487 -0.510041 1.776881
1.37989 -0.50181597 1.7680039
1.37287 -0.49142602 1.7671371
1.38578 -0.42908502 1.791032
1.38634 -0.42028901 1.791106
1.4100101 -0.51657003 1.77745
1.3948101 -0.51006103 1.767583
1.37843 -0.50396198 1.7569181
1.39285 -0.42698601 1.7859931
1.40093 -0.41496301 1.79241
1.4151801 -0.51609701 1.772315
1.39498 -0.51003599 1.7585111
1.3583 -0.46153501 1.7454629
1.41705 -0.51566398 1.76413
1.3941799 -0.50869501 1.7486609
1.37125 -0.50293702 1.735981
1.37795 -0.45261201 1.750679
1.42156 -0.51349902 1.757127
1.39659 -0.50760198 1.740786
1.42957 -0.51142901 1.7541499
1.40982 -0.50577098 1.740733
1.3796401 -0.46624601 1.7292858
1.42822 -0.509027 1.7443509
1.4132899 -0.50450402 1.7336991
1.3895799 -0.45109099 1.7308819
1.4332601 -0.506271 1.7388459
1.4075799 -0.504381 1.7211289
1.3995301 -0.49426201 1.718739
1.4124401 -0.43314201 1.7384269
1.4258701 -0.50804001 1.724671
1.40984 -0.50487798 1.7133949
1.4046299 -0.495859 1.7124161
1.3932401 -0.48601601 1.7079599
1.3932201 -0.473903 1.709348
1.39317 -0.46117699 1.7133899
1.42709 -0.42700198 1.7417439
1.41633 -0.423136 1.736317
1.42107 -0.50935197 1.712491
1.40596 -0.50491297 1.7026731
1.3977699 -0.495704 1.699411
1.39657 -0.48333499 1.700532
1.39654 -0.47004399 1.70376
1.39877 -0.45653301 1.7082238
1.42896 -0.426808 1.736496
1.41362 -0.51088101 1.6981829
1.40223 -0.50471997 1.691003
1.39991 -0.49377701 1.6927429
1.3933501 -0.48604 1.6890329
1.3936 -0.474338 1.692001
1.4105499 -0.51292801 1.6849219
1.40434 -0.50487202 1.683699
1.4011099 -0.49484003 1.684543
1.3935001 -0.48479 1.681239
1.3982 -0.47100398 1.6866499
1.43461 -0.51963598 1.688956
1.41977 -0.51313996 1.680725
1.3916299 -0.43674099 1.68112
1.43533 -0.52090198 1.681451
1.40588 -0.43139499 1.681617
1.3578501 -0.48352298 1.939779
1.35673 -0.460574 1.944299
1.35523 -0.44894099 1.9442489
1.36335 -0.493453 1.932528
1.3555901 -0.48264 1.927381
1.3542999 -0.46325901 1.9312891
1.3796 -0.51178902 1.9335889
1.3628399 -0.50418901 1.9200339
1.35588 -0.46002999 1.9224119
1.3686099 -0.511199 1.91447
1.35989 -0.50378203 1.9073739
1.35606 -0.45971099 1.9117759
1.3608201 -0.44736999 1.919255
1.35443 -0.46234101 1.90071
1.37331 -0.51079202 1.896831
1.35541 -0.47103 1.889601
1.35949 -0.45842999 1.8964349
1.3580099 -0.448158 1.8952758
1.37849 -0.50990099 1.890703
1.36603 -0.50215501 1.881778
1.36634 -0.49189702 1.884764
1.3578 -0.48276198 1.8805069
1.35914 -0.470238 1.881629
1.3595799 -0.45791399 1.886484
1.36805 -0.50160801 1.8734419
1.36191 -0.491799 1.872219
1.3628 -0.480057 1.8750769
1.35642 -0.47105098 1.8693539
1.3589301 -0.45909801 1.87518
1.37641 -0.50286901 1.8705859
1.36272 -0.48147598 1.8647749
1.35741 -0.470698 1.8603461
1.35829 -0.46012798 1.865226
1.35851 -0.44840699 1.8671939
1.36075 -0.43522799 1.8726511
1.3819001 -0.51169103 1.863642
1.37041 -0.48975399 1.860076
1.3599601 -0.48110801 1.852358
1.3583299 -0.47029001 1.8511169
1.35997 -0.45787299 1.857141
1.35691 -0.44794202 1.8566999
1.3596001 -0.437323 1.861189
1.3817301 -0.510508 1.853716
1.3710201 -0.50134701 1.845979
1.3713901 -0.48979402 1.8511719
1.36132 -0.480685 1.8437821
1.3571601 -0.47106302 1.841059
1.36367 -0.44523898 1.853322
1.36599 -0.43321201 1.8581309
1.36906 -0.42250901 1.8615539
1.4154401 -0.38434502 1.9053861
1.37192 -0.50162601 1.8376529
1.3710899 -0.48968399 1.8399091
1.3612199 -0.47927701 1.835109
1.36449 -0.46761799 1.8383099
1.36642 -0.44579899 1.8441529
1.3712699 -0.432071 1.8519849
1.38091 -0.41952801 1.859989
1.37289 -0.489645 1.8302749
1.3699299 -0.47784999 1.832149
1.36605 -0.46771801 1.8307221
1.3669299 -0.45662498 1.8330131
1.37049 -0.43392602 1.841442
1.3838401 -0.42005798 1.8535058
1.3686301 -0.49085701 1.8175879
1.3690801 -0.47995099 1.820809
1.3699899 -0.467612 1.824731
1.39334 -0.41552898 1.851684
1.37175 -0.487757 1.8119321
1.3728501 -0.47589999 1.815293
1.3726401 -0.46502101 1.8177639
1.36877 -0.45547402 1.815888
1.38411 -0.427845 1.833616
1.37554 -0.49013302 1.805007
1.36964 -0.47942102 1.802495
1.37792 -0.45221299 1.8142569
1.38229 -0.44125199 1.818151
1.38929 -0.42746201 1.8272198
1.38289 -0.49873501 1.7994721
1.3782401 -0.487683 1.797929
1.37045 -0.476769 1.793645
1.36757 -0.46635801 1.7941029
1.37834 -0.45264 1.8044901
1.39837 -0.42293799 1.824715
1.41959 -0.51368999 1.814701
1.39645 -0.50696301 1.798622
1.38032 -0.497655 1.7878779
1.3711301 -0.48738602 1.7841071
1.36774 -0.477597 1.781373
1.3716 -0.464618 1.7882059
1.37939 -0.45129099 1.795516
1.39439 -0.50714499 1.787342
1.38358 -0.49868801 1.7803699
1.3753901 -0.48853299 1.7773349
1.37523 -0.45330101 1.7835559
1.3896401 -0.427665 1.7983749
1.3962899 -0.41753602 1.805262
1.397 -0.50660998 1.7800739
1.38148 -0.498261 1.770609
1.37482 -0.48942602 1.7670569
1.35449 -0.46882802 1.756601
1.37877 -0.45344001 1.777584
1.3957601 -0.42654401 1.793669
1.40941 -0.41471601 1.8056549
1.4178599 -0.513569 1.7847251
1.38987 -0.50696397 1.766099
1.3764999 -0.49891999 1.7578839
1.4021499 -0.41617697 1.7926069
1.40847 -0.51365101 1.7693939
1.37974 -0.45301497 1.7580839
1.4035001 -0.50079101 1.72153
1.38972 -0.471825 1.718174
1.3922099 -0.46111199 1.720011
1.3991901 -0.45099601 1.7268258
1.39996 -0.50256199 1.710096
1.3997099 -0.492531 1.7110699
1.3912899 -0.48227298 1.705804
1.39485 -0.469585 1.7123208
1.39596 -0.45789599 1.714636
1.42216 -0.50904596 1.7136639
1.4057499 -0.50243801 1.704829
1.3963699 -0.49230599 1.699531
1.3931799 -0.481489 1.6990609
1.39476 -0.47046903 1.702565
1.43147 -0.51638401 1.7107941
1.41687 -0.51109999 1.702161
1.40417 -0.50281298 1.6947659
1.3965199 -0.49280798 1.69028
1.3952299 -0.48277599 1.6927921
1.39145 -0.472702 1.6917169
1.39529 -0.43669999 1.6997761
1.42897 -0.51732498 1.701543
1.4185001 -0.51089597 1.6946549
1.4021001 -0.50241101 1.68435
1.39534 -0.492731 1.682161
1.3953 -0.48166099 1.6841989
1.3994701 -0.468667 1.6895151
1.4292101 -0.51733601 1.6931039
1.41737 -0.51087302 1.684896
1.39597 -0.43448201 1.68182
1.49545 -0.52823502 1.722437
1.42519 -0.51801199 1.6812149
1.4126101 -0.430886 1.6849029
1.3598399 -0.49349701 1.9459189
1.35121 -0.46020401 1.942369
1.3578999 -0.49249402 1.935029
1.3549401 -0.44873101 1.9378791
1.35297 -0.47045398 1.923492
1.34858 -0.46027699 1.920786
1.3531799 -0.44938302 1.925791
1.3850399 -0.51618302 1.938869
1.36902 -0.50954801 1.9242959
1.35614 -0.46935299 1.9167011
1.35246 -0.45915797 1.914464
1.3577901 -0.447119 1.920191
1.35651 -0.45749801 1.907408
1.35895 -0.44714299 1.9119071
1.35071 -0.471288 1.8911358
1.3570501 -0.45843399 1.898315
1.37003 -0.50876701 1.891933
1.35903 -0.50092602 1.88585
1.34997 -0.47133598 1.879984
1.35191 -0.45987302 1.8831199
1.3769901 -0.509965 1.8872119
1.3719701 -0.50137103 1.885844
1.3565199 -0.47984201 1.8758949
1.35127 -0.46881801 1.871877
1.3524499 -0.44842097 1.875887
1.36905 -0.499226 1.874162
1.35454 -0.47837898 1.8650939
1.3512501 -0.457724 1.8646798
1.3542 -0.44703799 1.8683439
1.35526 -0.43623698 1.8707709
1.4077499 -0.38388699 1.9144111
1.3888201 -0.51113802 1.8786179
1.37563 -0.50110102 1.869364
1.3591901 -0.468568 1.85957
1.35394 -0.45852903 1.856059
1.35798 -0.44568598 1.8624389
1.38194 -0.50931597 1.863818
1.36264 -0.48880401 1.851346
1.3607899 -0.47887599 1.849125
1.35998 -0.46823701 1.8519859
1.35918 -0.446262 1.8528579
1.3656399 -0.433759 1.8606399
1.41444 -0.38242 1.903741
1.38993 -0.51098502 1.8602579
1.37396 -0.50091702 1.8488001
1.36874 -0.48935902 1.8461051
1.36062 -0.478984 1.8390799
1.3621601 -0.46779498 1.843847
1.35909 -0.446491 1.8427631
1.3639901 -0.43571702 1.8494791
1.37222 -0.49874499 1.8377839
1.36572 -0.48832101 1.8344619
1.36208 -0.47957402 1.831187
1.36889 -0.43402901 1.842855
1.37955 -0.41965902 1.8530579
1.3706 -0.48891899 1.828822
1.36289 -0.478246 1.823403
1.3621401 -0.46668801 1.823293
1.3697799 -0.44373298 1.8322259
1.37537 -0.42316899 1.8396879
1.36665 -0.48775902 1.816954
1.3665199 -0.47741902 1.816626
1.36702 -0.45490199 1.8196069
1.3717301 -0.443876 1.825038
1.39267 -0.41935799 1.843581
1.37015 -0.48841703 1.8095679
1.3733901 -0.46377301 1.813554
1.37362 -0.45302701 1.8152009
1.37003 -0.48695901 1.7992499
1.37099 -0.47649699 1.801394
1.3684801 -0.46631402 1.7999809
1.3727901 -0.45423001 1.805681
1.3804801 -0.442426 1.814567
1.39811 -0.50910497 1.8097529
1.38815 -0.49768201 1.803352
1.3699899 -0.48756698 1.789058
1.3737601 -0.47624901 1.7953769
1.37331 -0.45532799 1.7962559
1.38323 -0.443679 1.807287
1.3973 -0.50798899 1.7998419
1.3810201 -0.49763098 1.787886
1.3702699 -0.48718202 1.779711
1.37246 -0.45613202 1.7860719
1.3908701 -0.50779098 1.785455
1.3769001 -0.46261901 1.7798669
1.3770599 -0.45330501 1.7816349
1.39057 -0.50747401 1.7759368
1.35935 -0.476796 1.755886
1.3817999 -0.452692 1.775907
1.41398 -0.51667804 1.7829959
1.3841701 -0.50755501 1.762327
1.386 -0.44511101 1.7702969
1.40662 -0.516092 1.7695441
1.418 -0.51729 1.76911
1.3812 -0.452537 1.7481129
1.3746899 -0.47449002 1.7298629
1.38243 -0.453163 1.7404748
1.3810201 -0.48384702 1.725806
1.37793 -0.474161 1.724768
1.3817101 -0.46393698 1.7283189
1.3865601 -0.45291501 1.7349479
1.4738001 -0.535676 1.7676041
1.40162 -0.50256199 1.7205859
1.43642 -0.513834 1.7301221
1.4015 -0.50326997 1.711922
1.39552 -0.49363399 1.7080929
1.39323 -0.483661 1.708179
1.3894701 -0.473279 1.707294
1.42112 -0.51281297 1.7154911
1.40387 -0.503591 1.7043579
1.39487 -0.494073 1.699587
1.39305 -0.48389098 1.6999148
1.39015 -0.47151002 1.6980109
1.4159399 -0.52080899 1.703042
1.41919 -0.51308703 1.706709
1.40948 -0.504884 1.6990739
1.3988299 -0.49425203 1.6940241
1.39496 -0.48265401 1.691983
1.39288 -0.47158599 1.690347
1.41833 -0.51305503 1.696665
1.40476 -0.50310796 1.6875159
1.40065 -0.49210602 1.6873459
1.39505 -0.48231602 1.6833109
1.42892 -0.52017897 1.6934149
1.41283 -0.51262999 1.6829309
1.43361 -0.52138197 1.6869389
1.4427201 -0.52273202 1.6842059
1.36238 -0.49062598 1.9481391
1.35028 -0.45871899 1.939059
1.3525901 -0.448145 1.9419791
1.35129 -0.46791598 1.9300989
1.3511599 -0.44694301 1.929744
1.3527901 -0.45761901 1.9224869
1.35637 -0.44662899 1.923967
1.3572201 -0.46677899 1.91528
1.35774 -0.45594001 1.9171759
1.35612 -0.44665501 1.9145081
1.37703 -0.518058 1.9198951
1.35858 -0.455551 1.907674
1.35515 -0.47870898 1.893819
1.35778 -0.45648 1.8963879
1.3611701 -0.44552502 1.900721
1.3771001 -0.51788896 1.900802
1.3691701 -0.50998801 1.8938251
1.3591701 -0.47685799 1.886188
1.3599899 -0.456049 1.888499
1.3703301 -0.509839 1.885661
1.3671299 -0.50075901 1.883481
1.35729 -0.477478 1.87582
1.3566201 -0.467462 1.874643
1.3564 -0.45589697 1.875635
1.37928 -0.51740801 1.8820028
1.3688099 -0.49834901 1.8757739
1.3624099 -0.47775298 1.871406
1.35674 -0.46799999 1.865176
1.35668 -0.45672297 1.8652399
1.35765 -0.444821 1.868161
1.3816 -0.51054102 1.875109
1.3734801 -0.49945301 1.8695788
1.36507 -0.48904097 1.861522
1.3660899 -0.47817698 1.8639139
1.3578 -0.46653801 1.8566918
1.3605 -0.44506699 1.86002
1.3635001 -0.43304101 1.8644031
1.3824201 -0.50844103 1.866442
1.3717301 -0.48802897 1.85831
1.3658201 -0.476843 1.853696
1.3597301 -0.46547499 1.848286
1.35937 -0.44648701 1.8495529
1.36255 -0.43477198 1.8523709
1.37177 -0.48765302 1.848641
1.3647599 -0.47662801 1.843027
1.3645599 -0.466667 1.842418
1.36137 -0.444603 1.8418579
1.37871 -0.49826699 1.8444611
1.3736999 -0.487304 1.8405231
1.36834 -0.476414 1.83637
1.36821 -0.46485099 1.836388
1.3630201 -0.453522 1.8344879
1.3728399 -0.43169701 1.8419479
1.3893499 -0.42005002 1.855752
1.36902 -0.48697498 1.8273998
1.36677 -0.47583699 1.825505
1.3681101 -0.45409301 1.8290908
1.3744999 -0.43398997 1.833774
1.3861901 -0.42285401 1.843698
1.3715401 -0.486514 1.819749
1.3692501 -0.47481799 1.8174491
1.36545 -0.46398202 1.8148389
1.37485 -0.49729002 1.813045
1.3717799 -0.485728 1.809708
1.3700501 -0.474455 1.8088479
1.3701301 -0.465314 1.8106729
1.3676699 -0.454667 1.808472
1.37738 -0.44409999 1.8178369
1.4292901 -0.41562301 1.857706
1.3706399 -0.48717099 1.7993149
1.3719701 -0.46428698 1.802886
1.38222 -0.443578 1.8112729
1.37849 -0.49714801 1.797081
1.37563 -0.485311 1.794353
1.3765601 -0.475687 1.7962781
1.3915199 -0.50854099 1.79878
1.37383 -0.49538699 1.7836648
1.37286 -0.484245 1.7833009
1.37289 -0.47486499 1.785701
1.37169 -0.453343 1.7826389
1.37369 -0.46271801 1.776931
1.37719 -0.44362998 1.7789
1.38411 -0.43536597 1.786756
1.3620501 -0.47441798 1.758522
1.38351 -0.435157 1.7767889
1.3813001 -0.45333999 1.7545239
1.3824899 -0.45109501 1.7466331
1.3825101 -0.441955 1.747575
1.38763 -0.44189098 1.7437601
1.3889101 -0.45884499 1.7233069
1.34793 -0.48784199 1.9467789
1.3640801 -0.49582499 1.9453988
1.3530999 -0.48720798 1.9404989
1.36206 -0.49459597 1.9341589
1.3539799 -0.48558998 1.932143
1.3516201 -0.46010199 1.9378589
1.38886 -0.510539 1.939819
1.35532 -0.483904 1.9239509
1.34769 -0.46295202 1.9239899
1.36054 -0.44469202 1.9403988
1.38788 -0.51054198 1.928192
1.3708701 -0.50372398 1.917276
1.3527 -0.47202399 1.9157199
1.3501101 -0.45999801 1.9162539
1.35878 -0.44494 1.9285049
1.38631 -0.51017201 1.9158659
1.36384 -0.50498903 1.9019141
1.3493899 -0.47444001 1.901564
1.3511701 -0.460298 1.9075869
1.35388 -0.44653198 1.9144901
1.39325 -0.50928801 1.910477
1.35755 -0.49723399 1.8904599
1.35174 -0.47463101 1.891853
1.35175 -0.46053201 1.897482
1.40334 -0.51561797 1.906827
1.38695 -0.51040602 1.8962469
1.36615 -0.50495201 1.882874
1.3567901 -0.49539399 1.8806698
1.3546001 -0.47309798 1.8843269
1.3501899 -0.46192601 1.8847799
1.38108 -0.51212102 1.8812948
1.3728399 -0.50325 1.877514
1.3619701 -0.49369401 1.874126
1.35894 -0.481563 1.876792
1.35761 -0.470424 1.878163
1.35272 -0.45978099 1.8764191
1.3827699 -0.51041901 1.8725839
1.3684599 -0.50290501 1.865934
1.3638201 -0.49294701 1.8642279
1.36378 -0.48020598 1.870946
1.3541299 -0.47117299 1.865322
1.35127 -0.45968801 1.8655219
1.3556399 -0.44630599 1.8749961
1.3858701 -0.51057702 1.864623
1.3672099 -0.49162301 1.8577969
1.36208 -0.480737 1.8579739
1.35752 -0.46775901 1.8587421
1.35229 -0.45845199 1.8581699
1.35938 -0.443331 1.868204
1.37281 -0.50151998 1.849128
1.36808 -0.49096698 1.8491729
1.35997 -0.45509103 1.8554291
1.3628399 -0.44170201 1.8614719
1.3671499 -0.42778099 1.8691669
1.37292 -0.500826 1.8402359
1.3734699 -0.48872602 1.843847
1.36244 -0.48046002 1.838472
1.3594099 -0.46927798 1.8399891
1.36744 -0.44031799 1.855528
1.37174 -0.48999801 1.8329719
1.36332 -0.466104 1.834353
1.36718 -0.45122898 1.842325
1.3887 -0.416087 1.866431
1.37325 -0.476722 1.826382
1.3691299 -0.46558499 1.826942
1.36763 -0.45086601 1.8324671
1.37263 -0.48863602 1.815096
1.36571 -0.47900599 1.8117819
1.37103 -0.45186698 1.823432
1.37103 -0.48958099 1.803153
1.36791 -0.47621199 1.8037339
1.39728 -0.425055 1.8393769
1.40848 -0.51317102 1.811166
1.39305 -0.50601798 1.802439
1.37892 -0.49792999 1.795141
1.37202 -0.487057 1.7950739
1.37121 -0.475541 1.7955459
1.3677001 -0.46455002 1.798062
1.37054 -0.45259801 1.8048489
1.40939 -0.51232702 1.8020129
1.39079 -0.50614798 1.791281
1.38457 -0.49683201 1.7892231
1.37623 -0.48679501 1.787683
1.3670599 -0.47722802 1.7827219
1.37082 -0.45261398 1.7944169
1.40522 -0.51300299 1.788783
1.39266 -0.50433999 1.7842709
1.3797799 -0.49688703 1.7769848
1.37412 -0.485331 1.777233
1.37332 -0.47448599 1.779425
1.39332 -0.50576299 1.7744349
1.38098 -0.49720299 1.7673759
1.37588 -0.48708001 1.769346
1.40737 -0.51284599 1.771539
1.4009399 -0.51397401 1.757861
1.3864399 -0.506832 1.750396
1.36347 -0.49163201 1.7413919
1.42477 -0.51651698 1.7627109
1.3975999 -0.51339102 1.7464929
1.41427 -0.51108301 1.748516
1.3712 -0.464174 1.7315049
1.4069 -0.50944501 1.7335229
1.39757 -0.50160301 1.730058
1.3849699 -0.44708303 1.73703
1.4316701 -0.50908798 1.739473
1.4103999 -0.50891799 1.7262241
1.40513 -0.50061101 1.7270279
1.3881 -0.46466702 1.7260319
1.38691 -0.45455799 1.728085
1.4265699 -0.51207 1.726994
1.41039 -0.509606 1.718192
1.4084899 -0.49933299 1.720297
1.3981799 -0.48824298 1.7156129
1.3923801 -0.47700599 1.7151951
1.38985 -0.46609601 1.7175879
1.3914399 -0.452454 1.7225739
1.4250599 -0.51320601 1.717369
1.41699 -0.50719297 1.7144541
1.40504 -0.499024 1.7083709
1.39757 -0.48899201 1.7050971
1.39825 -0.47589999 1.7102491
1.39122 -0.46700698 1.709609
1.39491 -0.45326999 1.7150869
1.42299 -0.51413798 1.70746
1.4121001 -0.50818199 1.7013888
1.4048899 -0.49781799 1.698768
1.39694 -0.48932701 1.696756
1.39315 -0.47937199 1.697417
1.42439 -0.51428396 1.6978809
1.41344 -0.50745797 1.6924009
1.4109501 -0.49614102 1.6943729
1.3991499 -0.48796698 1.6896809
1.40179 -0.47209999 1.6956531
1.37675 -0.44540501 1.688132
1.44042 -0.518453 1.6972009
1.42679 -0.51478696 1.6898739
1.41591 -0.50855601 1.684375
1.4104899 -0.497208 1.6850929
1.3986701 -0.47462299 1.6839579
1.4366499 -0.52058399 1.686034
1.3575701 -0.49086103 1.942319
1.35138 -0.46846598 1.9315909
1.34776 -0.45832598 1.9331689
1.35427 -0.44396999 1.941299
1.37515 -0.50872004 1.9298029
1.3512 -0.46720201 1.922471
1.35272 -0.45539102 1.9268149
1.37709 -0.50781 1.9210789
1.35629 -0.46474302 1.917565
1.3557 -0.45379698 1.919632
1.3536099 -0.44298401 1.9205109
1.3703799 -0.50926 1.905184
1.3603101 -0.50035703 1.898167
1.35568 -0.46564701 1.9057449
1.35807 -0.45199299 1.9121149
1.40248 -0.512335 1.919155
1.3678399 -0.49926299 1.894565
1.35449 -0.479316 1.8919739
1.35194 -0.467792 1.8915131
1.3507299 -0.45520198 1.8949399
1.3967199 -0.51364899 1.9042081
1.3798399 -0.50645804 1.893067
1.37121 -0.49711299 1.8885019
1.35684 -0.47822601 1.883516
1.3512199 -0.46729499 1.8801389
1.34954 -0.45599899 1.883256
1.3790699 -0.50609899 1.8825738
1.3652201 -0.49737599 1.873819
1.35623 -0.47600499 1.872753
1.35261 -0.46627 1.8728391
1.35228 -0.455962 1.875531
1.38895 -0.51460397 1.8779789
1.37966 -0.50502801 1.8730099
1.3581901 -0.476053 1.863351
1.35709 -0.46360299 1.8677249
1.3542199 -0.451639 1.8685941
1.3656501 -0.48617598 1.8582129
1.36067 -0.47536001 1.855213
1.35741 -0.46478 1.856971
1.35944 -0.45159802 1.862637
1.35666 -0.439724 1.8646829
1.37509 -0.409338 1.885758
1.37621 -0.50668699 1.8502491
1.3695101 -0.49546599 1.849298
1.365 -0.48391399 1.848285
1.35983 -0.475297 1.846207
1.3608501 -0.46497101 1.849758
1.3565199 -0.45444697 1.849849
1.36099 -0.44104698 1.856926
1.3964701 -0.397845 1.8946609
1.3828 -0.50449502 1.8464379
1.3700999 -0.48479402 1.8431599
1.36577 -0.47357202 1.8417859
1.36314 -0.460969 1.843226
1.3594501 -0.45052201 1.8441739
1.36685 -0.43764901 1.8519831
1.3706399 -0.49568099 1.8286951
1.3717799 -0.48381999 1.8348209
1.36411 -0.47475702 1.829754
1.36324 -0.46314701 1.832684
1.3655701 -0.44918001 1.838976
1.3777299 -0.424124 1.8517209
1.3734801 -0.49451101 1.8221339
1.3714 -0.48289502 1.823645
1.37002 -0.469715 1.8260181
1.36805 -0.45782602 1.828203
1.3705499 -0.44548401 1.8340008
1.39327 -0.41462001 1.8560709
1.37562 -0.49390301 1.8143369
1.36931 -0.48251301 1.811814
1.3675301 -0.47175997 1.8143089
1.36875 -0.45934501 1.8185459
1.3758999 -0.44402999 1.828236
1.38771 -0.42744899 1.8408099
1.37757 -0.48189399 1.8082089
1.3712801 -0.47107801 1.8075769
1.37111 -0.46031201 1.811039
1.37212 -0.44805402 1.814278
1.38895 -0.42857897 1.831166
1.39815 -0.51023501 1.8084849
1.38863 -0.501876 1.802874
1.3846201 -0.49100199 1.8018799
1.37086 -0.48321 1.793136
1.37342 -0.471259 1.7999508
1.3722301 -0.458509 1.8019329
1.3822999 -0.44083101 1.8131049
1.3992599 -0.42213601 1.8295459
1.40196 -0.510638 1.801234
1.3914 -0.50074202 1.7954379
1.37626 -0.49309701 1.7863419
1.37245 -0.48319599 1.7852479
1.37218 -0.47022399 1.7891269
1.37126 -0.458206 1.7917279
1.4073399 -0.50819802 1.7951081
1.38545 -0.50192499 1.781474
1.3751199 -0.49288899 1.7765679
1.38288 -0.42310101 1.7980319
1.39584 -0.51065397 1.7773139
1.3808399 -0.50243199 1.768468
1.3738201 -0.492046 1.76762
1.3867301 -0.42971298 1.791536
1.38729 -0.420917 1.791615
1.41099 -0.51717496 1.7778518
1.39577 -0.51066899 1.768015
1.37937 -0.50457102 1.7573841
1.39379 -0.427607 1.7864859
1.40187 -0.41558301 1.792897
1.4161501 -0.51669604 1.772709
1.3959301 -0.51063704 1.7589428
1.3591901 -0.46214801 1.7459919
1.418 -0.51625597 1.7645199
1.3951 -0.50928998 1.749096
1.37214 -0.50353599 1.73646
1.37884 -0.453217 1.7511799
1.4225 -0.51408297 1.7575101
1.3975 -0.50818998 1.741217
1.4305099 -0.51200598 1.7545209
1.41073 -0.50635099 1.7411411
1.3805001 -0.46683601 1.729775
1.42914 -0.50959802 1.7447259
1.4141901 -0.505077 1.734103
1.38621 -0.46346599 1.7255398
1.3904401 -0.45167598 1.731364
1.43416 -0.506836 1.7392138
1.40845 -0.50494999 1.721543
1.4003999 -0.49483398 1.7191739
1.3908 -0.474794 1.7175659
1.39096 -0.45162898 1.7230589
1.4133099 -0.43372002 1.7388809
1.4267501 -0.5086 1.7250509
1.4107001 -0.50544 1.713806
1.40548 -0.49642399 1.712842
1.39408 -0.48658401 1.7084129
1.39406 -0.47447202 1.7098089
1.3940101 -0.461748 1.713858
1.42795 -0.42757198 1.7421781
1.4171801 -0.42370999 1.736771
1.42193 -0.50990599 1.7128791
1.4067999 -0.50547004 1.703091
1.39859 -0.496263 1.6998489
1.3974 -0.48389599 1.7009799
1.39736 -0.47060698 1.704216
1.3995799 -0.45709801 1.7086859
1.4298199 -0.42737401 1.736926
1.4144599 -0.51143098 1.6985821
1.4030499 -0.50527102 1.6914259
1.4007201 -0.49432999 1.6931769
1.39416 -0.486595 1.6894848
1.3944099 -0.47489601 1.6924609
1.4113699 -0.51346999 1.685325
1.4051499 -0.50541699 1.684119
1.4019099 -0.49538699 1.684975
1.39429 -0.48534 1.6816919
1.39899 -0.47155499 1.6871029
1.43543 -0.52016699 1.689312
1.42057 -0.51367402 1.6811121
1.3924 -0.43729198 1.681608
1.4361399 -0.52142602 1.6818061
1.4066499 -0.43193802 1.6820841
1.3572501 -0.46053201 1.944209
1.35572 -0.44890299 1.944169
1.3639301 -0.49339199 1.932421
1.35614 -0.482593 1.9272839
1.3548 -0.46321601 1.931205
1.3802201 -0.51169497 1.9334588
1.35638 -0.45998001 1.92233
1.36922 -0.51111901 1.914348
1.3604699 -0.50371701 1.907267
1.35655 -0.45965499 1.911689
1.3612801 -0.44730899 1.919173
1.35492 -0.46228501 1.900625
1.37389 -0.51069403 1.8967099
1.3559101 -0.47096598 1.889515
1.3599601 -0.45836103 1.896347
1.3584599 -0.448091 1.8951911
1.37906 -0.50978804 1.8905759
1.36658 -0.502065 1.881662
1.3668699 -0.49180803 1.884657
1.35963 -0.47016299 1.8815379
1.3600399 -0.45784 1.8863989
1.3685899 -0.50150901 1.8733239
1.36243 -0.49171397 1.8721119
1.3633 -0.47997102 1.8749789
1.3569 -0.470976 1.869262
1.35938 -0.45902002 1.8750889
1.37696 -0.50275099 1.870459
1.3632201 -0.48138601 1.864677
1.35787 -0.47061598 1.8602561
1.35874 -0.46004599 1.8651348
1.3589301 -0.44832698 1.8671108
1.38246 -0.511558 1.8635111
1.3709199 -0.489645 1.8599648
1.36045 -0.48101798 1.852258
1.3588001 -0.470202 1.851025
1.36041 -0.457784 1.857048
1.35732 -0.44786 1.856617
1.36 -0.43723801 1.8611121
1.3822701 -0.51037198 1.8535831
1.3715401 -0.50122899 1.845861
1.3718801 -0.489678 1.8510599
1.35761 -0.470974 1.8409649
1.3640699 -0.44514 1.8532389
1.36637 -0.43311101 1.858049
1.3694299 -0.42240399 1.8614759
1.41576 -0.384161 1.9052811
1.37243 -0.50150299 1.837533
1.37158 -0.48956299 1.839798
1.36168 -0.479175 1.8350089
1.3649299 -0.46751201 1.8382128
1.3668201 -0.44569099 1.8440629
1.37164 -0.43195498 1.8518978
1.3812699 -0.41939601 1.859899
1.3733701 -0.48951697 1.8301638
1.3703799 -0.47772899 1.8320389
1.36649 -0.46760502 1.830624
1.36734 -0.45651001 1.832919
1.37086 -0.43380797 1.841355
1.3841799 -0.41991699 1.8534141
1.36911 -0.490731 1.8174759
1.3695301 -0.47982499 1.820702
1.3704201 -0.46748698 1.8246289
1.39368 -0.41536701 1.851588
1.3722099 -0.48762298 1.81182
1.3732899 -0.47576401 1.815185
1.37306 -0.46488702 1.8176599
1.3691701 -0.45534697 1.815792
1.38446 -0.42769402 1.8335199
1.3802099 -0.50075799 1.806191
1.376 -0.48998797 1.804889
1.37007 -0.47928602 1.802388
1.3783001 -0.45206699 1.8141559
1.38265 -0.44109797 1.8180499
1.38963 -0.42729801 1.827119
1.38337 -0.49857101 1.7993438
1.37869 -0.48752898 1.797811
1.3708701 -0.47662801 1.7935379
1.36797 -0.46622503 1.794004
1.3787199 -0.45248798 1.8043879
1.3987 -0.42275298 1.824609
1.42011 -0.51345402 1.8145349
1.3969501 -0.50676996 1.7984799
1.38078 -0.49749199 1.787753
1.37157 -0.48723999 1.783995
1.36815 -0.477456 1.781268
1.3719901 -0.46447301 1.7881039
1.37977 -0.451132 1.7954129
1.39487 -0.50695097 1.7872009
1.38403 -0.498514 1.7802409
1.3758299 -0.48837501 1.777218
1.3756 -0.45314601 1.783456
1.3899601 -0.427486 1.7982739
1.3966 -0.417346 1.805161
1.39747 -0.50640702 1.7799311
1.3819299 -0.49808702 1.7704829
1.37525 -0.48926398 1.766941
1.35487 -0.46870399 1.756512
1.3791299 -0.453275 1.777481
1.41834 -0.51332301 1.7845608
1.3903301 -0.50676996 1.7659611
1.37694 -0.49875 1.7577609
1.40245 -0.41597 1.7925019
1.4089501 -0.51341802 1.769237
1.38008 -0.45283902 1.75798
1.4082401 -0.43771499 1.77056
1.38693 -0.46231702 1.725018
1.40391 -0.50054699 1.7213839
1.3900599 -0.47160801 1.7180539
1.39254 -0.46089101 1.7198929
1.3995 -0.45076302 1.726707
1.40036 -0.50231898 1.7099519
1.40009 -0.49228999 1.7109299
1.39165 -0.482048 1.7056769
1.3951801 -0.46935502 1.7121969
1.3962801 -0.45766601 1.7145169
1.42258 -0.50875801 1.7134979
1.40616 -0.50218099 1.7046798
1.39674 -0.492066 1.6993939
1.39353 -0.48125702 1.6989341
1.39509 -0.47023499 1.702441
1.4319099 -0.51607603 1.710616
1.4172901 -0.510818 1.7019989
1.40456 -0.50255501 1.6946179
1.3968899 -0.49256402 1.690143
1.3955799 -0.48253602 1.692662
1.3917799 -0.47247002 1.6915948
1.42939 -0.51701599 1.701368
1.4189 -0.510607 1.6944919
1.40248 -0.50215304 1.684204
1.39569 -0.492486 1.682026
1.3956399 -0.48141801 1.6840689
1.39979 -0.46841702 1.6893879
1.4296299 -0.51702303 1.6929278
1.4177699 -0.51058203 1.6847329
1.3961999 -0.43423402 1.681711
1.49591 -0.52779597 1.7221979
1.4255999 -0.517703 1.6810429
1.41284 -0.43060601 1.6847819
1.3617599 -0.49379101 1.9467191
1.35632 -0.48291501 1.9440689
1.3598199 -0.492791 1.9358189
1.35495 -0.48227 1.9317679
1.35507 -0.47121701 1.935989
1.35674 -0.44903702 1.938699
1.35483 -0.470761 1.9242959
1.35041 -0.46059701 1.9215961
1.35498 -0.44969201 1.926604
1.38703 -0.51640499 1.939659
1.37099 -0.509812 1.9250901
1.35428 -0.45946601 1.9152689
1.3595799 -0.447413 1.920998
1.35832 -0.45779201 1.9082168
1.3607401 -0.447431 1.9127201
1.36412 -0.50883996 1.896752
1.3525701 -0.47159499 1.891942
1.3588699 -0.45872399 1.899124
1.3719901 -0.50901902 1.892723
1.35183 -0.47164199 1.8807911
1.35373 -0.46017501 1.8839301
1.35658 -0.448145 1.8893249
1.37894 -0.51019597 1.888005
1.3738999 -0.50161701 1.886639
1.3624699 -0.49139598 1.879511
1.3584 -0.480129 1.876699
1.3531101 -0.46911898 1.8726859
1.35423 -0.44872001 1.8766959
1.37098 -0.499477 1.8749539
1.35642 -0.47866902 1.865896
1.35502 -0.46915299 1.8638269
1.35306 -0.458022 1.8654829
1.35598 -0.44733003 1.869159
1.4093699 -0.38403901 1.9152288
1.39078 -0.511334 1.879407
1.37756 -0.501333 1.8701599
1.3610201 -0.46884301 1.8603729
1.35575 -0.45881802 1.8568649
1.35975 -0.44596601 1.8632449
1.36352 -0.43517601 1.8674399
1.39306 -0.39760101 1.8951759
1.38389 -0.50952798 1.86461
1.3645301 -0.489068 1.8521409
1.3626601 -0.47914502 1.8499218
1.36183 -0.46850899 1.852788
1.3609599 -0.44653597 1.8536689
1.3758999 -0.501149 1.8495959
1.37063 -0.48960498 1.8468989
1.3624899 -0.47924998 1.839877
1.364 -0.468059 1.844648
1.36087 -0.44676399 1.8435669
1.3657299 -0.435976 1.8502899
1.39669 -0.40801498 1.8782449
1.36761 -0.48857102 1.8352579
1.36395 -0.47983399 1.8319839
1.37063 -0.43427399 1.843663
1.38125 -0.41987598 1.8538709
1.37788 -0.498979 1.832215
1.3724899 -0.48915499 1.8296189
1.36397 -0.46694601 1.824097
1.3715401 -0.44397098 1.833034
1.37707 -0.42339402 1.8404999
1.36854 -0.488004 1.8177521
1.36838 -0.477662 1.817426
1.3644 -0.46760502 1.8144361
1.3688099 -0.455145 1.8204129
1.37349 -0.44410703 1.825846
1.39437 -0.41953498 1.8443891
1.3720399 -0.48864898 1.810365
1.36739 -0.47687501 1.8066019
1.3752099 -0.46399701 1.814357
1.37541 -0.453251 1.8160069
1.37427 -0.443775 1.8184409
1.37191 -0.48718899 1.800047
1.3728501 -0.476726 1.8021939
1.3702999 -0.46654901 1.800784
1.37459 -0.454454 1.8064859
1.3822399 -0.44263101 1.815374
1.4000599 -0.50925899 1.810541
1.3718699 -0.48779401 1.789855
1.37561 -0.476468 1.796178
1.36731 -0.466858 1.788717
1.37509 -0.45554799 1.7970599
1.38499 -0.443874 1.808093
1.39924 -0.50814199 1.8006299
1.38292 -0.49782798 1.7886789
1.37214 -0.487407 1.780509
1.3688201 -0.47696799 1.781795
1.37112 -0.46657699 1.782865
1.3742501 -0.456352 1.786877
1.3928 -0.50795901 1.7862439
1.36904 -0.47575501 1.77228
1.37871 -0.46282399 1.780669
1.37884 -0.45351201 1.7824398
1.3925 -0.50764 1.7767261
1.3611901 -0.47704601 1.756689
1.4159399 -0.51678002 1.7837781
1.3861001 -0.50773603 1.7631171
1.3617301 -0.47733501 1.7478479
1.4085699 -0.51621103 1.770327
1.41995 -0.51737702 1.769891
1.38298 -0.452723 1.748917
1.3765199 -0.47469002 1.7306619
1.3825901 -0.46318901 1.7377038
1.3842 -0.453343 1.741279
1.38745 -0.44492501 1.7439771
1.38288 -0.484027 1.726601
1.38351 -0.46411702 1.7291199
1.38834 -0.45308301 1.735751
1.3806 -0.464661 1.7183828
1.4035201 -0.50268298 1.7213739
1.43836 -0.513861 1.7309009
1.4034101 -0.50339001 1.7127091
1.3974 -0.49376899 1.708884
1.39509 -0.48380297 1.7089729
1.3912899 -0.473432 1.708091
1.3970599 -0.45328301 1.712828
1.4230599 -0.512878 1.7162728
1.4057699 -0.50370198 1.705145
1.39675 -0.49420899 1.7003779
1.3949001 -0.48403099 1.7007089
1.39197 -0.471659 1.6988089
1.4178901 -0.52088499 1.703822
1.42112 -0.51315498 1.707491
1.4114 -0.504978 1.699859
1.40071 -0.49437499 1.694815
1.3967999 -0.48278701 1.6927769
1.3947001 -0.47172502 1.691144
1.42026 -0.51312304 1.6974469
1.40666 -0.50321203 1.6883029
1.4025199 -0.49222198 1.6881369
1.3969001 -0.48244801 1.6841049
1.4308701 -0.520217 1.694193
1.41476 -0.51270998 1.683714
1.43556 -0.52140498 1.687716
1.44468 -0.52272803 1.6849799
1.36167 -0.49060601 1.9475088
1.34961 -0.458689 1.9384189
1.35192 -0.448116 1.941339
1.35061 -0.467888 1.929459
1.35601 -0.45672798 1.9355289
1.35051 -0.44691399 1.929099
1.35212 -0.45759299 1.921841
1.35571 -0.44660702 1.923324
1.3565601 -0.46675801 1.9146399
1.35709 -0.455919 1.916536
1.3554801 -0.44663298 1.913869
1.37632 -0.51805401 1.919274
1.3579299 -0.45553198 1.9070319
1.35449 -0.47868699 1.8931791
1.3571401 -0.45646098 1.8957471
1.3764 -0.51788801 1.9001889
1.3684801 -0.50998002 1.8932
1.35781 -0.49872601 1.8859849
1.35852 -0.47684202 1.8855499
1.36965 -0.50983298 1.8850391
1.36646 -0.50075102 1.8828571
1.3566499 -0.47746101 1.875181
1.35598 -0.46744499 1.874005
1.35577 -0.45588002 1.874995
1.3586501 -0.44452801 1.879508
1.3786 -0.51741201 1.881387
1.3681301 -0.49834302 1.8751489
1.36177 -0.47774202 1.870773
1.35611 -0.46798402 1.8645359
1.35606 -0.456707 1.8645999
1.3570399 -0.44480598 1.8675179
1.3809199 -0.51054698 1.87449
1.37281 -0.49945202 1.8689569
1.3644201 -0.489034 1.860891
1.36544 -0.47816899 1.8632801
1.35718 -0.466524 1.856055
1.35989 -0.44505599 1.859382
1.3628999 -0.43303099 1.8637658
1.38175 -0.508448 1.8658289
1.3710899 -0.48802701 1.857685
1.36518 -0.47683701 1.853061
1.35911 -0.46546298 1.847651
1.35877 -0.44647598 1.8489109
1.37114 -0.48765302 1.848017
1.36414 -0.47662202 1.8424
1.36395 -0.46666101 1.841785
1.3780701 -0.49827302 1.8438389
1.37308 -0.48730701 1.839896
1.36772 -0.476412 1.8357409
1.36761 -0.46484903 1.835757
1.3624201 -0.45351502 1.833855
1.38877 -0.42006502 1.855127
1.3684 -0.486974 1.826773
1.3661599 -0.475835 1.8248739
1.36752 -0.454092 1.828458
1.38562 -0.422867 1.843073
1.3709199 -0.486516 1.8191229
1.3686501 -0.474819 1.816819
1.37863 -0.44205001 1.8274289
