# .PCD v0.7 - Point Cloud Data file format
VERSION 0.7
FIELDS x y z
SIZE 4 4 4
TYPE F F F
COUNT 1 1 1
WIDTH 131
HEIGHT 1
VIEWPOINT 0 0 0 1 0 0 0
POINTS 131
DATA ascii
1.0059301 -0.470034 2.964849
1.0139199 -0.485324 2.9650989
1.0226799 -0.50080001 2.9668288
1.04904 -0.506522 2.962759
1.01519 -0.47986099 2.9548888
1.01457 -0.499253 2.9577091
1.0312999 -0.51057702 2.954169
1.00782 -0.48504001 2.9482989
1.0198799 -0.499908 2.9454691
1.03891 -0.50934702 2.9398191
1.01343 -0.48302299 2.936759
1.0164 -0.50275999 2.937669
1.0448101 -0.50840002 2.9296589
1.00568 -0.46653098 2.961879
1.02397 -0.47683102 2.957099
1.0607901 -0.49033502 2.9462588
1.02923 -0.47654098 2.9477389
1.03451 -0.49329102 2.9465091
1.05902 -0.50256199 2.939889
1.02439 -0.47887599 2.939569
1.03451 -0.49450198 2.937649
1.0537699 -0.50276297 2.932879
0.99031901 -0.46940699 2.9373591
1.00297 -0.481161 2.935709
1.03291 -0.49363899 2.9296992
1.05724 -0.50246102 2.9235291
0.97801501 -0.47335702 2.9338489
1.0341899 -0.62970603 2.952559
1.0362899 -0.62985903 2.9438889
0.99383199 -0.52241004 2.9689689
0.99966902 -0.51546103 2.9695787
1.0018001 -0.50488096 2.9662092
0.98925102 -0.52581501 2.960469
1.0001999 -0.52522397 2.9678488
1.0016999 -0.51629198 2.9624188
1.0091701 -0.51042801 2.9668491
1.00825 -0.49845099 2.9616189
1.01964 -0.493976 2.9683192
1.02127 -0.482436 2.9640689
1.02464 -0.473584 2.9628088
1.00433 -0.52665699 2.9634988
1.00676 -0.519476 2.9598789
1.0102301 -0.51196402 2.9597189
1.01517 -0.502882 2.9612892
1.0183001 -0.49027699 2.9580288
1.0171 -0.477579 2.951149
1.00967 -0.52853197 2.9607689
1.02026 -0.52696002 2.9675791
1.02547 -0.52087003 2.969599
1.03539 -0.49237597 2.965589
1.01193 -0.49667099 2.9678588
1.02414 -0.48392501 2.9696391
1.02257 -0.46807802 2.9603689
1.00756 -0.519189 2.968049
1.0131401 -0.51079899 2.9669189
1.0122499 -0.49835098 2.9613488
1.0219899 -0.49237001 2.9646289
1.0238099 -0.47853801 2.958909
1.0145099 -0.52655399 2.9673388
1.0156701 -0.51500201 2.963259
1.0197899 -0.50477999 2.9615891
1.03573 -0.50132 2.9688189
1.03625 -0.48899102 2.9631588
1.02579 -0.52417701 2.9679191
1.0503299 -0.48793998 2.963089
1.05395 -0.48111099 2.9542091
1.0672799 -0.491909 2.9584289
1.08095 -0.51076698 2.9638391
1.07683 -0.49874198 2.9577689
1.08391 -0.51469797 2.958509
1.09078 -0.50921601 2.960849
1.08636 -0.52514601 2.955709
1.09207 -0.51828599 2.9554489
1.0954 -0.51155603 2.955559
1.0987201 -0.54265702 2.9637389
1.0876 -0.523956 2.9461989
1.09082 -0.516608 2.944159
1.09797 -0.51304501 2.948909
1.08776 -0.52453899 2.9366391
1.09399 -0.52010399 2.9388888
1.09684 -0.512784 2.938019
1.0927 -0.52799398 2.9317989
1.0968801 -0.52137697 2.932879
1.0990599 -0.51466 2.9310989
1.10804 -0.549981 2.9430389
1.09841 -0.53327101 2.9286489
1.09894 -0.52388597 2.925499
1.08928 -0.53371102 2.9159188
1.09674 -0.529966 2.9184089
1.09938 -0.52305502 2.916059
1.08911 -0.51423699 2.8999288
1.09631 -0.511666 2.902869
1.13355 -0.55315799 2.8881691
1.0929 -0.54662901 2.9308491
1.0855 -0.53376997 2.910919
1.10035 -0.55226797 2.9309289
1.09767 -0.542099 2.920629
1.09444 -0.53200102 2.9085889
1.1080999 -0.55765498 2.929759
1.10524 -0.54742098 2.9177289
1.1078399 -0.54056096 2.9154489
1.1094899 -0.55724502 2.9142489
1.1123201 -0.55043 2.9100487
1.11464 -0.54327202 2.904129
1.13332 -0.60271001 2.959559
1.13845 -0.59880102 2.962579
1.1136299 -0.55809599 2.9004889
1.11608 -0.551148 2.8952188
1.12044 -0.54573101 2.8938391
1.1383899 -0.60675699 2.9475088
1.13675 -0.59720999 2.935679
1.1201 -0.56192404 2.889869
1.12292 -0.554676 2.8886788
1.12405 -0.54774702 2.881449
1.13878 -0.59691101 2.9180491
1.11992 -0.51441699 2.936059
1.1085 -0.51264101 2.9201691
1.12099 -0.52259898 2.9152288
1.11411 -0.51740801 2.910569
1.1157 -0.50946403 2.920399
1.12172 -0.53283197 2.8894689
1.11681 -0.52566004 2.889679
1.11701 -0.51692504 2.899549
1.1232901 -0.51381099 2.9378891
1.11181 -0.51206499 2.9220388
1.12432 -0.52198702 2.9170589
1.1174099 -0.51681399 2.9124091
1.11901 -0.50886703 2.9222488
1.12499 -0.53221399 2.891289
1.12006 -0.525056 2.8915188
1.12027 -0.51632196 2.9013889
