# .PCD v0.7 - Point Cloud Data file format
VERSION 0.7
FIELDS x y z
SIZE 4 4 4
TYPE F F F
COUNT 1 1 1
WIDTH 1614
HEIGHT 1
VIEWPOINT 0 0 0 1 0 0 0
POINTS 1614
DATA ascii
1.43425 -0.60060501 1.4789771
1.43513 -0.591254 1.4801708
1.39982 -0.63745999 1.4722819
1.4050101 -0.62654597 1.4739289
1.41457 -0.61693102 1.4730949
1.4194 -0.60744596 1.4734949
1.4265699 -0.59933698 1.474998
1.4023499 -0.63765997 1.4666449
1.4146 -0.62800902 1.4662869
1.42154 -0.61807299 1.466483
1.43185 -0.61213201 1.46573
1.49511 -0.53050303 1.265559
1.49821 -0.52313703 1.265914
1.50633 -0.53493696 1.2548369
1.4991299 -0.523148 1.260283
1.4825 -0.50739199 1.2685699
1.50977 -0.53703302 1.2458539
1.50493 -0.52550101 1.2505939
1.48507 -0.50705397 1.261409
1.4826801 -0.497473 1.2641429
1.5198801 -0.540932 1.2343529
1.5067 -0.52679598 1.2418469
1.49325 -0.509799 1.2496309
1.48428 -0.49687099 1.2564789
1.5126899 -0.53720701 1.229829
1.50375 -0.52306902 1.235816
1.4888 -0.50649202 1.2442451
1.4884599 -0.496638 1.245693
1.51974 -0.53988397 1.2185889
1.51334 -0.52814299 1.223334
1.49266 -0.50777799 1.235049
1.49265 -0.49526 1.235873
1.47372 -0.48041302 1.246616
1.5224099 -0.54027098 1.2093019
1.50515 -0.52247101 1.2192149
1.49229 -0.50416303 1.2272201
1.4912801 -0.49277499 1.229501
1.48212 -0.48182201 1.236385
1.5220101 -0.539985 1.2012479
1.51535 -0.52813202 1.206031
1.4983701 -0.50863701 1.2156709
1.4941901 -0.49460497 1.220799
1.48123 -0.48089501 1.2295209
1.52028 -0.53835201 1.193774
1.51115 -0.523619 1.200163
1.49781 -0.506329 1.207994
1.49756 -0.49583098 1.2112019
1.4867901 -0.48286802 1.2192379
1.5289799 -0.55405104 1.1756721
1.52917 -0.54336298 1.179965
1.51642 -0.526959 1.1893549
1.50611 -0.51025099 1.196566
1.4985001 -0.49531701 1.2027529
1.4903901 -0.48330602 1.2094769
1.53091 -0.558532 1.167015
1.53181 -0.54621202 1.170579
1.52333 -0.53140098 1.1781049
1.50875 -0.51222301 1.1865669
1.49991 -0.49529302 1.1939169
1.50091 -0.485111 1.1958439
1.52885 -0.54763597 1.1634499
1.52256 -0.53026301 1.1695369
1.50571 -0.50945997 1.179709
1.50802 -0.49796298 1.1817479
1.50166 -0.48382598 1.187502
1.49172 -0.47162399 1.194116
1.52766 -0.544438 1.1560349
1.5172501 -0.52798599 1.163234
1.51193 -0.51404703 1.1688049
1.50676 -0.49896899 1.173779
1.5061799 -0.485257 1.176622
1.5086099 -0.47675097 1.1789789
1.5216099 -0.53943998 1.15133
1.5125 -0.52370095 1.158995
1.5078501 -0.50991601 1.163278
1.50298 -0.49416599 1.16758
1.5015301 -0.481729 1.1707799
1.50708 -0.47539198 1.1714139
1.5299699 -0.55561501 1.1355679
1.5251 -0.54284698 1.141324
1.5165 -0.52518499 1.1484259
1.5000701 -0.504978 1.1596829
1.5024099 -0.493918 1.1592079
1.50743 -0.48457199 1.1605769
1.50598 -0.47445098 1.16317
1.53483 -0.55630702 1.126356
1.5228701 -0.53974801 1.1343499
1.51454 -0.52301401 1.140463
1.5027001 -0.50649297 1.1502519
1.5082 -0.496016 1.1479599
1.5029401 -0.48226398 1.154671
1.50111 -0.47234699 1.157557
1.5285001 -0.54056501 1.122754
1.5172099 -0.52459598 1.130914
1.5072999 -0.50746399 1.139419
1.5123801 -0.497803 1.13885
1.50823 -0.48517102 1.1440459
1.50334 -0.47297201 1.149856
1.52588 -0.53705198 1.114545
1.52187 -0.52594697 1.1198729
1.50773 -0.50876898 1.130347
1.5086099 -0.497686 1.133814
1.48362 -0.473914 1.152191
1.5223399 -0.52536702 1.111017
1.5165601 -0.512169 1.117123
1.51345 -0.50125402 1.122227
1.51536 -0.50205004 1.112529
1.41984 -0.63174498 1.48595
1.4249699 -0.621714 1.4868869
1.4259501 -0.609716 1.488516
1.43341 -0.60256898 1.4882081
1.3927901 -0.53909498 1.504993
1.4134101 -0.47359401 1.5107709
1.4056799 -0.63764197 1.481922
1.41128 -0.627783 1.48315
1.4189399 -0.61897898 1.483376
1.4183099 -0.60520196 1.4852159
1.42457 -0.59608901 1.4854691
1.3981199 -0.56608897 1.4945951
1.3881199 -0.54660898 1.4996769
1.3887601 -0.53716201 1.50142
1.4221001 -0.477752 1.5033929
1.4178101 -0.46830601 1.506376
1.40086 -0.63725299 1.476962
1.4120799 -0.62821299 1.476328
1.4106899 -0.612149 1.479967
1.41742 -0.60325903 1.479684
1.40616 -0.58317697 1.485291
1.37563 -0.55123299 1.495705
1.3736099 -0.53919798 1.498727
1.42548 -0.48044202 1.4954649
1.42495 -0.47234499 1.4986709
1.40493 -0.63849801 1.468648
1.41065 -0.62645501 1.469533
1.4109501 -0.61304301 1.473215
1.4084101 -0.59938097 1.4762959
1.3533 -0.54967499 1.4926928
1.35948 -0.542346 1.494476
1.35694 -0.53102297 1.49808
1.4140199 -0.48354697 1.491339
1.4327999 -0.48491502 1.486715
1.4322799 -0.476069 1.488727
1.40966 -0.640926 1.461744
1.41364 -0.63057899 1.462974
1.40605 -0.61213702 1.4686561
1.32116 -0.54330999 1.4929239
1.32409 -0.535528 1.4944639
1.3129801 -0.52240396 1.498037
1.42291 -0.48798302 1.482825
1.4300901 -0.48251998 1.4807888
1.4349899 -0.47578701 1.4811499
1.32532 -0.53778398 1.487783
1.4225 -0.487174 1.47567
1.43427 -0.48378399 1.471725
1.43673 -0.47466001 1.4732109
1.4289 -0.48956001 1.465958
1.44364 -0.48796001 1.462625
1.44144 -0.47545701 1.4645209
1.4243 -0.45642799 1.4710959
1.4259399 -0.48742801 1.4601059
1.4365699 -0.48315701 1.458322
1.44133 -0.47283199 1.4576449
1.43952 -0.46093398 1.4603949
1.43434 -0.44955298 1.463396
1.4431701 -0.48587897 1.45017
1.44036 -0.473436 1.451597
1.44955 -0.464131 1.450689
1.44995 -0.45429 1.452022
1.4326199 -0.47972599 1.4479059
1.4192799 -0.46469501 1.453096
1.45621 -0.46533698 1.4428329
1.45656 -0.45548999 1.4439991
1.4619701 -0.44810903 1.4420929
1.45964 -0.45338401 1.4366789
1.47276 -0.44888401 1.431319
1.4728199 -0.45468301 1.4255939
1.47733 -0.44852 1.4241669
1.48632 -0.444787 1.4213691
1.48191 -0.448897 1.416949
1.4980701 -0.44742802 1.4106729
1.48374 -0.447276 1.4086349
1.50439 -0.44791901 1.4006239
1.4938201 -0.450313 1.397862
1.5030999 -0.44635201 1.394357
1.51411 -0.44272301 1.3911619
1.4936999 -0.44955599 1.3907529
1.51371 -0.44964299 1.383984
1.53521 -0.44966 1.377152
1.49248 -0.448535 1.383405
1.51931 -0.450948 1.374122
1.5404601 -0.450793 1.368873
1.4978999 -0.45240101 1.3720939
1.5153199 -0.44967702 1.367007
1.5386599 -0.45022899 1.3622791
1.46726 -0.46239898 1.368909
1.47964 -0.45786899 1.367267
1.50605 -0.45639598 1.3614999
1.51115 -0.44779301 1.36172
1.5394 -0.45105201 1.3533539
1.479 -0.46784601 1.3589951
1.4781799 -0.45881698 1.3614149
1.49532 -0.455392 1.3573129
1.5104699 -0.44850799 1.354587
1.5404401 -0.45041901 1.344126
1.47744 -0.46769902 1.351799
1.4795899 -0.459171 1.3544589
1.49615 -0.454225 1.349821
1.5213001 -0.45165297 1.342358
1.54188 -0.448553 1.3352561
1.47658 -0.467262 1.344754
1.48191 -0.459768 1.3453289
1.49819 -0.45359099 1.3413669
1.52565 -0.452178 1.3330719
1.5487601 -0.45002201 1.3253299
1.5651699 -0.44750899 1.321713
1.4760699 -0.46566701 1.337829
1.4926 -0.46225798 1.3338089
1.50472 -0.454927 1.3320509
1.5313699 -0.45443699 1.323262
1.5523 -0.45124999 1.316574
1.56031 -0.44432899 1.316039
1.4751899 -0.46443099 1.331055
1.48632 -0.46087199 1.3288449
1.50342 -0.45607299 1.3244519
1.5330299 -0.45483601 1.314684
1.55724 -0.45188498 1.3072659
1.5707401 -0.44740799 1.304605
1.49402 -0.462363 1.319235
1.5100101 -0.45747298 1.31381
1.5376199 -0.45626202 1.3049021
1.55371 -0.45111901 1.3002319
1.5700301 -0.44693401 1.296299
1.4986501 -0.461716 1.309389
1.51451 -0.45821899 1.304104
1.53736 -0.45572498 1.297231
1.5608299 -0.45287898 1.2900839
1.5731399 -0.44632703 1.285828
1.49923 -0.46101299 1.3004889
1.51546 -0.457757 1.296506
1.53962 -0.45624599 1.2885569
1.5621699 -0.45235297 1.2815579
1.57358 -0.445108 1.27821
1.5886 -0.44089901 1.2739
1.49698 -0.45994201 1.293469
1.5130401 -0.457275 1.2893469
1.54296 -0.45729801 1.2791491
1.5623 -0.45163602 1.2735859
1.5745101 -0.44369099 1.270404
1.59073 -0.44030997 1.266251
1.50086 -0.459941 1.285231
1.51908 -0.45792401 1.279537
1.54325 -0.456119 1.271103
1.56367 -0.45123199 1.265085
1.57856 -0.44545501 1.2605339
1.5843201 -0.437233 1.2606729
1.5310299 -0.46107498 1.267105
1.55356 -0.45821398 1.2594789
1.5668499 -0.45100299 1.2567099
1.5804601 -0.44504601 1.2520239
1.58556 -0.43715301 1.2521329
1.5216099 -0.45638502 1.264284
1.5437 -0.45453301 1.256328
1.5694001 -0.45254299 1.247949
1.57559 -0.44303799 1.245623
1.58539 -0.43664399 1.243802
1.50402 -0.53344899 1.2384679
1.5692199 -0.45015401 1.239429
1.57844 -0.44228598 1.237074
1.58386 -0.43527499 1.236455
1.50832 -0.53498399 1.231001
1.5026699 -0.52486497 1.2357789
1.57241 -0.44983399 1.228595
1.5741401 -0.44147 1.2310449
1.5837801 -0.43613499 1.228158
1.5107001 -0.53549099 1.2227679
1.50686 -0.52688098 1.227793
1.5800799 -0.45310298 1.217231
1.58429 -0.446049 1.2178819
1.5701801 -0.43158299 1.2252229
1.51342 -0.53640199 1.2132559
1.5109801 -0.52818197 1.218017
1.5798199 -0.453951 1.208915
1.57733 -0.44436198 1.2116899
1.51554 -0.53702402 1.203957
1.5152299 -0.52982402 1.2077919
1.56864 -0.45895499 1.203564
1.57696 -0.454348 1.201364
1.56248 -0.44034901 1.2091399
1.51657 -0.53765303 1.1950279
1.51597 -0.529769 1.1991019
1.5704401 -0.46049899 1.1950409
1.58047 -0.45741099 1.1909369
1.52946 -0.55621397 1.1753259
1.52226 -0.54182398 1.183298
1.51547 -0.52983701 1.1905669
1.57267 -0.462731 1.184929
1.5782001 -0.45735401 1.1817149
1.52449 -0.5575 1.169367
1.52563 -0.54521596 1.173939
1.52043 -0.532794 1.1790739
1.5756199 -0.46484199 1.1730369
1.5790601 -0.45628399 1.1721179
1.52412 -0.54419303 1.1666
1.51823 -0.53092301 1.1716119
1.55124 -0.466144 1.171845
1.56845 -0.460677 1.167783
1.58322 -0.45527899 1.163016
1.56585 -0.43966702 1.1731299
1.5244501 -0.54527801 1.1576489
1.5197799 -0.53212398 1.1621619
1.5238 -0.46524101 1.1749239
1.5462899 -0.46646199 1.165731
1.5595 -0.45978901 1.162532
1.5734 -0.45176998 1.159725
1.5784199 -0.442817 1.1595769
1.52043 -0.54245204 1.150857
1.5139199 -0.52794898 1.1555849
1.5293499 -0.468299 1.1641849
1.54479 -0.464028 1.1592979
1.55922 -0.45888001 1.155165
1.56531 -0.44977799 1.1548079
1.57152 -0.43909499 1.154523
1.5624601 -0.42464298 1.160152
1.5217301 -0.56631899 1.1372559
1.52388 -0.55374002 1.138793
1.51702 -0.53796601 1.145048
1.5123 -0.52626801 1.1494989
1.52034 -0.46497899 1.16028
1.5357001 -0.46194199 1.154397
1.55575 -0.456503 1.1488789
1.55935 -0.443279 1.1499429
1.56076 -0.43131301 1.15169
1.56498 -0.42378899 1.1514629
1.53025 -0.558029 1.129534
1.51864 -0.54079801 1.1379039
1.5150501 -0.528337 1.1423019
1.52433 -0.46658799 1.1506349
1.53116 -0.46061298 1.1477959
1.5489399 -0.45662898 1.1421429
1.55574 -0.44506001 1.14218
1.5551699 -0.43070203 1.1454359
1.55685 -0.41940898 1.147135
1.5217 -0.464495 1.14397
1.5354201 -0.46072102 1.138124
1.55022 -0.453915 1.1334829
1.55013 -0.43878898 1.1363499
1.54465 -0.42240798 1.14263
1.5376199 -0.407902 1.147746
1.5290899 -0.46673599 1.131946
1.54811 -0.46415901 1.1229429
1.5508599 -0.451105 1.125122
1.54737 -0.43684399 1.1289819
1.5498599 -0.425098 1.131156
1.53362 -0.46810502 1.1204799
1.55494 -0.45529097 1.1138599
1.55269 -0.44131699 1.1187379
1.5529 -0.427607 1.1202279
1.5334599 -0.467464 1.1109589
1.5162101 -0.45955503 1.110159
1.46495 -0.51398802 1.4554089
1.46198 -0.51106298 1.4518039
1.44332 -0.49168399 1.4581281
1.4550101 -0.50576198 1.448252
1.44485 -0.49017701 1.450986
1.4331 -0.48947299 1.447999
1.44366 -0.486375 1.444818
1.4433999 -0.47820401 1.4464209
1.44946 -0.487149 1.4366729
1.4472799 -0.47751498 1.4386549
1.4459701 -0.48288798 1.4307539
1.45473 -0.47930801 1.4293219
1.44688 -0.46631402 1.4332019
1.4512 -0.47519001 1.4241629
1.4536901 -0.468301 1.4238269
1.4533099 -0.47427201 1.4158659
1.4600199 -0.46940801 1.413525
1.4549401 -0.47359797 1.406741
1.4604 -0.46890399 1.405931
1.45412 -0.47271597 1.399014
1.4583299 -0.46610698 1.398662
1.45789 -0.47512001 1.389498
1.46504 -0.46844399 1.3894169
1.4677401 -0.45930302 1.389074
1.43929 -0.474796 1.3863449
1.46436 -0.47987801 1.3788
1.45867 -0.46431199 1.384977
1.47905 -0.463525 1.3783898
1.48209 -0.45362499 1.378566
1.4596499 -0.487295 1.371511
1.4655499 -0.48117697 1.3715891
1.47026 -0.47102502 1.3728099
1.4790199 -0.46027002 1.371165
1.4882001 -0.45244098 1.3697079
1.46904 -0.49332297 1.35969
1.46438 -0.48002398 1.365382
1.47668 -0.473088 1.362286
1.49095 -0.46575502 1.358783
1.49218 -0.45392701 1.362204
1.5050999 -0.44879901 1.35794
1.46843 -0.492926 1.352326
1.4672501 -0.48141 1.3557299
1.4802099 -0.473856 1.3524491
1.49503 -0.46697399 1.349967
1.5002999 -0.456992 1.352144
1.51736 -0.45367402 1.3465689
1.53166 -0.45047402 1.342489
1.4688201 -0.491593 1.345148
1.4667599 -0.47948003 1.3485249
1.4788201 -0.47492802 1.3448889
1.4873599 -0.46585202 1.3446809
1.50172 -0.45783901 1.3432739
1.5263699 -0.45665002 1.336048
1.53982 -0.45223001 1.331987
1.45043 -0.47965598 1.3448639
1.47007 -0.48126802 1.3399659
1.47767 -0.47287101 1.3384079
1.48998 -0.46503502 1.336448
1.50454 -0.45769298 1.334011
1.53245 -0.45816201 1.3257519
1.5473599 -0.45296299 1.3211099
1.47435 -0.48176101 1.330932
1.4816099 -0.47285801 1.329196
1.4932699 -0.465197 1.3274699
1.50868 -0.45891702 1.324446
1.5382299 -0.45937902 1.315064
1.5527099 -0.45321801 1.312246
1.56724 -0.451372 1.309301
1.4742199 -0.479316 1.3218269
1.4865899 -0.47376597 1.319505
1.4987301 -0.46671399 1.3183209
1.5081199 -0.45846501 1.316373
1.5367199 -0.459681 1.307088
1.5483201 -0.45175201 1.305845
1.5659 -0.45013002 1.3026919
1.46997 -0.47712201 1.315069
1.4812601 -0.47319001 1.312843
1.4944299 -0.465841 1.311324
1.51379 -0.46056598 1.3056149
1.54387 -0.46068698 1.297477
1.5533201 -0.45332 1.296524
1.5557899 -0.44525298 1.297632
1.4688001 -0.474738 1.3077871
1.4886099 -0.47389302 1.30269
1.50177 -0.46743599 1.300759
1.5143601 -0.46216401 1.2969989
1.5349001 -0.45928299 1.2922049
1.5541099 -0.45494598 1.2881529
1.5457001 -0.44042301 1.2931141
1.4533501 -0.464454 1.3066379
1.47814 -0.46849999 1.298721
1.5016099 -0.46756598 1.292659
1.5176401 -0.46191201 1.2892169
1.5424 -0.46155798 1.281517
1.56116 -0.458987 1.276129
1.47296 -0.46401799 1.2942529
1.49791 -0.46694002 1.2862821
1.5133901 -0.46019 1.282876
1.5472901 -0.463741 1.270908
1.56478 -0.46201098 1.264675
1.5044299 -0.466492 1.277712
1.52202 -0.46230203 1.272378
1.55654 -0.467792 1.2593939
1.5707699 -0.46435601 1.253817
1.52274 -0.46280497 1.266559
1.5689501 -0.47052398 1.246323
1.57941 -0.467006 1.242269
1.5308099 -0.464057 1.2460619
1.5697999 -0.47094399 1.236819
1.5837399 -0.46937302 1.232476
1.53193 -0.46471801 1.23992
1.55848 -0.46838799 1.231535
1.57468 -0.466113 1.2276649
1.5323399 -0.46530601 1.2324319
1.55756 -0.46790799 1.2240649
1.55536 -0.45668098 1.2275369
1.52547 -0.47156602 1.224573
1.54053 -0.46966898 1.2199509
1.5549099 -0.46650901 1.217682
1.5275199 -0.47363299 1.2147549
1.53356 -0.46738601 1.213756
1.55278 -0.467298 1.209268
1.5220599 -0.47190499 1.2089829
1.5294099 -0.466474 1.207513
1.54936 -0.466997 1.20059
1.52285 -0.47222698 1.2007519
1.5413901 -0.47215098 1.193504
1.55028 -0.466629 1.190449
1.52853 -0.47670501 1.188072
1.54076 -0.47144902 1.1847889
1.5599099 -0.47106898 1.1771059
1.4937601 -0.48326999 1.186908
1.5061799 -0.47882703 1.185094
1.5249499 -0.47548902 1.180684
1.5435801 -0.47194901 1.1749409
1.55834 -0.46826598 1.169462
1.5098 -0.49177799 1.1726079
1.51217 -0.48098499 1.17503
1.53136 -0.47647098 1.169523
1.54485 -0.46950501 1.166281
1.55867 -0.46552899 1.1614109
1.50762 -0.49147701 1.1646229
1.51165 -0.48336101 1.166644
1.52136 -0.47452098 1.1641819
1.53326 -0.46455601 1.162979
1.55704 -0.463792 1.154894
1.5438401 -0.447191 1.163553
1.5037199 -0.48948801 1.1580769
1.51254 -0.48361 1.1571749
1.5222099 -0.47416303 1.1543889
1.52808 -0.46287498 1.156323
1.5493 -0.46006402 1.149832
1.553 -0.45137501 1.1515529
1.5055299 -0.490895 1.1481659
1.5117301 -0.48117697 1.149362
1.52288 -0.47435397 1.145336
1.52517 -0.46230301 1.1493199
1.54097 -0.45697898 1.144657
1.5511099 -0.449828 1.142686
1.484 -0.490098 1.147645
1.5045799 -0.49256697 1.1389589
1.5108099 -0.48235101 1.1403909
1.52354 -0.47532699 1.1365989
1.53251 -0.46511102 1.136909
1.5470799 -0.45683801 1.132809
1.55178 -0.44862598 1.133894
1.489 -0.49333501 1.137376
1.50511 -0.4912 1.1308379
1.51547 -0.48276699 1.130495
1.52529 -0.47407201 1.128268
1.54528 -0.46859002 1.1211979
1.54842 -0.45583001 1.123157
1.5517399 -0.44743198 1.1258149
1.4955701 -0.49659002 1.125378
1.5119001 -0.49536201 1.117433
1.51522 -0.48278099 1.121839
1.5354201 -0.47783199 1.114012
1.5507001 -0.47210702 1.110113
1.54953 -0.45814899 1.1134449
1.55173 -0.44611698 1.1161599
1.4994999 -0.49903402 1.114316
1.51653 -0.48346999 1.1106811
1.4647701 -0.46432799 1.116729
1.47807 -0.461597 1.1134019
1.4264599 -0.45321998 1.125973
1.44078 -0.45248401 1.121588
1.4543201 -0.45172402 1.116833
1.4444001 -0.45437101 1.11298
1.43502 -0.45965499 1.4741969
1.43392 -0.44745401 1.4762188
1.4980299 -0.44613898 1.4643891
1.43612 -0.459939 1.4690559
1.44444 -0.45445302 1.4678199
1.45078 -0.44338 1.4683701
1.47825 -0.44455799 1.4631461
1.49754 -0.446132 1.4595859
1.43707 -0.460554 1.4632649
1.4452001 -0.453646 1.461418
1.45392 -0.445472 1.460902
1.4648499 -0.43762198 1.460382
1.48755 -0.439827 1.4564251
1.43065 -0.44611698 1.4616259
1.4650199 -0.44980597 1.4502369
1.45769 -0.43348998 1.4554009
1.4591 -0.42100897 1.456037
1.46784 -0.44817901 1.440967
1.4581599 -0.43039399 1.4478079
1.47254 -0.45084998 1.4313389
1.4679201 -0.43720299 1.435974
1.47523 -0.451841 1.4231349
1.4768 -0.44407901 1.425432
1.4825 -0.43730801 1.424136
1.46655 -0.44457099 1.419592
1.48868 -0.44977799 1.4145
1.5038699 -0.44702202 1.4091569
1.4902099 -0.44751203 1.406808
1.51195 -0.44947103 1.3989559
1.4994999 -0.431979 1.4051999
1.50104 -0.45209098 1.395063
1.5108399 -0.44809201 1.391856
1.51745 -0.44217998 1.39156
1.50494 -0.45356601 1.3858819
1.51679 -0.450883 1.382453
1.5261799 -0.44572899 1.3798459
1.50623 -0.45416301 1.3771499
1.5189799 -0.45141202 1.373225
1.53369 -0.44776797 1.368691
1.4627099 -0.490913 1.365957
1.45819 -0.47529098 1.37032
1.46364 -0.45091599 1.373891
1.5052 -0.45574 1.367843
1.52176 -0.45271 1.3637379
1.53886 -0.44890499 1.3592889
1.53636 -0.43675098 1.3632879
1.47043 -0.496997 1.356944
1.4652901 -0.48172501 1.3619739
1.47563 -0.47177899 1.3613651
1.48369 -0.45929402 1.363565
1.5065401 -0.45837399 1.358656
1.5332899 -0.45947301 1.3513401
1.5506799 -0.45528197 1.3470039
1.5505999 -0.444161 1.3513629
1.4525501 -0.49509299 1.3548748
1.46473 -0.49247897 1.3528571
1.46771 -0.48053798 1.354985
1.4775599 -0.47231999 1.3526999
1.4879299 -0.462524 1.3546449
1.51223 -0.4621 1.348223
1.54355 -0.46478999 1.3396919
1.56318 -0.46188802 1.3343281
1.5586901 -0.448351 1.3403518
1.46943 -0.49534699 1.343775
1.47209 -0.48410198 1.3448979
1.48092 -0.47470403 1.3432621
1.49043 -0.46442002 1.3441761
1.5137601 -0.46389598 1.3397321
1.5650799 -0.47342098 1.3248929
1.57621 -0.46952701 1.321749
1.5630299 -0.450647 1.3310879
1.46641 -0.490778 1.3362079
1.47343 -0.48183101 1.336176
1.4792999 -0.46980399 1.3373278
1.48546 -0.46091402 1.3380829
1.50692 -0.463597 1.3322181
1.5791 -0.48171398 1.311409
1.58623 -0.47764301 1.3082958
1.55942 -0.44820598 1.326317
1.47063 -0.492948 1.325302
1.47394 -0.48436099 1.327921
1.4805599 -0.473923 1.327654
1.48702 -0.46243599 1.329879
1.5068699 -0.464003 1.32258
1.5881701 -0.48793203 1.2991669
1.60587 -0.49028599 1.2920239
1.47471 -0.49476299 1.3151441
1.4721 -0.48238602 1.32067
1.48341 -0.47566798 1.317835
1.49164 -0.46562698 1.318821
1.5095799 -0.46470201 1.312865
1.5920799 -0.48991403 1.2889009
1.60683 -0.49045503 1.2828009
1.47334 -0.49403098 1.306954
1.4792 -0.48515701 1.309086
1.48786 -0.47416401 1.30948
1.4980299 -0.46694499 1.3088778
1.5138699 -0.46672699 1.3030179
1.5943201 -0.49086601 1.279231
1.61202 -0.49357399 1.2721039
1.47765 -0.49730203 1.2977629
1.48061 -0.48738497 1.298732
1.4851601 -0.47423401 1.301718
1.4947 -0.46535099 1.302214
1.5155499 -0.46777999 1.2939219
1.60093 -0.49495399 1.268791
1.60668 -0.489647 1.26767
1.4744099 -0.493772 1.291919
1.48018 -0.48569098 1.2902899
1.48712 -0.47619399 1.2919339
1.49435 -0.46562302 1.2936959
1.51657 -0.46725699 1.2848529
1.5994099 -0.49405801 1.2632109
1.4728301 -0.49021703 1.2848458
1.48701 -0.488177 1.2801219
1.4890801 -0.477718 1.2830409
1.4987199 -0.46798697 1.2828349
1.5270101 -0.47041699 1.272025
1.5550301 -0.47569999 1.262285
1.4704499 -0.47529599 1.2806889
1.4908299 -0.47521302 1.274994
1.5072099 -0.46988299 1.2715
1.5265 -0.46909302 1.264982
1.5447999 -0.4693 1.2598799
1.4837601 -0.46956599 1.269063
1.50948 -0.47155201 1.2621469
1.53123 -0.471223 1.2563219
1.52134 -0.455208 1.2624539
1.48051 -0.46659699 1.261631
1.50506 -0.47153801 1.25401
1.5199001 -0.46711701 1.2525549
1.4905 -0.47275501 1.2487019
1.5041499 -0.47118899 1.245567
1.4878399 -0.48172799 1.237857
1.4978999 -0.47800899 1.237411
1.50454 -0.47307202 1.235191
1.49731 -0.48888803 1.224498
1.4956599 -0.47757998 1.22981
1.5084399 -0.47617501 1.2244029
1.4956501 -0.48845401 1.216131
1.50134 -0.48146999 1.2185069
1.50879 -0.475979 1.2155299
1.50088 -0.49291402 1.204453
1.50314 -0.48259899 1.2087649
1.50901 -0.475694 1.206697
1.47329 -0.48556098 1.2076139
1.50015 -0.49363399 1.195639
1.5055499 -0.484402 1.1986459
1.5123301 -0.477391 1.196381
1.5812601 -0.44598401 1.1786879
1.49701 -0.51862401 1.178654
1.49783 -0.505889 1.183461
1.5015199 -0.494275 1.1865729
1.5041499 -0.48306802 1.190661
1.51474 -0.47850102 1.1864259
1.5828 -0.44532299 1.1724689
1.59426 -0.44328099 1.1689509
1.5072 -0.52770597 1.165665
1.50043 -0.51031202 1.173696
1.5023199 -0.496095 1.1777569
1.50845 -0.48544398 1.1800239
1.5172501 -0.47967702 1.1763639
1.5804 -0.44305697 1.166103
1.59137 -0.441046 1.1631399
1.5104699 -0.53064203 1.154933
1.50244 -0.51346296 1.16431
1.5091701 -0.50206101 1.1647259
1.50963 -0.48623401 1.170251
1.5235001 -0.48289397 1.164449
1.5758799 -0.43858102 1.158788
1.58612 -0.43524897 1.1572529
1.48812 -0.52597803 1.155075
1.5105901 -0.53046697 1.1465579
1.50468 -0.51258302 1.154837
1.50515 -0.49742001 1.158555
1.51377 -0.48802298 1.158239
1.5207801 -0.48042402 1.157939
1.56144 -0.430006 1.156682
1.57231 -0.42659801 1.155391
1.57249 -0.41348702 1.157023
1.5127499 -0.53132701 1.137596
1.5058501 -0.51411998 1.144748
1.5065401 -0.497183 1.1494589
1.51065 -0.48436099 1.150625
1.5144099 -0.47589803 1.153324
1.55653 -0.426759 1.151271
1.55664 -0.41595 1.154304
1.5580601 -0.40123999 1.1563259
1.5140401 -0.529719 1.128932
1.5042999 -0.51309401 1.137238
1.5111001 -0.50288397 1.137046
1.5137801 -0.48769102 1.139408
1.5139101 -0.47541001 1.144176
1.5497 -0.42195401 1.1464059
1.54819 -0.40841597 1.1491389
1.55202 -0.39535901 1.151992
1.5041701 -0.50818503 1.129127
1.50792 -0.495617 1.130923
1.51088 -0.48393101 1.132919
1.5173 -0.47530299 1.1322179
1.5433 -0.41867 1.138464
1.54453 -0.39254501 1.146127
1.50903 -0.50953096 1.116171
1.5095199 -0.49764597 1.1208249
1.51573 -0.48658401 1.1226189
1.52399 -0.47640097 1.1197879
1.52179 -0.460592 1.1247729
1.54553 -0.43597001 1.1224409
1.5522 -0.42504299 1.124498
1.5054699 -0.49589297 1.1136179
1.5127499 -0.48497599 1.114192
1.51925 -0.47187999 1.1136279
1.55812 -0.432423 1.1111729
1.4600301 -0.47740501 1.114207
1.4642501 -0.46784499 1.115765
1.48211 -0.465103 1.112661
1.40891 -0.466791 1.125441
1.42391 -0.46592498 1.121761
1.43707 -0.46256 1.119348
1.44464 -0.45626998 1.117847
1.4126101 -0.45854101 1.1214299
1.4343201 -0.46175203 1.11334
1.4457401 -0.45612702 1.1104649
1.4836099 -0.45210603 1.5296069
1.4628 -0.45111802 1.523421
1.48243 -0.454521 1.5199009
1.55188 -0.45215902 1.502005
1.46435 -0.45057201 1.512939
1.5010099 -0.451334 1.505517
1.53657 -0.455915 1.498564
1.5538601 -0.461189 1.4960819
1.47043 -0.44814602 1.5023841
1.4805299 -0.45595601 1.5006529
1.5293201 -0.45667598 1.4920099
1.5347501 -0.46710801 1.491879
1.46781 -0.45016602 1.4937061
1.5017301 -0.452196 1.4867539
1.5282401 -0.458143 1.4836789
1.5328701 -0.46813598 1.4817539
1.47789 -0.44781503 1.4808389
1.49726 -0.45379201 1.478284
1.52273 -0.459241 1.4747699
1.54173 -0.46565899 1.470261
1.4497399 -0.430222 1.4712799
1.46056 -0.446702 1.4716859
1.4960699 -0.45383301 1.469097
1.52654 -0.45993599 1.464082
1.5476401 -0.46408403 1.46055
1.44739 -0.43332499 1.464643
1.4609801 -0.445025 1.4622689
1.47855 -0.45442402 1.4613609
1.52606 -0.45790198 1.4546829
1.54045 -0.466023 1.4522369
1.4500101 -0.43409598 1.454363
1.4639 -0.44808799 1.4537839
1.48817 -0.45612299 1.451723
1.52759 -0.45841703 1.444682
1.5444 -0.46860901 1.440379
1.4291999 -0.43970001 1.4490019
1.45016 -0.45040199 1.4470199
1.48153 -0.45588797 1.444338
1.5409801 -0.460271 1.432583
1.5455099 -0.471183 1.4323449
1.55296 -0.48264399 1.4304969
1.5492799 -0.49744099 1.4315089
1.4275999 -0.457068 1.443666
1.4573399 -0.46014598 1.4405289
1.54362 -0.45972499 1.4219209
1.54802 -0.47195399 1.4232469
1.5500901 -0.48655498 1.4231089
1.55484 -0.496059 1.4239169
1.53624 -0.46180099 1.4141159
1.54951 -0.46916902 1.41256
1.5539501 -0.483248 1.4135499
1.5506799 -0.49791899 1.4160669
1.53563 -0.46253398 1.4051809
1.55854 -0.46568501 1.402244
1.5530701 -0.48185501 1.403941
1.5550901 -0.49580503 1.4048109
1.54143 -0.46033299 1.3953149
1.54602 -0.47147998 1.3948649
1.55147 -0.48627999 1.395103
1.55724 -0.49657199 1.395233
1.5344501 -0.46261299 1.387677
1.5583701 -0.465536 1.38282
1.55638 -0.48188701 1.3839411
1.5588901 -0.495076 1.3860879
1.5401 -0.461431 1.377247
1.5577 -0.46851501 1.373608
1.55681 -0.483078 1.375065
1.5623399 -0.49300498 1.375317
1.54004 -0.462742 1.366686
1.5624001 -0.46742901 1.363417
1.55756 -0.48372599 1.3663449
1.5652601 -0.49289 1.3659059
1.53767 -0.463339 1.357994
1.56227 -0.46611199 1.354861
1.55721 -0.48281899 1.3565379
1.56344 -0.49348399 1.357752
1.5595599 -0.46772 1.346952
1.56308 -0.48019502 1.34583
1.5584599 -0.49451101 1.3488919
1.55951 -0.47073799 1.3366259
1.56301 -0.48185799 1.3359959
1.56095 -0.49376598 1.338649
1.5733 -0.46554798 1.325721
1.56815 -0.47902501 1.326664
1.57082 -0.490143 1.3270841
1.57239 -0.46666402 1.3164259
1.5690199 -0.480537 1.317543
1.5649699 -0.49377301 1.3187979
1.57678 -0.46482602 1.3065549
1.57307 -0.47799599 1.3070389
1.57222 -0.49063098 1.3090421
1.5739999 -0.466095 1.297675
1.57441 -0.47773302 1.297856
1.57704 -0.48963502 1.2975988
1.5735401 -0.466553 1.288595
1.5751899 -0.47858602 1.2886
1.57867 -0.49304798 1.287912
1.5673399 -0.509287 1.2901261
1.5740499 -0.46639302 1.279284
1.5735 -0.478899 1.2796019
1.5768499 -0.49342 1.279084
1.57459 -0.50921798 1.280443
1.58433 -0.462466 1.2691159
1.5743899 -0.478964 1.270229
1.5780499 -0.494322 1.269609
1.57807 -0.50971103 1.2708
1.55753 -0.53101897 1.27324
1.5786799 -0.46521702 1.260324
1.57367 -0.47879398 1.261374
1.58012 -0.49069199 1.261084
1.5795101 -0.50866801 1.2614819
1.5808799 -0.52412397 1.2612339
1.5891299 -0.460244 1.249355
1.5802499 -0.47714803 1.251949
1.5810699 -0.494519 1.252038
1.57715 -0.514485 1.2524209
1.57552 -0.530586 1.2524449
1.5666001 -0.54518801 1.254328
1.5986099 -0.455452 1.240419
1.58764 -0.471185 1.2416849
1.58675 -0.48732498 1.2422119
1.5847701 -0.50677103 1.242579
1.58059 -0.52716601 1.242987
1.56419 -0.54718298 1.246384
1.59509 -0.45767897 1.232715
1.5866901 -0.473997 1.2327089
1.58067 -0.49306703 1.233454
1.58487 -0.51000804 1.232653
1.58064 -0.52879798 1.233562
1.57447 -0.54316896 1.2365539
1.5905 -0.46106097 1.22297
1.58152 -0.47877702 1.2240529
1.5798399 -0.49568599 1.2248889
1.5886501 -0.50687301 1.223087
1.5865101 -0.524508 1.223827
1.5799099 -0.54065603 1.22655
1.59996 -0.45685399 1.212018
1.58393 -0.47503898 1.215145
1.5845 -0.49225399 1.214914
1.58832 -0.51007301 1.2148479
1.5975701 -0.52104998 1.2145889
1.58059 -0.54009497 1.216215
1.6026601 -0.45494998 1.202531
1.5834301 -0.47618198 1.2054219
1.5908799 -0.49045199 1.2047269
1.58459 -0.50861597 1.2069169
1.5936 -0.52255702 1.205891
1.5827699 -0.54096103 1.206728
1.5988001 -0.45552799 1.1948919
1.5962199 -0.46847001 1.195164
1.59401 -0.48673803 1.1951939
1.5886199 -0.50761902 1.197616
1.59807 -0.52152699 1.1950619
1.58302 -0.54217499 1.1971049
1.5985299 -0.45658502 1.187084
1.59466 -0.47154301 1.1857229
1.5913901 -0.48888001 1.186422
1.5953599 -0.50498199 1.1866369
1.60037 -0.52205002 1.1862019
1.5994501 -0.53608102 1.187899
1.6105701 -0.544761 1.1866119
1.6592599 -0.54197699 1.180079
1.5969701 -0.45809898 1.1778519
1.5934501 -0.47138599 1.176365
1.59463 -0.48790002 1.177247
1.608 -0.499558 1.1770231
1.6081901 -0.51638198 1.177019
1.60675 -0.53454399 1.17923
1.6384801 -0.53731298 1.176055
1.65833 -0.54244399 1.173682
1.55538 -0.40333 1.1626079
1.58485 -0.46225497 1.167858
1.5920799 -0.47445801 1.167995
1.59544 -0.48833802 1.1684359
1.6056501 -0.50109404 1.1682439
1.6122 -0.51528597 1.168579
1.6207601 -0.52861398 1.169153
1.6458099 -0.53524601 1.1672159
1.6637199 -0.54007196 1.165314
1.55768 -0.40210497 1.156394
1.5574001 -0.41475898 1.1565169
1.5593201 -0.43008202 1.1560159
1.57778 -0.45985699 1.1581119
1.5915101 -0.47101602 1.1581709
1.5982201 -0.48726699 1.159596
1.61368 -0.49877101 1.158438
1.6119701 -0.51590598 1.1606709
1.62629 -0.52749801 1.15923
1.6534599 -0.532664 1.157867
1.66396 -0.540079 1.15685
1.5615699 -0.41163799 1.1500989
1.5669 -0.42562401 1.1489549
1.56565 -0.44530299 1.150207
1.58182 -0.45688301 1.149608
1.58875 -0.47150099 1.1482999
1.60028 -0.48302701 1.150412
1.60501 -0.49852902 1.150264
1.62129 -0.51131099 1.1503659
1.62894 -0.52772897 1.1493069
1.65245 -0.53348702 1.1499389
1.6382099 -0.55047601 1.149977
1.56476 -0.410768 1.141142
1.55156 -0.43114603 1.1401279
1.5690401 -0.44327998 1.1414429
1.59338 -0.452874 1.140233
1.6044201 -0.46523398 1.1390649
1.6039701 -0.48371899 1.1405489
1.61366 -0.49882802 1.1415199
1.6215301 -0.51341701 1.140201
1.6342399 -0.52398401 1.1405289
1.63842 -0.535941 1.1412619
1.55242 -0.417505 1.132365
1.55075 -0.43526402 1.1315269
1.57732 -0.44401601 1.1324919
1.5990199 -0.452658 1.130674
1.59627 -0.472056 1.1314189
1.60111 -0.48586398 1.1319679
1.6114 -0.49861598 1.13175
1.6292999 -0.50852603 1.1315449
1.62648 -0.52546799 1.1321859
1.62357 -0.540317 1.130706
1.52525 -0.42877498 1.125198
1.5268201 -0.43970299 1.1245669
1.57893 -0.444765 1.1232089
1.60653 -0.44829601 1.122142
1.6021 -0.466479 1.121755
1.6042199 -0.484108 1.123793
1.61287 -0.49662998 1.122273
1.62243 -0.51052201 1.123093
1.6259599 -0.52689099 1.122259
1.6099299 -0.54741198 1.1214529
1.50104 -0.44791198 1.118953
1.58132 -0.445654 1.1141139
1.60308 -0.44983399 1.113865
1.60303 -0.46610299 1.111822
1.61149 -0.48148799 1.1139179
1.6214 -0.49597698 1.1142759
1.62263 -0.51336598 1.1128509
1.61994 -0.53193998 1.113432
1.60233 -0.55140901 1.113794
1.49263 -0.54249698 1.496398
1.51394 -0.52451801 1.484576
1.49371 -0.54153705 1.490358
1.5394901 -0.50475103 1.470336
1.5185699 -0.52270001 1.4758029
1.5064101 -0.537673 1.4805828
1.44478 -0.433862 1.4704801
1.5473801 -0.49961898 1.459519
1.53194 -0.51753104 1.4644721
1.521 -0.533508 1.4678049
1.44567 -0.43656299 1.463116
1.47753 -0.44166303 1.457639
1.5459199 -0.496124 1.4494159
1.5408701 -0.51356703 1.4532309
1.5259801 -0.53330201 1.457568
1.5019001 -0.55342501 1.4628129
1.44324 -0.43892503 1.4550118
1.46324 -0.44841 1.4527709
1.49957 -0.45238799 1.4465979
1.5597301 -0.47411999 1.4372989
1.5505 -0.49182099 1.4399229
1.55214 -0.50775701 1.441254
1.53039 -0.53128701 1.44733
1.5058701 -0.55247301 1.4535719
1.43668 -0.43668598 1.44889
1.46076 -0.44916698 1.445313
1.49234 -0.455984 1.440704
1.5211799 -0.46573299 1.4354609
1.54843 -0.47709998 1.430786
1.54834 -0.49552 1.432526
1.54593 -0.51105601 1.434083
1.5409399 -0.52618903 1.436059
1.5185499 -0.54716301 1.4420249
1.43299 -0.452793 1.4437339
1.49977 -0.458112 1.4312351
1.5297501 -0.46601 1.424417
1.5516299 -0.47492298 1.4215289
1.5507201 -0.49193501 1.422209
1.5517501 -0.50957799 1.4246659
1.53 -0.53079301 1.4300569
1.5067799 -0.45959201 1.419819
1.53089 -0.465159 1.4144609
1.5475 -0.476578 1.4130169
1.54916 -0.49356997 1.4129759
1.55248 -0.50752103 1.4143199
1.5383501 -0.52595001 1.419113
1.50024 -0.46227902 1.410228
1.54313 -0.46529597 1.403839
1.55442 -0.47619998 1.402679
1.54547 -0.49260399 1.405881
1.5526401 -0.506365 1.4044589
1.5444901 -0.52214003 1.4082969
1.50384 -0.46256101 1.40022
1.5326101 -0.46620098 1.396408
1.5518401 -0.475734 1.394542
1.54957 -0.49236697 1.396688
1.55511 -0.50594598 1.39402
1.54699 -0.52108598 1.3978549
1.5247799 -0.469001 1.388118
1.54787 -0.47591498 1.385868
1.5525999 -0.49129701 1.387154
1.5566499 -0.504758 1.3849549
1.55014 -0.52030897 1.386511
1.5237601 -0.470891 1.378866
1.54822 -0.47632998 1.375683
1.5532601 -0.491083 1.377792
1.55785 -0.506396 1.3761259
1.5455 -0.52568901 1.3766018
1.5272099 -0.47093102 1.368974
1.55198 -0.4765 1.365379
1.5564599 -0.49163601 1.3672119
1.5524499 -0.51158798 1.367545
1.54291 -0.52929902 1.368595
1.5350599 -0.54258901 1.370811
1.5127001 -0.47464901 1.3634059
1.5443201 -0.47712699 1.3586639
1.55985 -0.48851201 1.356185
1.5638901 -0.503766 1.3576801
1.5586799 -0.522412 1.357829
1.53588 -0.54280102 1.3629348
1.51888 -0.471991 1.356306
1.55959 -0.47710401 1.347005
1.5625 -0.48940399 1.347106
1.56327 -0.504435 1.3476139
1.5532899 -0.52479398 1.348925
1.54703 -0.53928602 1.352131
1.57103 -0.47489399 1.336587
1.56473 -0.489719 1.337814
1.5686799 -0.50258803 1.338063
1.5709801 -0.516011 1.3381119
1.54427 -0.54168302 1.3422149
1.56451 -0.477065 1.327926
1.5714 -0.48795101 1.32716
1.5640301 -0.505647 1.329999
1.5629801 -0.52224398 1.330394
1.55028 -0.53903401 1.3324859
1.5615801 -0.47720101 1.319562
1.56883 -0.48692599 1.318504
1.5734199 -0.50006503 1.3200279
1.57233 -0.515746 1.32039
1.55935 -0.53376502 1.322847
1.5590401 -0.47840199 1.311149
1.5737399 -0.48596698 1.3082719
1.56933 -0.50193298 1.311761
1.5731701 -0.51513302 1.310726
1.5612301 -0.478064 1.30124
1.57341 -0.485596 1.300217
1.57407 -0.500103 1.3010789
1.57827 -0.51471198 1.2987689
1.5594701 -0.47819 1.292432
1.57183 -0.48651001 1.292001
1.5757 -0.50217497 1.29064
1.57689 -0.51693201 1.2904489
1.5659801 -0.53165001 1.292406
1.56407 -0.47742099 1.2827491
1.57179 -0.48889899 1.2824899
1.57709 -0.50113797 1.282082
1.5777299 -0.515028 1.282359
1.5723399 -0.530352 1.283373
1.56319 -0.47671399 1.2728649
1.56461 -0.48831502 1.2746329
1.57813 -0.50012201 1.273054
1.57392 -0.51923001 1.274045
1.57473 -0.530994 1.27463
1.5556901 -0.47886002 1.265381
1.57042 -0.48604 1.26476
1.57882 -0.49888599 1.2628639
1.58346 -0.51420504 1.263387
1.5764199 -0.529805 1.266221
1.56226 -0.477752 1.2566581
1.57638 -0.486393 1.254084
1.58246 -0.50143504 1.2541649
1.58398 -0.515481 1.2542759
1.58646 -0.52543998 1.256025
1.56769 -0.47632802 1.246244
1.5770301 -0.484799 1.2454019
1.5821099 -0.49831298 1.2449039
1.5881101 -0.51243699 1.246202
1.59073 -0.52415597 1.245954
1.5643899 -0.47641301 1.2377629
1.5774001 -0.48424301 1.236902
1.5797 -0.49954602 1.235194
1.5881599 -0.51278299 1.2369239
1.5950799 -0.52309102 1.236467
1.5703599 -0.47500899 1.2291199
1.57663 -0.48582801 1.227073
1.5890601 -0.49620497 1.2266389
1.58716 -0.51111799 1.227319
1.5882699 -0.52501899 1.227707
1.70016 -0.56012899 1.2177989
1.7059 -0.568138 1.21803
1.5730499 -0.47404 1.219342
1.58055 -0.48278999 1.2176019
1.58587 -0.49689499 1.2185979
1.58942 -0.51313996 1.217611
1.58692 -0.52677 1.218326
1.7068 -0.55659902 1.210879
1.6987399 -0.56902301 1.212204
1.57929 -0.470873 1.2084019
1.5864 -0.48300701 1.209638
1.59121 -0.49787101 1.2085479
1.59949 -0.51033902 1.2082649
1.5919 -0.52635801 1.2084869
1.68424 -0.55431497 1.2048579
1.70044 -0.55754799 1.20444
1.7011501 -0.566688 1.204963
1.57865 -0.45775002 1.199181
1.5984399 -0.46214297 1.1975139
1.58929 -0.48138002 1.2002469
1.59475 -0.49536401 1.1999329
1.5952001 -0.511208 1.199726
1.59709 -0.52718604 1.199203
1.5973599 -0.53833097 1.1998979
1.68964 -0.550349 1.1963339
1.7021099 -0.55573702 1.1970611
1.59286 -0.45189098 1.189919
1.60291 -0.45932099 1.189502
1.58857 -0.47784501 1.1907769
1.5969599 -0.49347001 1.191293
1.60567 -0.50673002 1.189936
1.60647 -0.52201802 1.1906029
1.60955 -0.53634202 1.190348
1.65151 -0.53999299 1.1863049
1.68125 -0.54744303 1.186294
1.6950901 -0.55515802 1.188665
1.58936 -0.45239201 1.181464
1.60006 -0.46129599 1.181149
1.58912 -0.48188099 1.1821489
1.59992 -0.495974 1.1817759
1.6075301 -0.50906897 1.182279
1.6059899 -0.524553 1.1821649
1.6165401 -0.53633398 1.1812379
1.6661999 -0.53981602 1.178386
1.6803999 -0.54731899 1.179397
1.68628 -0.55533797 1.1805609
1.59253 -0.45122001 1.1720569
1.6069701 -0.459528 1.1714619
1.58613 -0.47966498 1.173741
1.59657 -0.49262601 1.173118
1.60577 -0.50858897 1.173015
1.60741 -0.526057 1.173788
1.62688 -0.53573698 1.171559
1.6623801 -0.53894001 1.170507
1.6759 -0.547023 1.1725719
1.5827099 -0.45151001 1.16188
1.60421 -0.458619 1.16371
1.59237 -0.47863603 1.164238
1.60101 -0.49356997 1.1646049
1.60651 -0.50623298 1.163288
1.61552 -0.52058899 1.164058
1.6233299 -0.53378397 1.162674
1.6537601 -0.53788102 1.1624069
1.6696899 -0.54522699 1.163509
1.54564 -0.391325 1.155273
1.5519501 -0.406304 1.154106
1.56085 -0.42170799 1.1534539
1.5652299 -0.43845502 1.1532379
1.58155 -0.45063901 1.1535709
1.5971401 -0.46206102 1.1549979
1.59132 -0.479637 1.155449
1.59946 -0.49275798 1.155741
1.61364 -0.50523102 1.1548419
1.624 -0.518426 1.154447
1.6360899 -0.530442 1.154128
1.65204 -0.53786498 1.154128
1.55696 -0.40461102 1.145636
1.55731 -0.42232701 1.147099
1.56727 -0.436342 1.14499
1.5717999 -0.45060799 1.146371
1.59526 -0.46052101 1.1454159
1.5945599 -0.47913799 1.1470399
1.6074001 -0.49234 1.147051
1.6146201 -0.505588 1.1458839
1.62735 -0.518233 1.145594
1.63712 -0.52991098 1.1455699
1.62354 -0.54629499 1.1459039
1.55875 -0.42169702 1.138201
1.55187 -0.44127399 1.1360459
1.5776199 -0.45091203 1.1372941
1.60594 -0.45942101 1.136091
1.5954601 -0.476652 1.1379849
1.6067599 -0.49068999 1.138008
1.6183 -0.50574404 1.136382
1.6264701 -0.51992804 1.137632
1.6366701 -0.52966601 1.1369179
1.6062 -0.55526102 1.132991
1.54185 -0.42708802 1.128786
1.5423199 -0.44451499 1.1279249
1.56784 -0.45265999 1.128464
1.60035 -0.45980999 1.1281799
1.60523 -0.475532 1.1288919
1.61312 -0.490704 1.1287689
1.61599 -0.50536096 1.126511
1.62477 -0.52028102 1.1285249
1.6201401 -0.53757799 1.1278399
1.6048199 -0.55459899 1.1273979
1.5160699 -0.435038 1.122491
1.52596 -0.44723201 1.1220239
1.5473199 -0.45432702 1.12191
1.6029601 -0.45878398 1.119959
1.60329 -0.47341597 1.119517
1.6107299 -0.48889598 1.119648
1.61831 -0.50362599 1.117376
1.6198399 -0.51965302 1.1191869
1.6273199 -0.53203601 1.1205269
1.6082001 -0.55127996 1.121002
1.5449001 -0.45358798 1.1161669
1.60137 -0.47755298 1.111419
1.61766 -0.48781502 1.1100889
1.62186 -0.517537 1.1107179
1.62358 -0.531196 1.111541
1.5391201 -0.478158 1.526585
1.5343699 -0.49155602 1.5279469
1.53291 -0.480207 1.518718
1.53439 -0.49282002 1.518273
1.51574 -0.51092499 1.524218
1.5040801 -0.52598304 1.528983
1.54612 -0.475577 1.5067859
1.53859 -0.489512 1.5080949
1.52371 -0.509067 1.5127759
1.5011001 -0.52743602 1.5197541
1.5429699 -0.47518003 1.497738
1.54054 -0.48832199 1.498158
1.52916 -0.50728804 1.501509
1.5122399 -0.52532202 1.5072639
1.5578101 -0.458942 1.4843469
1.5427001 -0.47540501 1.4885859
1.5364 -0.492919 1.490479
1.5293201 -0.50948697 1.492442
1.51272 -0.52551997 1.4982669
1.4913601 -0.54280603 1.5045799
1.5301801 -0.46342602 1.4815179
1.5533501 -0.46904001 1.477321
1.5440601 -0.487468 1.4792858
1.5314599 -0.50718498 1.483171
1.52353 -0.522147 1.486335
1.54093 -0.46069402 1.4709659
1.5489999 -0.47187698 1.4682959
1.54399 -0.48943198 1.4698629
1.53994 -0.50396001 1.472811
1.52455 -0.52253199 1.4753098
1.5323501 -0.461068 1.461489
1.5544701 -0.46922299 1.4585761
1.5510001 -0.48526502 1.45943
1.53597 -0.50735599 1.4641299
1.52548 -0.52567405 1.4655319
1.51091 -0.54010099 1.4693719
1.50497 -0.45077598 1.455538
1.5177799 -0.46035197 1.454584
1.5485201 -0.469044 1.4508499
1.54922 -0.48623601 1.4498121
1.5428799 -0.50338799 1.453748
1.5451 -0.5194 1.4531839
1.52368 -0.537386 1.4589109
1.4785899 -0.44094002 1.45021
1.4942501 -0.45203498 1.450295
1.5244 -0.459169 1.4455119
1.54458 -0.471192 1.4417819
1.5505 -0.486577 1.4400389
1.54685 -0.504614 1.44344
1.5435699 -0.52083999 1.4442199
1.5388401 -0.53300303 1.4471579
1.4521899 -0.42654201 1.4466209
1.4668 -0.44083899 1.4442679
1.4968699 -0.450564 1.4413639
1.5296299 -0.45923099 1.435325
1.5500101 -0.47185501 1.4313459
1.5569999 -0.48502102 1.431102
1.5486599 -0.50201803 1.4332058
1.54597 -0.51778597 1.4358479
1.54004 -0.53132999 1.4378791
1.4438001 -0.43920398 1.4424679
1.50349 -0.451902 1.43054
1.53661 -0.459892 1.424773
1.55848 -0.46990699 1.420844
1.55197 -0.48741999 1.423712
1.54897 -0.50301898 1.424791
1.5464 -0.51717603 1.4265109
1.51191 -0.54297698 1.427114
1.5011799 -0.45447299 1.4214139
1.52511 -0.46074599 1.4178169
1.5576601 -0.466939 1.413219
1.55484 -0.484633 1.4130828
1.55084 -0.50415403 1.415777
1.5306799 -0.52575099 1.4185359
1.51773 -0.54087299 1.4202659
1.5303 -0.46088099 1.4088041
1.55547 -0.468759 1.4041198
1.5586901 -0.48457298 1.4029419
1.5528301 -0.50176501 1.405311
1.53908 -0.521469 1.408519
1.5182201 -0.53995496 1.413147
1.53662 -0.46333998 1.3989559
1.5676199 -0.46706799 1.39349
1.5595599 -0.48179999 1.394791
1.55922 -0.49757302 1.3952609
1.55112 -0.51565301 1.396958
1.52705 -0.53619897 1.4013519
1.56591 -0.470424 1.3853439
1.56006 -0.48524201 1.386813
1.55681 -0.50155997 1.386788
1.5441999 -0.52110803 1.3884399
1.52385 -0.53835499 1.392651
1.57248 -0.470043 1.3735629
1.55873 -0.48662102 1.3775369
1.55013 -0.50633502 1.378323
1.54862 -0.52097201 1.3786969
1.53773 -0.53473496 1.382268
1.56796 -0.471183 1.3649288
1.5748301 -0.48013601 1.366158
1.5597301 -0.499282 1.3675439
1.55478 -0.51744801 1.369229
1.5424 -0.53278196 1.3728299
1.56253 -0.47319901 1.356606
1.5683399 -0.48259202 1.358438
1.5615 -0.49871102 1.3579359
1.5619 -0.51404899 1.358399
1.54787 -0.53034097 1.3626571
1.5721201 -0.46981299 1.3462439
1.5671099 -0.48401797 1.348819
1.5607899 -0.50272101 1.3496739
1.56391 -0.51544303 1.3498371
1.55182 -0.52960896 1.3519679
1.57972 -0.46734798 1.3371891
1.57224 -0.48043498 1.338617
1.5667 -0.498467 1.3393739
1.5598199 -0.51680696 1.3420199
1.5556599 -0.52948797 1.342767
1.5756799 -0.46978402 1.328939
1.5650301 -0.48575199 1.3305299
1.56718 -0.50016803 1.330096
1.56743 -0.51350302 1.331485
1.5520799 -0.53010297 1.334798
1.5710601 -0.47032902 1.3194721
1.57259 -0.48213902 1.320739
1.5686001 -0.49833 1.321889
1.56726 -0.51273704 1.323002
1.55941 -0.527152 1.3239388
1.58547 -0.46641499 1.3096299
1.5718499 -0.481498 1.311293
1.57585 -0.49459702 1.3128119
1.56778 -0.51336598 1.3135761
1.5559801 -0.528988 1.315259
1.58281 -0.46808499 1.301126
1.5736099 -0.482667 1.302192
1.57054 -0.498467 1.304058
1.57023 -0.51422501 1.3035871
1.5658901 -0.52656698 1.3059649
1.5916901 -0.465864 1.290493
1.5790499 -0.48048401 1.293475
1.57436 -0.49528801 1.295215
1.57582 -0.51047301 1.294023
1.57054 -0.52497399 1.296124
1.59315 -0.46425202 1.2815
1.58349 -0.47856399 1.2840531
1.5749 -0.495516 1.2867141
1.57953 -0.50902903 1.284373
1.5852001 -0.52180403 1.283834
1.59293 -0.463992 1.273712
1.58543 -0.476832 1.274915
1.5829899 -0.493319 1.2762771
1.5829101 -0.51077002 1.2755311
1.5756799 -0.52796102 1.27537
1.5706 -0.53953803 1.277276
1.59061 -0.46549702 1.2653729
1.5858001 -0.48011002 1.266333
1.57978 -0.49787 1.2672949
1.57796 -0.51494002 1.2670389
1.5803701 -0.52829802 1.2667559
1.57021 -0.54132497 1.2695349
1.58882 -0.46576199 1.2566249
1.5882801 -0.47759497 1.256675
1.58436 -0.49261299 1.2587429
1.58836 -0.50699002 1.257946
1.58473 -0.52427799 1.257558
1.579 -0.53863901 1.2600451
1.5904601 -0.466102 1.2473849
1.58516 -0.47997397 1.24795
1.5882699 -0.49245098 1.2500091
1.58823 -0.509036 1.248945
1.5852699 -0.52481699 1.2483439
1.5809801 -0.53800601 1.249853
1.59437 -0.46510601 1.237453
1.58407 -0.47931901 1.239691
1.5863299 -0.49479198 1.240624
1.58518 -0.51277196 1.2402669
1.5850999 -0.52717602 1.2405289
1.5814199 -0.53908002 1.2410029
1.6849899 -0.56804103 1.23286
1.69302 -0.58520103 1.2342499
1.59893 -0.46376801 1.2280869
1.58797 -0.47792 1.230547
1.5872999 -0.49173599 1.2319289
1.5884801 -0.50829798 1.230914
1.58912 -0.52372801 1.2320889
1.5864501 -0.53693998 1.231907
1.7034801 -0.56205797 1.225155
1.71077 -0.56839699 1.2244929
1.6065601 -0.46086702 1.219106
1.5922301 -0.476199 1.2213049
1.5903 -0.492724 1.2225909
1.5964501 -0.50705099 1.221766
1.58995 -0.52363604 1.2224809
1.5869 -0.53685999 1.223184
1.70786 -0.55915499 1.215969
1.71535 -0.56546003 1.215899
1.6030099 -0.46115398 1.211964
1.59832 -0.47284099 1.212279
1.5883501 -0.490343 1.2133369
1.59539 -0.507195 1.212921
1.5921899 -0.52488899 1.21267
1.58742 -0.53768098 1.2148
1.70364 -0.55776399 1.206039
1.7145 -0.56439096 1.207816
1.60303 -0.462194 1.204196
1.59539 -0.47701302 1.2034669
1.58991 -0.49363899 1.205043
1.5989 -0.50559503 1.2033169
1.6004801 -0.52153301 1.2031399
1.59532 -0.536735 1.2045419
1.69112 -0.55083799 1.1993339
1.7027 -0.55616003 1.1983349
1.70506 -0.56502604 1.1990219
1.5983701 -0.46398103 1.1947209
1.59594 -0.47654998 1.1941789
1.59787 -0.49149299 1.195536
1.6014 -0.50748599 1.194844
1.5993299 -0.52347696 1.194424
1.6027499 -0.53568602 1.1951729
1.5818 -0.553038 1.196659
1.69268 -0.54984498 1.19213
1.70384 -0.55568802 1.191047
1.70004 -0.56638002 1.191515
1.6115601 -0.459544 1.1854349
1.6075799 -0.47125599 1.1855769
1.60095 -0.48708498 1.186277
1.5995799 -0.50364399 1.1865519
1.6060201 -0.51828998 1.1861739
1.6060899 -0.53363699 1.18646
1.6075799 -0.54618502 1.186379
1.6997399 -0.54589599 1.1827199
1.7054801 -0.55432701 1.1833839
1.6073599 -0.46124598 1.17659
1.60118 -0.47610801 1.177706
1.59737 -0.491745 1.178651
1.60263 -0.505777 1.177336
1.6033299 -0.52201098 1.178547
1.60952 -0.53480303 1.17757
1.63649 -0.54232603 1.1754119
1.67621 -0.54762 1.174153
1.68784 -0.55621898 1.174845
1.6135499 -0.45668098 1.1659039
1.60347 -0.47351798 1.1685419
1.5998399 -0.490233 1.170207
1.6063499 -0.50267899 1.168047
1.6107899 -0.518933 1.169091
1.62054 -0.53402799 1.167773
1.65027 -0.54221702 1.16757
1.6691201 -0.550017 1.167798
1.6655999 -0.56055802 1.1678439
1.5834 -0.44861197 1.1579549
1.61584 -0.454355 1.158813
1.60373 -0.470195 1.159848
1.60586 -0.486761 1.160324
1.61084 -0.50390899 1.159318
1.6174699 -0.51911998 1.160244
1.6218699 -0.53170502 1.158603
1.64108 -0.54099602 1.160221
1.64746 -0.553011 1.161364
1.5527699 -0.400929 1.1503969
1.5554401 -0.41812 1.150052
1.5735899 -0.43119597 1.1498899
1.57243 -0.446657 1.149469
1.6146201 -0.45541999 1.1523269
1.6048599 -0.47205502 1.151546
1.6110699 -0.48773301 1.150193
1.61529 -0.50215501 1.150754
1.6174699 -0.51688898 1.151271
1.62668 -0.52917498 1.1503
1.62071 -0.54460996 1.153026
1.5645399 -0.41535401 1.142975
1.56253 -0.43338403 1.1424379
1.5714 -0.447795 1.1414729
1.60401 -0.45670199 1.143597
1.60685 -0.47253102 1.1423839
1.6069299 -0.487351 1.141515
1.61735 -0.50162297 1.1419859
1.61643 -0.52003503 1.1426669
1.6339999 -0.52850497 1.143584
1.6082201 -0.54609102 1.1389929
1.56161 -0.41827402 1.1349959
1.55799 -0.43518102 1.133778
1.55941 -0.44702202 1.134039
1.60843 -0.45832101 1.1342369
1.60106 -0.47567201 1.1339229
1.60829 -0.48910099 1.1341369
1.61879 -0.500691 1.132162
1.62198 -0.51596099 1.1337249
1.62389 -0.53037202 1.1345119
1.61489 -0.543212 1.1329849
1.5509599 -0.42278302 1.1278239
1.53923 -0.43978402 1.124754
1.54765 -0.44796601 1.126529
1.61326 -0.45831403 1.125016
1.61101 -0.47019401 1.1251969
1.60877 -0.48684299 1.125262
1.6210999 -0.50044 1.1231669
1.6248599 -0.51348203 1.125293
1.6269901 -0.52691501 1.125966
1.5097799 -0.43639198 1.1178479
1.51414 -0.44547799 1.117937
1.54476 -0.44835603 1.1187099
1.61562 -0.45938599 1.116344
1.6075599 -0.473564 1.117353
1.61312 -0.48743999 1.1155469
1.62565 -0.50053602 1.114941
1.62529 -0.51492298 1.116658
1.63276 -0.524809 1.116828
1.48752 -0.45154598 1.112286
1.53386 -0.45131302 1.112548
1.5042701 -0.459185 1.52596
1.5217199 -0.47196701 1.520896
1.52687 -0.48685101 1.5221421
1.52239 -0.50189501 1.5247409
1.5253 -0.513708 1.5240539
1.48426 -0.451451 1.522126
1.5094299 -0.45956799 1.514728
1.53271 -0.471111 1.509948
1.5291001 -0.48670399 1.512242
1.5238099 -0.50307596 1.514989
1.5180299 -0.51611799 1.516354
1.48911 -0.45045799 1.5111619
1.50711 -0.45846099 1.505784
1.5279 -0.47014001 1.502043
1.5337501 -0.48430499 1.5028518
1.52808 -0.50116199 1.503778
1.5265801 -0.513978 1.506099
1.49634 -0.44901797 1.499313
1.51193 -0.45936799 1.4961029
1.53573 -0.47031897 1.4912959
1.53205 -0.48662201 1.4936759
1.52924 -0.50266701 1.4938941
1.52865 -0.51332802 1.496298
1.4884399 -0.44937402 1.4914349
