# .PCD v0.7 - Point Cloud Data file format
VERSION 0.7
FIELDS x y z
SIZE 4 4 4
TYPE F F F
COUNT 1 1 1
WIDTH 1536
HEIGHT 1
VIEWPOINT 0 0 0 1 0 0 0
POINTS 1536
DATA ascii
1.71106 -0.43323502 0.53912199
1.74238 -0.536107 0.52879596
1.7333 -0.52638602 0.52992797
1.72526 -0.51579702 0.53165495
1.7166001 -0.504381 0.53219694
1.7067701 -0.49161202 0.53369093
1.7040199 -0.47687697 0.53301096
1.69823 -0.465363 0.53408998
1.74483 -0.53303003 0.52060598
1.73971 -0.524297 0.52122897
1.72478 -0.51417601 0.52369595
1.71246 -0.501396 0.52486593
1.7052799 -0.48854402 0.52568597
1.70635 -0.47635102 0.52548295
1.6997701 -0.46530601 0.52681696
1.74643 -0.520895 0.51311696
1.7326699 -0.51257598 0.514467
1.71716 -0.50254399 0.51647997
1.7083 -0.49036098 0.51753497
1.7035401 -0.47677398 0.51881695
1.6983501 -0.46383598 0.51944596
1.73948 -0.50959897 0.50567096
1.71808 -0.50388801 0.50924093
1.7133501 -0.49228501 0.50917095
1.70112 -0.48079601 0.51083094
1.7013699 -0.46490699 0.51089495
1.73642 -0.50818402 0.49829698
1.71618 -0.50268602 0.50156194
1.7011501 -0.49222699 0.50301999
1.69876 -0.47821701 0.50335598
1.70481 -0.46189603 0.50152993
1.73061 -0.50778502 0.49178097
1.7040801 -0.502909 0.49459398
1.69741 -0.49034101 0.49596295
1.7047701 -0.47521001 0.49510697
1.7009399 -0.46462002 0.49419999
1.7200199 -0.50904 0.48463997
1.70855 -0.502693 0.48643395
1.70119 -0.49297798 0.48772994
1.69858 -0.47877201 0.48832694
1.7369701 -0.50537401 0.47283497
1.7084 -0.50140399 0.47924796
1.69855 -0.490753 0.48125497
1.70505 -0.47570801 0.47898495
1.74657 -0.50343204 0.46284196
1.72277 -0.498512 0.46820095
1.70502 -0.488639 0.47228095
1.7045399 -0.474976 0.47184598
1.70235 -0.46392 0.47066197
1.7072901 -0.44780999 0.46995598
1.72733 -0.40475601 0.46449399
1.75477 -0.50138003 0.45339194
1.7408299 -0.49451101 0.45691395
1.71744 -0.48671201 0.46162197
1.70513 -0.47565898 0.46467796
1.7057201 -0.46184799 0.46301296
1.70753 -0.448338 0.46162099
1.7172999 -0.417454 0.45987296
1.72781 -0.404174 0.45625195
1.7737499 -0.497859 0.44215694
1.75009 -0.49297798 0.44725895
1.7277901 -0.48502201 0.45155394
1.7136301 -0.47299099 0.45471495
1.7091701 -0.459409 0.45505399
1.71307 -0.44500101 0.45299199
1.7164 -0.42928901 0.45328096
1.71972 -0.416426 0.45136997
1.72627 -0.40443802 0.44849896
1.7713001 -0.49845901 0.43541396
1.75993 -0.49158698 0.43756798
1.73851 -0.48403999 0.44153994
1.72127 -0.47377399 0.44482598
1.7152901 -0.45985901 0.44599298
1.7111099 -0.447523 0.44513196
1.71772 -0.430834 0.44470498
1.71987 -0.416426 0.44322097
1.72675 -0.40443099 0.44063896
1.77011 -0.49754399 0.42778897
1.74714 -0.491606 0.43218696
1.73352 -0.481004 0.43464196
1.7188901 -0.471039 0.43797898
1.71491 -0.45906502 0.43753996
1.71533 -0.444621 0.43703496
1.72224 -0.42847499 0.43557599
1.72544 -0.41497001 0.43422797
1.74245 -0.40053999 0.43050095
1.75929 -0.49053398 0.42252296
1.7476699 -0.48110598 0.42415097
1.72421 -0.471073 0.42851198
1.7201899 -0.45627603 0.42805997
1.72084 -0.44157901 0.42875397
1.72235 -0.428489 0.42755795
1.72946 -0.41514802 0.42540798
1.7150999 -0.45845002 0.42151296
1.72164 -0.44326001 0.42045197
1.6124001 -0.52338499 0.98732829
1.59637 -0.51345003 0.9867599
1.5891701 -0.503295 0.98715788
1.57933 -0.49322602 0.98579025
1.5759101 -0.48101699 0.9859184
1.5824499 -0.46940202 0.98726189
1.6431199 -0.54008204 0.98472196
1.62506 -0.53190601 0.98250151
1.61955 -0.52232599 0.9822458
1.6055901 -0.51352197 0.98101228
1.58898 -0.50250798 0.97997308
1.5813 -0.48950198 0.97880447
1.58246 -0.47766799 0.98027974
1.59206 -0.46743301 0.98062956
1.64143 -0.54108 0.97724503
1.6392399 -0.53224897 0.97680199
1.6187301 -0.52203798 0.97559005
1.5984199 -0.51103997 0.9732374
1.5916901 -0.49860501 0.97299385
1.5771099 -0.49003899 0.9717856
1.5798199 -0.47891998 0.97276914
1.60078 -0.46583098 0.97425723
1.6447301 -0.54051298 0.97086883
1.6386501 -0.53253102 0.96923798
1.6332699 -0.52226102 0.96955985
1.61127 -0.511976 0.96753657
1.5938801 -0.500844 0.96570307
1.5825701 -0.489609 0.96639913
1.5909801 -0.47664002 0.96676534
1.60532 -0.464627 0.96757537
1.65185 -0.538239 0.96375388
1.63261 -0.530747 0.9620347
1.62421 -0.519786 0.96165502
1.6128 -0.50849402 0.96063125
1.5920399 -0.50044399 0.95870835
1.59442 -0.488087 0.96011078
1.59703 -0.47468603 0.96029681
1.6101899 -0.463278 0.96121186
1.6510299 -0.53818804 0.95560908
1.64354 -0.529984 0.95609784
1.62781 -0.52136201 0.95550954
1.6216 -0.50977302 0.95468557
1.59995 -0.49866402 0.95265162
1.60232 -0.48398998 0.95387316
1.60862 -0.471605 0.95514435
1.6136999 -0.46270999 0.9545849
1.6614701 -0.53605002 0.95043826
1.65482 -0.52830297 0.95025086
1.62922 -0.520069 0.94841695
1.6152999 -0.50795501 0.94670075
1.60597 -0.49711102 0.94587809
1.59927 -0.48718798 0.94682813
1.61246 -0.47246897 0.94879478
1.6203799 -0.46126702 0.9491179
1.57964 -0.54823798 0.93015343
1.6545799 -0.52695101 0.94424713
1.63411 -0.52041304 0.94229722
1.62019 -0.51050401 0.9404515
1.6058501 -0.50016803 0.93920743
1.60829 -0.48609403 0.94150984
1.6136999 -0.47115299 0.94338638
1.62312 -0.460022 0.94459081
1.5589999 -0.55083597 0.923374
1.5675701 -0.54106599 0.92468882
1.6254801 -0.51940203 0.93490541
1.6127299 -0.510014 0.93280023
1.5931 -0.50205398 0.93201196
1.5529801 -0.55143499 0.91784686
1.55836 -0.542458 0.91820073
1.58781 -0.52570802 0.92283028
1.5889 -0.51392901 0.92397696
1.5556799 -0.55066895 0.91257209
1.56204 -0.54162103 0.91251624
1.5649899 -0.53109401 0.91345686
1.5739 -0.51923501 0.91520089
1.5619099 -0.54860198 0.90810752
1.56539 -0.53882903 0.90839887
1.56892 -0.52832597 0.90912664
1.57061 -0.51952499 0.90960157
1.6507699 -0.433476 0.81029099
1.6593 -0.430738 0.80576098
1.66882 -0.42141601 0.80618292
1.6557499 -0.43901402 0.79973394
1.65987 -0.43039903 0.80011594
1.66816 -0.42084301 0.80057693
1.66257 -0.42961103 0.79244995
1.66081 -0.41990799 0.79362196
1.68554 -0.39734599 0.79215503
1.6617501 -0.39333498 0.79158098
1.6493601 -0.386794 0.790878
1.64622 -0.45650399 0.78112102
1.6859399 -0.43571603 0.78547996
1.66484 -0.43047199 0.78470594
1.6604899 -0.41924301 0.78618193
1.6683099 -0.403494 0.78731799
1.64723 -0.39601398 0.78604096
1.63631 -0.38821802 0.78517294
1.6460899 -0.45781299 0.77565598
1.66784 -0.44141799 0.77816194
1.67207 -0.429784 0.77877694
1.66073 -0.42067501 0.77893901
1.6547099 -0.40709901 0.77971196
1.64053 -0.39612401 0.77874398
1.6332899 -0.38833001 0.77907997
1.63954 -0.46948299 0.76940995
1.6460201 -0.45979801 0.76914495
1.65606 -0.44566798 0.77083397
1.6637601 -0.431137 0.772596
1.65817 -0.418769 0.77191192
1.6473199 -0.40665799 0.77153498
1.6454101 -0.39529201 0.77216995
1.6425101 -0.38690102 0.77282298
1.64951 -0.46960202 0.76233995
1.63774 -0.46232799 0.76314795
1.65446 -0.44803798 0.76345497
1.6574 -0.43206701 0.76423401
1.65071 -0.41889 0.76490998
1.65941 -0.40602401 0.76418
1.6452299 -0.39680302 0.76613098
1.6584599 -0.38392103 0.76741296
1.6524899 -0.47915101 0.75457692
1.65131 -0.470952 0.75580496
1.65169 -0.459941 0.75669801
1.65739 -0.44442502 0.75608397
1.6581399 -0.43165901 0.756998
1.6571801 -0.41942599 0.75765002
1.6635001 -0.40567699 0.75716698
1.6815 -0.39382598 0.755804
1.66123 -0.479875 0.74711299
1.65927 -0.46933898 0.74903494
1.6666 -0.45509103 0.74936098
1.66951 -0.44205898 0.74809295
1.6655201 -0.430069 0.75052094
1.6674 -0.41688597 0.75018001
1.67384 -0.40508598 0.75011694
1.65602 -0.48388302 0.73984891
1.6585001 -0.47242802 0.74119997
1.65888 -0.458024 0.74149293
1.6830901 -0.438618 0.74089193
1.67071 -0.42888302 0.74298698
1.67607 -0.41667899 0.74281901
1.63938 -0.507851 0.731803
1.6579 -0.495067 0.73217994
1.6578599 -0.48325101 0.73436797
1.65284 -0.47266603 0.73435098
1.6262801 -0.46755901 0.73384994
1.68768 -0.43778899 0.73491997
1.6733099 -0.429259 0.73522896
1.6950799 -0.41438499 0.73604894
1.6653501 -0.504691 0.72573996
1.6623199 -0.49554402 0.72499299
1.65327 -0.484404 0.72768396
1.63437 -0.475714 0.72752595
1.61603 -0.46923101 0.72680396
1.68584 -0.435415 0.72870994
1.6730701 -0.429809 0.72872996
1.65914 -0.42506599 0.72945595
1.6707001 -0.505395 0.71799499
1.6617999 -0.49640599 0.71748793
1.6543601 -0.48384601 0.71985298
1.62431 -0.47600299 0.72093499
1.66773 -0.43827599 0.72392899
1.68887 -0.51248503 0.71010298
1.66983 -0.50606203 0.71044397
1.67519 -0.49464598 0.71072495
1.65847 -0.48560002 0.71197295
1.6255701 -0.47604901 0.71323496
1.6874499 -0.51368695 0.70293897
1.66983 -0.507245 0.70382094
1.66574 -0.49592701 0.70420295
1.6469001 -0.48465303 0.70568895
1.62977 -0.47550899 0.70513201
1.68941 -0.51398498 0.69563997
1.6774899 -0.50643998 0.69669294
1.66994 -0.49585497 0.69613099
1.651 -0.48462898 0.69763494
1.6275101 -0.47638199 0.69901991
1.61234 -0.46835801 0.700773
1.6862199 -0.51385701 0.68845499
1.67778 -0.50468701 0.68953997
1.6655499 -0.494342 0.68927497
1.65327 -0.484285 0.69056296
1.65558 -0.47215801 0.69092095
1.6706101 -0.45665798 0.68781
1.69293 -0.43726701 0.68688291
1.6727 -0.42731601 0.68831694
1.6822301 -0.41520801 0.68770701
1.69784 -0.40320802 0.68653595
1.7596099 -0.36748099 0.68319094
1.7510899 -0.36103299 0.68336791
1.74137 -0.51969397 0.67490798
1.70437 -0.513533 0.67860299
1.6794701 -0.50441599 0.68195695
1.66054 -0.49565399 0.68304396
1.66325 -0.48304403 0.68326294
1.6702299 -0.46814498 0.68238497
1.68124 -0.45446801 0.68130296
1.68744 -0.42264098 0.68265498
1.69164 -0.41169798 0.681409
1.75008 -0.37774798 0.67872101
1.75508 -0.368357 0.67822194
1.76176 -0.35848999 0.67719793
1.7474699 -0.51954103 0.66917497
1.72032 -0.51407796 0.67086899
1.68484 -0.50617403 0.67323995
1.66833 -0.494524 0.67609596
1.67714 -0.478531 0.67448395
1.6761999 -0.46594501 0.67552096
1.68936 -0.45496699 0.67352897
1.69741 -0.417952 0.67426497
1.70985 -0.405909 0.67274594
1.75676 -0.377599 0.67223495
1.7552299 -0.369344 0.67137694
1.76134 -0.35891497 0.67068791
1.7448699 -0.51942003 0.66328698
1.71491 -0.51270401 0.66383499
1.6812301 -0.50544602 0.66643298
1.67801 -0.49263698 0.6668939
1.68619 -0.47651798 0.66607195
1.6840199 -0.46537399 0.66788596
1.69832 -0.45351002 0.66548491
1.6937801 -0.418329 0.66689795
1.71539 -0.40481499 0.66559392
1.74582 -0.384646 0.6646089
1.75951 -0.37025699 0.66349393
1.7376601 -0.51915401 0.65582597
1.7128301 -0.51281202 0.65581101
1.6849099 -0.50407004 0.65934396
1.68347 -0.49176601 0.65924096
1.67711 -0.48013002 0.65920496
1.6828599 -0.46513501 0.65995795
1.70304 -0.451455 0.65829396
1.7085 -0.41464001 0.65815091
1.72104 -0.40068299 0.65822101
1.7524 -0.38245401 0.65698999
1.76425 -0.37100202 0.65587294
1.7390199 -0.51921099 0.64716697
1.71179 -0.51308203 0.64872497
1.6997399 -0.50368696 0.65105391
1.68448 -0.49202099 0.65190095
1.6743699 -0.48038399 0.65253294
1.68313 -0.46638301 0.65156293
1.69373 -0.451426 0.65164202
1.70555 -0.41843399 0.64957094
1.7154201 -0.40433201 0.650666
1.7397901 -0.38777801 0.65078998
1.7434801 -0.51943898 0.63972199
1.72457 -0.51294798 0.64109302
1.7025 -0.50335699 0.64316499
1.68058 -0.492948 0.64401895
1.6794701 -0.479505 0.64515597
1.6825399 -0.46571702 0.64398992
1.68435 -0.45189202 0.64430892
1.7120799 -0.43271598 0.64334792
1.7022799 -0.42194802 0.64310294
1.70013 -0.41058299 0.64395696
1.72681 -0.39428601 0.64369196
1.73932 -0.51940703 0.63306201
1.72228 -0.51126897 0.63377398
1.69398 -0.50158 0.63539195
1.6825999 -0.48920399 0.63714999
1.68054 -0.476302 0.63755697
1.6815699 -0.46298698 0.63719398
1.6897 -0.448823 0.63651299
1.7025501 -0.43420503 0.63722301
1.69985 -0.42176497 0.63664699
1.7132699 -0.40788102 0.63646799
1.7375901 -0.51838702 0.624731
1.71306 -0.510665 0.62668097
1.69688 -0.50088197 0.62757194
1.68688 -0.490141 0.62939394
1.6800799 -0.479119 0.63105994
1.68093 -0.46675301 0.63045496
1.68396 -0.45284599 0.62996095
1.69532 -0.43613201 0.62968296
1.71064 -0.41921002 0.62736595
1.7597901 -0.39084098 0.61981499
1.75421 -0.37143299 0.62062097
1.8102601 -0.334052 0.61603594
1.7392 -0.52011102 0.61667597
1.71566 -0.51313704 0.61853796
1.7029401 -0.50238097 0.62074
1.69204 -0.49047601 0.62111199
1.68214 -0.47846901 0.62375593
1.6855999 -0.46419999 0.62263697
1.6919701 -0.44935399 0.62207794
1.70252 -0.43370301 0.62079895
1.7128199 -0.418661 0.61909294
1.7378399 -0.39899898 0.61675996
1.7661099 -0.37856999 0.61446798
1.7572099 -0.36999598 0.61534095
1.79976 -0.34008703 0.61048996
1.71892 -0.55128402 0.60749495
1.7163299 -0.53943002 0.60908794
1.72172 -0.52568603 0.61045897
1.71875 -0.513717 0.61025697
1.69803 -0.50216997 0.61318594
1.6901 -0.48988202 0.61438096
1.68916 -0.47659099 0.61472791
1.68668 -0.46216097 0.61563295
1.6939999 -0.44848901 0.61432296
1.7188901 -0.42898801 0.61129099
1.7207899 -0.41432098 0.61156297
1.74217 -0.39703998 0.60933197
1.7589101 -0.381657 0.60917395
1.7723801 -0.36423901 0.60756594
1.79565 -0.34305698 0.60336298
1.6840301 -0.58399504 0.60461694
1.7145101 -0.56507403 0.60217094
1.7199401 -0.552957 0.60180795
1.71698 -0.53985101 0.60345793
1.7195899 -0.52560902 0.60342795
1.71394 -0.511886 0.60321897
1.6981701 -0.50011003 0.60548997
1.6906101 -0.4894 0.60790694
1.6910601 -0.47718897 0.60651797
1.6910499 -0.46319902 0.60745198
1.68955 -0.45087299 0.60708994
1.7426 -0.421913 0.60126096
1.7223599 -0.41630501 0.60462892
1.7339101 -0.401847 0.60317498
1.76401 -0.38005 0.60088599
1.78956 -0.35868698 0.59767598
1.7997301 -0.34207299 0.59558892
1.8000799 -0.32730401 0.59631693
1.6870199 -0.58280498 0.59812093
1.7105401 -0.567182 0.59594995
1.71487 -0.55126101 0.596187
1.72394 -0.53680301 0.59623396
1.71803 -0.52485597 0.59593296
1.7168601 -0.511464 0.59482396
1.70103 -0.50050098 0.59793097
1.6915401 -0.48875198 0.60035497
1.6902601 -0.47483298 0.59919196
1.68893 -0.462163 0.60019296
1.69058 -0.45269799 0.59877598
1.7549601 -0.418596 0.59291798
1.7348199 -0.413111 0.59577996
1.74174 -0.400262 0.59466994
1.79724 -0.36742002 0.59119201
1.81172 -0.352501 0.58920598
1.8186799 -0.33762401 0.58811796
1.79985 -0.32685399 0.58958596
1.68422 -0.58381498 0.59156895
1.71375 -0.56822896 0.58771193
1.7155299 -0.55499697 0.58831
1.7184199 -0.53831601 0.58903098
1.7185 -0.52259499 0.58833396
1.71898 -0.51021498 0.58765393
1.7033 -0.50052202 0.59009695
1.6946499 -0.487434 0.59208995
1.6862301 -0.47580799 0.59265596
1.68802 -0.46362799 0.59220296
1.69666 -0.45222402 0.59105498
1.75262 -0.41839802 0.58589995
1.73611 -0.41171798 0.58810598
1.7404 -0.40232101 0.58672094
1.8148199 -0.36239398 0.58389395
1.69839 -0.58122098 0.58224398
1.70877 -0.56692499 0.58118993
1.72444 -0.55280298 0.57974195
1.7374699 -0.52041799 0.58005697
1.72563 -0.50998998 0.58049494
1.7061 -0.50121599 0.58295393
1.70149 -0.48814899 0.58290398
1.68793 -0.47607398 0.58580697
1.69012 -0.46369401 0.58401096
1.69136 -0.45231497 0.58411795
1.7508999 -0.41967401 0.57838094
1.7336999 -0.41402698 0.58063096
1.76018 -0.39926299 0.57865196
1.7018601 -0.57937598 0.57390594
1.71496 -0.56421 0.57306594
1.72158 -0.552167 0.57129598
1.7317599 -0.50895 0.57289594
1.7106 -0.498965 0.57445496
1.6962301 -0.48776799 0.57616293
1.69384 -0.474841 0.57658195
1.69265 -0.46052399 0.57647699
1.69955 -0.44574001 0.57538396
1.7338099 -0.42530102 0.57264799
1.7190801 -0.41887102 0.57295895
1.7076199 -0.57991904 0.56503499
1.70645 -0.56786501 0.56711197
1.72276 -0.55352402 0.56456792
1.72663 -0.53854001 0.562787
1.74468 -0.521299 0.56062996
1.72909 -0.50891995 0.56381798
1.70894 -0.49828097 0.56628096
1.6990401 -0.48645401 0.56882495
1.69442 -0.474958 0.56920499
1.69291 -0.463563 0.56925696
1.6958299 -0.44894698 0.56864893
1.7147 -0.43031299 0.56627297
1.71636 -0.41813201 0.56513
1.7049899 -0.59118497 0.558505
1.71418 -0.58015001 0.55717397
1.71733 -0.56629902 0.55822098
1.7238001 -0.55018502 0.55656892
1.73078 -0.53656101 0.55593997
1.72834 -0.52340698 0.55651295
1.7355 -0.50923902 0.55606294
1.7148199 -0.50030398 0.55850393
1.7071 -0.48755601 0.55972594
1.69524 -0.475043 0.56202996
1.6967999 -0.46064201 0.56120098
1.7177 -0.42922002 0.55866796
1.70998 -0.41911301 0.55887395
1.71329 -0.408214 0.55843395
1.7080499 -0.59975302 0.55085492
1.71972 -0.59018004 0.54964596
1.72094 -0.577977 0.55056995
1.72623 -0.56084704 0.55007797
1.72463 -0.54917002 0.54960299
1.72953 -0.53593701 0.54897094
1.72541 -0.52372897 0.550017
1.7241499 -0.51125199 0.55047798
1.70907 -0.498716 0.551296
1.69618 -0.485477 0.55373198
1.69603 -0.47196701 0.55443496
1.69582 -0.45875302 0.55312598
1.7122 -0.43010101 0.55249399
1.7096699 -0.41859201 0.55137795
1.7119401 -0.40693101 0.55062795
1.7276199 -0.59955901 0.54088098
1.73104 -0.59035999 0.54150897
1.739 -0.54528201 0.54094595
1.7354 -0.53359401 0.54034597
1.72981 -0.52251899 0.54265493
1.7149899 -0.51087999 0.54358
1.70822 -0.49933702 0.54351693
1.70373 -0.48700401 0.54483396
1.6969299 -0.47267398 0.54593998
1.7122099 -0.42972302 0.54421794
1.7090199 -0.41643798 0.54498595
1.73603 -0.599599 0.53189796
1.72594 -0.59303099 0.53359497
1.75063 -0.54273498 0.533198
1.7409199 -0.53287101 0.53325695
1.7325 -0.52050799 0.53401697
1.7094799 -0.509206 0.53652197
1.70513 -0.496512 0.53710294
1.69753 -0.48436001 0.53832996
1.6987 -0.47186199 0.53785795
1.7286201 -0.600748 0.52528095
1.72084 -0.59447104 0.52649897
1.73138 -0.519876 0.52581596
1.72163 -0.50933301 0.52743495
1.71286 -0.49721402 0.52856398
1.69884 -0.48569199 0.53069299
1.6971699 -0.47365898 0.53165996
1.7247599 -0.600393 0.51852196
1.724 -0.59359902 0.518417
1.7361799 -0.51634997 0.51639497
1.72694 -0.50819701 0.51882994
1.7213401 -0.49749801 0.52040696
1.70441 -0.48617297 0.52180696
1.69749 -0.472096 0.52395993
1.7246001 -0.60049099 0.51129699
1.7202699 -0.59356803 0.51062196
1.7544999 -0.51294303 0.50686896
1.7381301 -0.50603402 0.50948095
1.7135299 -0.49695203 0.51380998
1.71059 -0.48448002 0.51362592
1.7048399 -0.47283199 0.51400197
1.7047501 -0.45696098 0.51515496
1.7193201 -0.60057497 0.50375295
1.7191299 -0.59375304 0.50355697
1.7375301 -0.50563699 0.50294197
1.71443 -0.49834001 0.50577998
1.70698 -0.485412 0.50689799
1.70136 -0.47301999 0.50665295
1.7008799 -0.46039903 0.50734097
1.7136799 -0.60049999 0.49702197
1.71709 -0.59325498 0.49656394
1.7178999 -0.50557399 0.49820197
1.7064301 -0.496012 0.49856994
1.6997399 -0.483069 0.49983296
1.69886 -0.469798 0.50017893
1.7047701 -0.45576 0.49932495
1.71802 -0.60062999 0.48867196
1.71942 -0.59353101 0.48852295
1.7158501 -0.50391698 0.48975497
1.69539 -0.497971 0.49300298
1.70269 -0.48502201 0.49139094
1.69522 -0.47241199 0.49340299
1.69858 -0.45943901 0.49342996
1.7131 -0.60013402 0.48187298
1.71243 -0.593261 0.48207799
1.7179401 -0.503703 0.48061097
1.7027 -0.495873 0.48450398
1.69839 -0.48406503 0.48465097
1.70085 -0.472747 0.48543495
1.7000901 -0.601219 0.47669196
1.71989 -0.59281802 0.47345296
1.73362 -0.50137299 0.47003096
1.71229 -0.49503398 0.47472495
1.70275 -0.483904 0.47699195
1.69727 -0.47170398 0.47901294
1.7052499 -0.45581099 0.47588897
1.67478 -0.60312098 0.47500798
1.6939 -0.59438902 0.47198197
1.74568 -0.49873403 0.46097097
1.7257299 -0.49256098 0.46469098
1.7113099 -0.48275903 0.46782598
1.7027 -0.47045898 0.47029296
1.71156 -0.45537898 0.46629295
1.70356 -0.44404203 0.46898797
1.7280201 -0.40272799 0.46328494
1.69244 -0.59455603 0.46702698
1.7329299 -0.49055803 0.45575398
1.7135899 -0.48237097 0.45947596
1.7061599 -0.46986303 0.46163297
1.7127299 -0.45493001 0.45808196
1.72414 -0.424887 0.45654595
1.72291 -0.41333801 0.45811695
1.7262 -0.40298402 0.45532694
1.7431901 -0.488372 0.44599196
1.72601 -0.48097402 0.44918096
1.71594 -0.46786898 0.45090693
1.70678 -0.45534402 0.45202199
1.71438 -0.44255102 0.45170394
1.71667 -0.42914298 0.45074195
1.72392 -0.41345501 0.44941893
1.72743 -0.402197 0.44709495
1.7765499 -0.49112201 0.42974797
1.74606 -0.48642701 0.43722299
1.72118 -0.47836497 0.44228399
1.7194 -0.46598703 0.44208798
1.70819 -0.456577 0.44520694
1.71218 -0.44224799 0.44432396
1.72191 -0.42456502 0.44147596
1.72453 -0.41140097 0.44168496
1.7288001 -0.40149897 0.43912196
1.7514 -0.48556098 0.42800698
1.7312801 -0.47810599 0.43285897
1.7189101 -0.46783501 0.43574497
1.71253 -0.45478499 0.43625697
1.71538 -0.438297 0.43517497
1.72928 -0.42223302 0.43188596
1.72537 -0.41158599 0.43410298
1.7274699 -0.40194699 0.43161297
1.73658 -0.47702301 0.42384994
1.71819 -0.46737301 0.42861497
1.71778 -0.45393798 0.42626494
1.7116499 -0.44204199 0.42864296
1.72672 -0.425172 0.42472896
1.7313499 -0.41092899 0.42497596
1.73158 -0.40115601 0.42268598
1.59614 -0.427719 0.8936004
1.59668 -0.42847002 0.88883936
1.6066499 -0.42007703 0.89039117
1.5988901 -0.429566 0.88273567
1.60427 -0.421592 0.88499469
1.6553 -0.50989604 0.87507516
1.6494299 -0.50017798 0.87498373
1.63183 -0.489416 0.87464476
1.6258701 -0.47743598 0.87422544
1.6160899 -0.46590197 0.87378865
1.62283 -0.43774799 0.87669271
1.60832 -0.42996103 0.87809753
1.65929 -0.51050097 0.86981004
1.6463699 -0.50037897 0.86895442
1.63772 -0.48824102 0.87011534
1.63783 -0.47634497 0.87049258
1.6353301 -0.464964 0.87000984
1.6325799 -0.45110902 0.87086928
1.6322399 -0.43926701 0.87035888
1.61815 -0.43067902 0.87158257
1.68634 -0.53189999 0.86192095
1.67714 -0.52174401 0.86337525
1.65457 -0.51120698 0.86310613
1.6525301 -0.499632 0.86271667
1.6418099 -0.488462 0.86359513
1.6350999 -0.47664699 0.86474806
1.6333001 -0.46541899 0.86348045
1.63615 -0.45181599 0.86427057
1.637 -0.438968 0.86342758
1.6303999 -0.43071601 0.86505806
1.6956799 -0.53286701 0.85659546
1.68097 -0.524728 0.85732251
1.67101 -0.51433104 0.85711026
1.6571499 -0.502002 0.85661036
1.64403 -0.48949701 0.85612679
1.63746 -0.47658902 0.85779905
1.6352299 -0.463806 0.85694784
1.63983 -0.44938302 0.85680521
1.64131 -0.437924 0.85767645
1.64379 -0.42879799 0.85807449
1.6976601 -0.53292298 0.85074538
1.68382 -0.52459002 0.85073549
1.6624 -0.512344 0.84923279
1.64853 -0.50009602 0.84990233
1.64972 -0.48893398 0.84922409
1.63617 -0.47690201 0.84991843
1.6435601 -0.46213201 0.84995711
1.65082 -0.44875199 0.84973741
1.64429 -0.43759102 0.85158461
1.65168 -0.42605901 0.85015756
1.69091 -0.53255796 0.84402966
1.68145 -0.52305597 0.84294015
1.6604401 -0.51261503 0.84131652
1.6547799 -0.49996498 0.84333819
1.64105 -0.48785701 0.84198844
1.64327 -0.473932 0.84339035
1.64783 -0.46095502 0.8427124
1.6516401 -0.448688 0.84370637
1.65043 -0.437015 0.84428179
1.65 -0.42460603 0.84290445
1.6330701 -0.41793099 0.84323263
1.68494 -0.53281099 0.83575279
1.67633 -0.52292097 0.83587128
1.6651801 -0.513574 0.83467978
1.65576 -0.50087398 0.83545822
1.6404401 -0.48908901 0.8344999
1.6450701 -0.47535598 0.83589929
1.6492101 -0.461835 0.83500999
1.65196 -0.44850898 0.83756965
1.6532401 -0.43521899 0.83686423
1.65213 -0.423565 0.83615357
1.6457801 -0.41595501 0.83775085
1.72544 -0.54426801 0.82742292
1.7062601 -0.53526199 0.82789302
1.67176 -0.52474701 0.82835197
1.66091 -0.51205897 0.828098
1.64914 -0.49898499 0.82756293
1.6452299 -0.48633599 0.82887894
1.64859 -0.47420201 0.82872891
1.65052 -0.46237999 0.82820696
1.6494099 -0.448737 0.82910192
1.6575 -0.43301299 0.82996994
1.6611 -0.42240602 0.83068895
1.6508099 -0.41565201 0.83143395
1.70269 -0.54421902 0.82125592
1.69718 -0.534154 0.82071596
1.66661 -0.52217799 0.82094693
1.6567301 -0.51023102 0.82126594
1.6524299 -0.49914601 0.81989497
1.64972 -0.48574799 0.82181001
1.65228 -0.472747 0.82256502
1.64811 -0.46163899 0.82191598
1.65356 -0.44927397 0.82138693
1.6517301 -0.43637601 0.82213998
1.6534599 -0.424817 0.82463098
1.7017 -0.54379797 0.81389892
1.69912 -0.53438401 0.81319499
1.6703 -0.52366 0.81350297
1.6576101 -0.51100397 0.81426698
1.6534101 -0.499677 0.81367797
1.6509399 -0.48784402 0.81363493
1.64937 -0.47382599 0.81573492
1.65617 -0.46021703 0.81492394
1.6515199 -0.44692698 0.81437796
1.6520599 -0.43543899 0.81487596
1.64854 -0.42697498 0.81656295
1.7216901 -0.54281896 0.80735397
1.71552 -0.53544199 0.80780691
1.67495 -0.52353698 0.80599195
1.66317 -0.51290601 0.80735797
1.65731 -0.50001901 0.80728698
1.6484399 -0.48772702 0.80636495
1.6517999 -0.47347099 0.80729896
1.65836 -0.45783502 0.80778998
1.6624299 -0.44538897 0.80773193
1.65214 -0.43627203 0.80862999
1.65192 -0.42693803 0.80871397
1.6874299 -0.53308797 0.80007899
1.68462 -0.52268797 0.79973894
1.66526 -0.51145697 0.79961699
1.65125 -0.49748901 0.79981995
1.64896 -0.48511201 0.80023599
1.6537601 -0.47341201 0.79919595
1.65254 -0.460866 0.800569
1.66131 -0.447537 0.80168593
1.6543 -0.43617299 0.80125594
1.65896 -0.42574599 0.80150896
1.6892101 -0.53010499 0.79285401
1.68397 -0.52164197 0.79340696
1.6646401 -0.51060599 0.79148096
1.6614701 -0.4991 0.79313296
1.6508099 -0.48560601 0.79286295
1.6420599 -0.474415 0.79282296
1.6507699 -0.46228299 0.79334903
1.65751 -0.44793302 0.79430395
1.65591 -0.435523 0.79346102
1.6538401 -0.42555901 0.79397094
1.6755999 -0.52035999 0.78516597
1.66854 -0.50897801 0.78434396
1.6574899 -0.49758801 0.78575194
1.646 -0.48523399 0.78519195
1.6468201 -0.47258598 0.78631192
1.65063 -0.458195 0.78651696
1.6561301 -0.44462299 0.78678596
1.6511 -0.43321097 0.78671193
1.6611099 -0.42147499 0.78626096
1.71075 -0.58415502 0.77317399
1.70066 -0.57373697 0.77307397
1.7189 -0.5607 0.77329695
1.69054 -0.52161598 0.77678698
1.6751 -0.51108301 0.77716994
1.6577201 -0.498671 0.77823997
1.65302 -0.48680303 0.77909797
1.64315 -0.47460401 0.77830595
1.64548 -0.46066102 0.77918595
1.6466299 -0.44756001 0.77978796
1.6544701 -0.43478402 0.780487
1.6466 -0.42296001 0.77947998
1.6508701 -0.41116798 0.77949798
1.6297799 -0.40348703 0.77826494
1.71173 -0.59562302 0.76707
1.6953399 -0.585868 0.76773393
1.69398 -0.57497299 0.76735198
1.70196 -0.56157297 0.76818198
1.7122999 -0.54737097 0.76860595
1.71523 -0.53253299 0.76993394
1.69285 -0.52199799 0.77013898
1.67199 -0.51145303 0.76979601
1.66531 -0.49957803 0.77095693
1.6495399 -0.48640001 0.77144593
1.6529801 -0.473158 0.77146894
1.64292 -0.462075 0.77161193
1.64431 -0.449604 0.77311796
1.6497501 -0.435745 0.77307802
1.64556 -0.42222401 0.77173495
1.64026 -0.41086498 0.77312094
1.6347001 -0.40202901 0.77277696
1.69038 -0.595613 0.76193297
1.6874001 -0.58658296 0.76149696
1.68321 -0.57618403 0.76084399
1.69478 -0.56364101 0.76163095
1.69886 -0.54908001 0.76192796
1.6966499 -0.53456998 0.76388794
1.68993 -0.52127701 0.76268798
1.6678101 -0.50828302 0.76354492
1.65509 -0.49693599 0.76468199
1.65446 -0.48588502 0.76394999
1.64817 -0.47332501 0.76452994
1.64209 -0.46132001 0.76507193
1.64499 -0.44889998 0.76581192
1.65686 -0.432715 0.76493394
1.63677 -0.423049 0.76571792
1.6481 -0.41115102 0.76609302
1.6399601 -0.40204102 0.76635498
1.68576 -0.59548199 0.75539994
1.67939 -0.58649302 0.75452697
1.68873 -0.57472003 0.75453293
1.6938901 -0.56099898 0.75476396
1.7052001 -0.54674196 0.75400698
1.69373 -0.53484201 0.75648993
1.6902601 -0.52265799 0.75537497
1.67958 -0.50968397 0.75557595
1.66166 -0.49625802 0.75751597
1.64791 -0.48469397 0.75801194
1.6478101 -0.47400501 0.757258
1.6469799 -0.46125498 0.7582649
1.65913 -0.44609502 0.75785196
1.6531399 -0.43345699 0.75723493
1.65262 -0.42097801 0.75970894
1.65496 -0.409439 0.75920898
1.6622901 -0.39957297 0.75892997
1.67881 -0.58684802 0.74738395
1.69438 -0.57355702 0.74806899
1.71007 -0.55704999 0.74801499
1.71373 -0.54455602 0.74705696
1.69649 -0.53334099 0.74875993
1.68485 -0.52087599 0.74925399
1.68073 -0.509574 0.74792397
1.6715199 -0.49718601 0.74954093
1.6552 -0.48493901 0.75136894
1.6537801 -0.47248298 0.75047702
1.66054 -0.45836499 0.75063097
1.66931 -0.444534 0.75038302
1.6778101 -0.43115601 0.74957299
1.6557699 -0.42061698 0.75248301
1.66565 -0.409253 0.75181395
1.72448 -0.543396 0.74094796
1.70495 -0.53288102 0.74111098
1.68749 -0.52131802 0.74253494
1.68321 -0.50985503 0.74108994
1.67344 -0.49830502 0.74207199
1.66207 -0.48513803 0.74343896
1.66616 -0.46974602 0.742558
1.67697 -0.45521 0.74379396
1.67946 -0.44318902 0.74327898
1.68578 -0.430812 0.74258798
1.6651 -0.42078999 0.74451399
1.6717501 -0.41020301 0.74460196
1.7043401 -0.531506 0.73366195
1.68856 -0.52064204 0.73476392
1.67347 -0.50758201 0.73484594
1.66627 -0.49558201 0.73604292
1.6521001 -0.484366 0.73587996
1.63709 -0.47260201 0.73522294
1.6666299 -0.45644403 0.73695099
1.6886901 -0.44139701 0.73696297
1.6752499 -0.43034899 0.73708397
1.6693 -0.420531 0.73826098
1.70941 -0.52866799 0.725384
1.69715 -0.52120298 0.72727895
1.68425 -0.50987601 0.72757995
1.6673801 -0.49587399 0.72817594
1.64145 -0.48400798 0.72938097
1.6194 -0.474132 0.72874796
1.6459199 -0.46078801 0.72969401
1.68084 -0.44394299 0.73161197
1.64828 -0.432019 0.73267293
1.65959 -0.42232499 0.73291594
1.7136301 -0.52668899 0.71838194
1.6922901 -0.51877201 0.72009695
1.67181 -0.50772101 0.72105795
1.6661999 -0.49582803 0.71980798
1.6400599 -0.48417899 0.72216195
1.6099499 -0.47373101 0.72279096
1.62711 -0.46329701 0.72345495
1.6277299 -0.45499 0.72367096
1.69933 -0.517667 0.71208298
1.67976 -0.50729001 0.71328497
1.6700301 -0.49553698 0.71265101
1.64762 -0.48637402 0.71428698
1.6057899 -0.47455201 0.71672702
1.60464 -0.46519798 0.71763593
1.70517 -0.51673597 0.70461792
1.68915 -0.50877303 0.70541298
1.6789501 -0.49749199 0.70574397
1.65327 -0.48640999 0.70700192
1.6201601 -0.47629502 0.70902997
1.61015 -0.465574 0.70980096
1.7055 -0.51544601 0.698107
1.68313 -0.50719601 0.69841796
1.66513 -0.49578202 0.69867897
1.6401801 -0.48360297 0.70083296
1.628 -0.47273201 0.70211703
1.6437801 -0.46209499 0.69971895
1.70289 -0.51420397 0.69113493
1.6757699 -0.50632304 0.69143099
1.6605999 -0.49686101 0.69163096
1.65465 -0.48535198 0.69284594
1.64891 -0.472258 0.693685
1.66839 -0.45975101 0.69172293
1.67419 -0.45063999 0.69177794
1.6976401 -0.51304501 0.68386298
1.6743699 -0.50468302 0.68455291
1.658 -0.49498799 0.68612397
1.66005 -0.48309201 0.68574494
1.66677 -0.46965399 0.68531799
1.67818 -0.45866403 0.68471199
1.75142 -0.43195701 0.67700994
1.6784101 -0.50406802 0.67721498
1.66968 -0.49410197 0.67889297
1.6748101 -0.48036203 0.67725199
1.67319 -0.467971 0.67830896
1.6793801 -0.458691 0.67697692
1.76454 -0.430231 0.67106193
1.7647099 -0.42303699 0.67180496
1.79339 -0.52579397 0.65723997
1.68301 -0.50229299 0.66850591
1.6791999 -0.49311799 0.67069697
1.6735899 -0.481417 0.66931099
1.6766701 -0.46840099 0.67044097
1.6849 -0.45810699 0.66960597
1.7468699 -0.43077999 0.66559601
1.76298 -0.42252201 0.66634291
1.71638 -0.41632301 0.66504997
1.7881799 -0.52482802 0.65259695
1.7713499 -0.51824701 0.6535809
1.68811 -0.50209999 0.66056496
1.67993 -0.49238098 0.66259295
1.67422 -0.48162997 0.66276598
1.6739399 -0.47047797 0.6630699
1.67884 -0.45791599 0.66252297
1.7247701 -0.43341899 0.65950698
1.74634 -0.42189097 0.65937591
1.71435 -0.41613799 0.65976197
1.7825301 -0.52529502 0.64667398
1.7646401 -0.51920503 0.64799696
1.6928301 -0.50210398 0.65361196
1.68464 -0.493516 0.65462196
1.6798199 -0.48071 0.65543902
1.6817399 -0.46729401 0.65584999
1.68282 -0.45572701 0.654805
1.71012 -0.44000399 0.65354097
1.71252 -0.42560798 0.65383995
1.70847 -0.41637599 0.65429002
1.77531 -0.52419102 0.64004797
1.7628701 -0.51710498 0.64089996
1.69042 -0.501315 0.64663196
1.68451 -0.49062401 0.64753693
1.6773399 -0.47994801 0.64833593
1.6839 -0.46654499 0.64790797
1.6902601 -0.45156601 0.64791089
1.70486 -0.43743199 0.64755195
1.6965699 -0.42724201 0.64681697
1.71259 -0.41599202 0.64739299
1.7689199 -0.52336001 0.63359195
1.74084 -0.514808 0.63454896
1.7025501 -0.50330001 0.63742095
1.6894701 -0.49149799 0.63959497
1.68435 -0.47876999 0.64089602
1.68487 -0.46604699 0.64007491
1.6852901 -0.45363602 0.64089799
1.7005 -0.43861598 0.64075994
1.69362 -0.427421 0.63925898
1.70269 -0.41672298 0.64040595
1.74184 -0.51406699 0.62867498
1.7126601 -0.50548398 0.63001198
1.6956 -0.492883 0.63101494
1.68388 -0.48009399 0.63339698
1.6830701 -0.46816501 0.63428497
1.68581 -0.455672 0.63351899
1.68786 -0.44108501 0.63374496
1.6929801 -0.42713299 0.63177401
1.6906301 -0.416403 0.63285601
1.7314501 -0.51296902 0.62205893
1.70298 -0.503483 0.62304997
1.69519 -0.49134201 0.62372595
1.6878301 -0.47984001 0.62547898
1.68252 -0.46732798 0.62743396
1.69011 -0.45235199 0.62553996
1.7008799 -0.437617 0.62547195
1.69819 -0.42717302 0.62467396
1.6941701 -0.415959 0.62519097
1.7190601 -0.40049702 0.62204194
1.77434 -0.37369701 0.61451799
1.73092 -0.55278301 0.60949898
1.72304 -0.54203802 0.61023897
1.72601 -0.52764803 0.61157393
1.7257899 -0.51387799 0.61426091
1.7054801 -0.504345 0.61493796
1.69673 -0.49300399 0.61721998
1.6926199 -0.480957 0.61779195
1.6924601 -0.466483 0.61831498
1.69301 -0.45242801 0.61697495
1.6994901 -0.43864301 0.61860693
1.6985899 -0.42604801 0.61791199
1.7084 -0.411659 0.61673295
1.72767 -0.39722499 0.61451697
1.7411799 -0.38232201 0.61306196
1.7781799 -0.36149299 0.60906798
1.81362 -0.33982199 0.60749096
1.80618 -0.32738701 0.60814494
1.68984 -0.58326 0.60574293
1.7183701 -0.56952399 0.60385793
1.72258 -0.55527002 0.60465097
1.72043 -0.54298997 0.60461599
1.7249401 -0.52961802 0.60538596
1.72229 -0.51611799 0.60733598
1.7084399 -0.50480002 0.60746598
1.6957099 -0.49158201 0.60972095
1.6941299 -0.47767299 0.611103
1.69412 -0.46466598 0.60995495
1.6917399 -0.45262599 0.61057198
1.70306 -0.43902099 0.61033398
1.71286 -0.422867 0.60871696
1.71778 -0.40874803 0.60951596
1.74933 -0.392322 0.60618496
1.7606101 -0.37703899 0.60453296
1.78526 -0.36028498 0.60117894
1.7990899 -0.34349 0.60195696
1.8037399 -0.32848799 0.59991997
1.6760899 -0.59466702 0.60173494
1.6896601 -0.58252603 0.60048395
1.71375 -0.56920701 0.59841698
1.7183501 -0.55437398 0.59884095
1.72601 -0.54289401 0.59817398
1.72084 -0.53177798 0.59884596
1.72606 -0.51631403 0.59869897
1.70215 -0.50246203 0.60113299
1.69133 -0.490127 0.60246795
1.68858 -0.47843701 0.60452896
1.68806 -0.46681198 0.60318995
1.69607 -0.45247898 0.60326296
1.717 -0.43586102 0.60083497
1.7345799 -0.421487 0.59821993
1.71635 -0.41147202 0.60262293
1.76298 -0.38612401 0.59793597
1.7773399 -0.37377203 0.59547693
1.78388 -0.361031 0.59442598
1.8040401 -0.34340301 0.59350997
1.68775 -0.58272702 0.59363294
1.71662 -0.56845003 0.59079492
1.71498 -0.55720699 0.59268194
1.72087 -0.544047 0.59271896
1.73024 -0.52711099 0.59049594
1.7282699 -0.51576596 0.59095496
1.71139 -0.50485998 0.59300297
1.69903 -0.49110001 0.59410197
1.6881399 -0.478508 0.59708297
1.6907699 -0.46432 0.59552896
1.7045 -0.44835401 0.59455997
1.7272 -0.43262798 0.59239894
1.7349 -0.42140999 0.59170395
1.7271401 -0.41333303 0.59274596
1.79079 -0.381605 0.58845598
1.7950799 -0.370713 0.58770597
1.7959 -0.356341 0.58833796
1.8204601 -0.33813801 0.58583397
1.67685 -0.59578699 0.58726096
1.6953999 -0.582578 0.58446795
1.70681 -0.57017499 0.58471495
1.7192301 -0.55813003 0.58530694
1.7586701 -0.53296697 0.58125699
1.7523599 -0.52355301 0.58102793
1.7288201 -0.51398104 0.58386195
1.70323 -0.50166202 0.58639896
1.6966799 -0.489189 0.58673495
1.6900799 -0.477052 0.58893394
1.6855701 -0.46507999 0.58909696
1.70435 -0.45079601 0.58654296
1.71864 -0.43534401 0.58610696
1.73655 -0.42148301 0.58524698
1.72146 -0.41353598 0.58502597
1.81213 -0.378784 0.58064198
1.6924499 -0.59375596 0.578758
1.7148 -0.58187801 0.57504392
1.7067701 -0.57123697 0.57770395
1.71687 -0.56041503 0.57667297
1.7366999 -0.51259702 0.57503498
1.7085099 -0.50284803 0.57857496
1.69915 -0.49040401 0.57966799
1.6923699 -0.47779 0.58083498
1.69505 -0.46375501 0.58109194
1.70619 -0.449678 0.57892895
1.7097 -0.43714198 0.57936096
1.7275101 -0.422382 0.57851899
1.7138499 -0.41262099 0.57748294
1.69789 -0.59287202 0.57149696
1.7209599 -0.58089101 0.566818
1.7138801 -0.56972498 0.56972098
1.72416 -0.556835 0.56651598
1.7374099 -0.51159501 0.56635594
1.7181101 -0.50301301 0.57026899
1.70376 -0.49125198 0.5715
1.6913099 -0.47956699 0.57422197
1.69418 -0.46550202 0.57313097
1.69552 -0.452481 0.57401294
1.7064999 -0.43869001 0.57233298
1.71196 -0.423787 0.57198197
1.7019701 -0.41217899 0.57156694
1.7188699 -0.40156502 0.57010794
1.71706 -0.59049398 0.56143296
1.72895 -0.58064497 0.55807698
1.7242799 -0.56771803 0.56031096
1.72308 -0.55421001 0.559569
1.73694 -0.54133397 0.55783695
1.74572 -0.52779204 0.55698293
1.73923 -0.51476598 0.55834997
1.71764 -0.50183499 0.56192195
1.70192 -0.48891202 0.56419998
1.69403 -0.47780201 0.56677997
1.6991 -0.464425 0.56431699
1.69696 -0.45086399 0.56610096
1.70918 -0.43472499 0.564457
1.7060699 -0.42116901 0.56489795
1.7022301 -0.41102502 0.56546998
1.70866 -0.40201199 0.56454492
1.7269 -0.589867 0.55241793
1.7298399 -0.58139497 0.55094695
1.7321299 -0.56888902 0.55186194
1.7255499 -0.55555999 0.55364597
1.7344201 -0.54167199 0.55162597
1.74649 -0.52740198 0.55122095
1.7355901 -0.51368099 0.55170995
1.7149299 -0.501571 0.55434096
1.7059 -0.48967201 0.55661994
1.6972901 -0.47720799 0.55895895
1.70237 -0.46514598 0.55663699
1.69793 -0.45268798 0.55778497
1.70985 -0.42328 0.55662495
1.6998 -0.41173699 0.55949599
1.7128999 -0.40090901 0.55611593
1.7278199 -0.59043097 0.54427999
1.7373199 -0.581631 0.54374695
1.7407001 -0.55168802 0.54489893
1.74131 -0.539662 0.54379296
1.73752 -0.52714401 0.54426098
1.7321 -0.514642 0.54499698
1.72112 -0.50347501 0.54659593
1.70884 -0.49096501 0.54863495
1.70435 -0.476982 0.55000997
1.69886 -0.462713 0.54977
1.7097501 -0.434679 0.54975599
1.71158 -0.42239499 0.54829395
1.7033701 -0.41155601 0.55125695
1.71377 -0.4007 0.54803199
1.7305599 -0.59158003 0.53632194
1.72909 -0.58409101 0.53661096
1.74449 -0.53676599 0.53634596
1.74681 -0.525998 0.53555894
1.7290801 -0.51402903 0.53793395
1.7139599 -0.500287 0.54043096
1.70355 -0.48733899 0.54207796
1.6951699 -0.474424 0.54342198
1.7155701 -0.603172 0.52850199
1.7254601 -0.59306198 0.52934599
1.7304 -0.58601999 0.52801597
1.74902 -0.53396702 0.52750093
1.7436 -0.52446496 0.52860194
1.7290801 -0.512582 0.529737
1.71776 -0.50095296 0.53230196
1.70819 -0.489319 0.534518
1.70489 -0.47606 0.53432095
1.6911099 -0.60747099 0.52670497
1.72426 -0.59503299 0.52224797
1.73604 -0.58678299 0.52036399
1.7507601 -0.52311599 0.52002198
1.73454 -0.513026 0.52205199
1.72047 -0.50096399 0.52433896
1.7091299 -0.488318 0.52668798
1.7023599 -0.47501099 0.52680296
1.6999699 -0.46307799 0.52870995
1.7091299 -0.60384101 0.51864398
1.72518 -0.59505403 0.51625395
1.75925 -0.52162802 0.51269996
1.74292 -0.512052 0.51408696
1.7246201 -0.50075102 0.51627696
1.7130499 -0.48956403 0.51894099
1.7066001 -0.476917 0.51930296
1.7007899 -0.46264598 0.52014697
1.70838 -0.60274202 0.51356596
1.7270799 -0.5 0.50751495
1.71253 -0.487719 0.510997
1.7001401 -0.47373199 0.51272893
1.69933 -0.46236199 0.51303095
1.69819 -0.45132703 0.51340193
1.7366 -0.50755799 0.49830097
1.72884 -0.49961701 0.49926099
1.71433 -0.48938501 0.50240797
1.70561 -0.47558603 0.50375998
1.69968 -0.46152902 0.50599897
1.72471 -0.50832295 0.49290195
1.71386 -0.498858 0.49487197
1.7037801 -0.48657501 0.49674895
1.70249 -0.47506699 0.49692398
1.6991401 -0.46317002 0.49751198
1.72321 -0.508811 0.48597595
1.7167701 -0.50037497 0.48704198
1.7019099 -0.489306 0.48956195
1.69761 -0.47520301 0.49039596
1.71486 -0.50772303 0.48042297
1.71226 -0.49761599 0.48022798
1.6987801 -0.48604402 0.48279396
1.69429 -0.47489601 0.48381299
1.7208 -0.49631199 0.47092599
1.71012 -0.48612499 0.47328094
1.70067 -0.47425097 0.47595796
1.7070301 -0.46104699 0.47296795
1.70239 -0.44970798 0.47508496
1.74068 -0.493725 0.45842698
1.71858 -0.485726 0.46386996
1.70775 -0.47327 0.46659997
1.70575 -0.46070001 0.46625698
1.70543 -0.44812801 0.46669295
1.73104 -0.39633301 0.46205196
1.74998 -0.49240199 0.44868195
1.73534 -0.48399502 0.45291096
1.71652 -0.47411901 0.45765397
1.7073399 -0.46068901 0.45882094
1.70895 -0.44769502 0.45859295
1.72232 -0.41911498 0.45486596
1.7195599 -0.40716401 0.45751396
1.7344099 -0.39597598 0.45313594
1.75836 -0.491638 0.43925598
1.74309 -0.48302501 0.44354996
1.7156799 -0.47230202 0.45001996
1.7057099 -0.46061599 0.45179296
1.7072799 -0.44829398 0.45178998
1.7136999 -0.433406 0.44948795
1.72738 -0.41798303 0.44594997
1.7255299 -0.40632001 0.44858897
1.73386 -0.39571097 0.44521397
1.76353 -0.49109101 0.43036798
1.7524899 -0.48229998 0.43380898
1.72623 -0.47170898 0.43981993
1.7111501 -0.459824 0.44404593
1.71289 -0.44594899 0.44253999
1.71851 -0.43141103 0.44035298
1.72835 -0.41700599 0.43841496
1.72991 -0.405395 0.43985096
1.73444 -0.39518201 0.43722194
1.76697 -0.490659 0.42176998
1.75692 -0.481778 0.42506194
1.7278301 -0.47154498 0.43145597
1.7146699 -0.45839402 0.43495098
1.7169701 -0.44374698 0.43395096
1.71692 -0.43257001 0.43379197
1.7207899 -0.420632 0.43281797
1.73023 -0.40545899 0.43103194
1.7338001 -0.39504102 0.43010795
1.73406 -0.47116402 0.42222095
1.7236 -0.458554 0.42499596
1.71446 -0.44688401 0.42775595
1.7183599 -0.43313 0.42644596
1.73001 -0.41706198 0.42291996
1.7266201 -0.40553397 0.42409596
1.73323 -0.39558399 0.42264497
1.57612 -0.47445098 0.98760009
1.5692799 -0.46772802 0.98708344
1.56858 -0.47424001 0.98111463
1.57946 -0.4675 0.98221338
1.57884 -0.47514999 0.97578031
1.58998 -0.46700099 0.97667158
1.59049 -0.458103 0.97641236
1.6471801 -0.34575698 0.98791969
1.6467199 -0.337372 0.98735428
1.57248 -0.48288 0.96845937
1.58683 -0.47518903 0.97027153
1.5948 -0.465368 0.97089934
1.6020501 -0.45509201 0.97105497
1.64897 -0.34611699 0.98069602
1.5802799 -0.48231801 0.96364433
1.59093 -0.47388199 0.96477866
1.6012199 -0.46324903 0.96472567
1.6089101 -0.452593 0.96544915
1.5830499 -0.446055 0.96422905
1.66088 -0.35536098 0.97494066
1.65417 -0.347893 0.97402138
1.64902 -0.33660099 0.97397399
1.59899 -0.47254902 0.95964044
1.60438 -0.46357 0.95918047
1.60708 -0.45343602 0.95901734
1.6184399 -0.44046602 0.95906228
1.6118699 -0.42897999 0.95759636
1.6597 -0.356208 0.96783751
1.6501601 -0.347065 0.96751046
1.61115 -0.46230999 0.95396674
1.6197901 -0.451098 0.95339888
1.6252999 -0.43864399 0.95341349
1.61289 -0.42892399 0.95331907
1.6285001 -0.41932097 0.95424902
1.66311 -0.36849099 0.9583447
1.6565801 -0.35949099 0.95888555
1.6582201 -0.346903 0.96121466
1.6163901 -0.461059 0.94553566
1.6271499 -0.44929299 0.94703245
1.62657 -0.43737 0.94699514
1.6208999 -0.42749298 0.94805205
1.6328599 -0.41805699 0.94806623
1.66295 -0.36945099 0.95281351
1.6484101 -0.36128399 0.95200706
1.65965 -0.34999803 0.95366716
1.61202 -0.470682 0.93817157
1.61492 -0.46345901 0.93813795
1.61957 -0.45292401 0.93922675
1.6305799 -0.43979698 0.94078356
1.6282699 -0.42678398 0.94105065
1.6406599 -0.41721499 0.94231534
1.67311 -0.38159099 0.94518006
1.65961 -0.37294701 0.94498652
1.65844 -0.36142501 0.94625592
1.61711 -0.471259 0.93248427
1.6208501 -0.46255502 0.93243456
1.6271499 -0.45041999 0.93272609
1.63072 -0.43631303 0.93393469
1.6194501 -0.42602798 0.93333781
1.64314 -0.41701198 0.93583566
1.66901 -0.38133702 0.93973237
1.6608701 -0.37259901 0.93887055
1.66328 -0.36055198 0.93863505
1.6958001 -0.34307301 0.94310099
1.6218801 -0.47102699 0.92564315
1.6304801 -0.46158999 0.92682725
1.6278999 -0.451893 0.92561895
1.6312 -0.43854699 0.926162
1.62902 -0.42537701 0.9275139
1.65051 -0.41562098 0.92947739
1.66143 -0.38120201 0.93264061
1.6685001 -0.371842 0.9322719
1.6916001 -0.345768 0.9354223
1.6265199 -0.47167099 0.91906428
1.6246899 -0.46265 0.91923386
1.62884 -0.450537 0.91896105
1.63562 -0.43771499 0.9189406
1.6305701 -0.425542 0.9198758
1.6534599 -0.41332299 0.92257518
1.7086799 -0.393033 0.92449057
1.67617 -0.38088599 0.92662549
1.68592 -0.37057599 0.92653298
1.7024699 -0.35630402 0.92774045
1.6918401 -0.344015 0.92788476
1.62358 -0.47137901 0.91207051
1.62476 -0.46143699 0.91130483
1.63197 -0.44858301 0.91243523
1.6356701 -0.43754798 0.91293585
1.62825 -0.42608503 0.91214478
1.6550701 -0.41214198 0.91553473
1.6879201 -0.39751703 0.91822672
1.7007899 -0.38223302 0.92024642
1.70903 -0.36798802 0.92120016
1.7137101 -0.35600603 0.92167389
1.70682 -0.34524199 0.92120886
1.62429 -0.471809 0.90369743
1.6233001 -0.46256199 0.90425551
1.62568 -0.45175099 0.90511835
1.6290401 -0.43840998 0.90598822
1.62015 -0.42534101 0.9038651
1.64864 -0.41196099 0.90793043
1.67435 -0.39980203 0.91121936
1.69225 -0.38615501 0.91244024
1.71064 -0.37103599 0.91405517
1.71293 -0.356682 0.91443884
1.70623 -0.34505799 0.91425115
1.61994 -0.48266602 0.89563555
1.61949 -0.473681 0.89670098
1.62464 -0.46247602 0.89760756
1.6195799 -0.449287 0.89849228
1.60452 -0.43756598 0.89675957
1.60307 -0.42628399 0.89539701
1.6480701 -0.41106701 0.90107924
1.66448 -0.40042001 0.90399718
1.71972 -0.378737 0.90713286
1.71904 -0.36785197 0.90785116
1.72604 -0.35627201 0.90761924
1.7118601 -0.34457001 0.90757477
1.62536 -0.48624402 0.88884574
1.62368 -0.47510397 0.89021736
1.62621 -0.462071 0.88951159
1.6187301 -0.448722 0.8912425
1.60018 -0.43653703 0.89009142
1.5930001 -0.42637902 0.8881492
1.62535 -0.41326302 0.89302307
1.65597 -0.402235 0.89670235
1.73068 -0.37723202 0.90168744
1.7282699 -0.36672699 0.90145582
1.71459 -0.353562 0.8998614
1.70935 -0.34205201 0.89985842
1.6121299 -0.49601001 0.88080108
1.62756 -0.48664001 0.88297933
1.63056 -0.47404099 0.88290179
1.63185 -0.46123698 0.8830936
1.62845 -0.44991198 0.88434088
1.6061901 -0.437691 0.88416976
1.57862 -0.427627 0.88094831
1.56905 -0.418531 0.87987918
1.65071 -0.403101 0.89119875
1.7527901 -0.37629199 0.89826804
1.7250999 -0.35269797 0.89301717
1.72368 -0.341968 0.89361537
1.6289799 -0.50568902 0.87543386
1.6373801 -0.49684897 0.87643784
1.63106 -0.48573798 0.8768335
1.63183 -0.47529399 0.87592512
1.63222 -0.46242601 0.87634772
1.62921 -0.45096099 0.87784517
1.6180099 -0.439827 0.87762433
1.5426899 -0.42477298 0.87309164
1.5311501 -0.41760799 0.87134242
1.6955299 -0.52349401 0.86978966
1.6755099 -0.51436102 0.86910731
1.65019 -0.50112998 0.86963159
1.6388299 -0.487028 0.86962545
1.64117 -0.47278801 0.8698566
1.6403 -0.460857 0.86999112
1.63063 -0.45007402 0.87089038
1.6036501 -0.440676 0.86932504
1.51827 -0.42320901 0.86530203
1.6874299 -0.52248198 0.86434591
1.6683999 -0.512402 0.86336619
1.6476401 -0.498945 0.86241776
1.63477 -0.487055 0.86253685
1.63888 -0.47518903 0.86261249
1.6378701 -0.462071 0.86336744
1.6362 -0.45173901 0.8643114
1.6038001 -0.440909 0.86219716
1.7595301 -0.36048901 0.87189126
1.6894901 -0.52164602 0.85734105
1.66224 -0.51030099 0.85600752
1.64382 -0.498052 0.85516626
1.6412899 -0.48678198 0.85666895
1.63616 -0.47455502 0.85509157
1.6344 -0.46303099 0.85666358
1.63096 -0.45093 0.85656649
1.6081901 -0.44142202 0.85562956
1.7554401 -0.36145601 0.86510819
1.6978199 -0.52289903 0.84965533
1.6714901 -0.513008 0.84989429
1.65254 -0.50085902 0.84854478
1.6390401 -0.48686901 0.84947276
1.63888 -0.47454 0.84798729
1.63385 -0.461988 0.84988368
1.63539 -0.451377 0.84915727
1.6127901 -0.44234601 0.84928918
1.75195 -0.362371 0.85652953
1.7459199 -0.35278901 0.85750985
1.6959599 -0.522605 0.84275484
1.67441 -0.51288301 0.84259957
1.6468899 -0.50044203 0.8409096
1.6474 -0.487625 0.8422004
1.6448801 -0.47526699 0.84148788
1.63761 -0.462659 0.84241837
1.6406399 -0.451785 0.84246343
1.75778 -0.371263 0.84994608
1.7569901 -0.363628 0.85009062
1.74212 -0.35575902 0.85043818
1.68784 -0.52119398 0.83559901
1.66223 -0.51030701 0.83481306
1.6433799 -0.497208 0.8344841
1.6461 -0.48522702 0.83546829
1.63957 -0.47347599 0.83495951
1.6419799 -0.46132901 0.83531618
1.6432 -0.451758 0.83448458
1.74343 -0.36441001 0.84477293
1.7487301 -0.356199 0.84533441
1.6787699 -0.51993501 0.82828993
1.67219 -0.51186198 0.828686
1.64671 -0.50002402 0.82758695
1.6417199 -0.48580003 0.82766694
1.64371 -0.47153401 0.82811797
1.64863 -0.459997 0.82869196
1.65107 -0.45092401 0.82729697
1.6564 -0.50878602 0.82089496
1.64117 -0.49648499 0.82041597
1.63761 -0.48574001 0.82053894
1.64071 -0.47456199 0.820867
1.6483799 -0.46035001 0.82134598
1.6574299 -0.45002899 0.82184798
1.63968 -0.44251001 0.82157701
1.66387 -0.50739497 0.81242394
1.6432099 -0.49743998 0.81335098
1.6415199 -0.48513001 0.81408
1.64849 -0.47173801 0.81393796
1.6480099 -0.46016398 0.81383598
1.65636 -0.45071602 0.81596398
1.66724 -0.50835997 0.8049069
1.64808 -0.49803397 0.80602098
1.64252 -0.48722401 0.80719495
1.6403799 -0.47477001 0.80686998
1.64842 -0.46208 0.80702192
1.6530701 -0.451729 0.80762696
1.68041 -0.51047796 0.79794198
1.65741 -0.49967602 0.79880697
1.6455001 -0.48597801 0.79948997
1.6508 -0.47176102 0.799842
1.65276 -0.45991901 0.80017394
1.65309 -0.45125902 0.80039996
1.6967399 -0.519557 0.79140395
1.6757001 -0.509471 0.79122698
1.6465499 -0.49606702 0.79207796
1.6443601 -0.48511001 0.79247093
1.64397 -0.47436297 0.79282492
1.6490101 -0.46192402 0.79302496
1.65169 -0.45117599 0.7930119
