# .PCD v0.7 - Point Cloud Data file format
VERSION 0.7
FIELDS x y z
SIZE 4 4 4
TYPE F F F
COUNT 1 1 1
WIDTH 1604
HEIGHT 1
VIEWPOINT 0 0 0 1 0 0 0
POINTS 1604
DATA ascii
1.28476 -0.52785701 2.1828089
1.2927901 -0.51947999 2.1887789
1.29617 -0.508753 2.184999
1.31811 -0.50526404 2.206979
1.3200301 -0.493604 2.205379
1.31907 -0.48153001 2.1989291
1.3166901 -0.46696702 2.1910789
1.32313 -0.458336 2.1960888
1.32481 -0.44795799 2.1957691
1.3402699 -0.44201401 2.207989
1.35383 -0.43847999 2.219769
1.2814 -0.57232499 2.1830289
1.28289 -0.56439 2.181879
1.27818 -0.54983598 2.1731789
1.2823501 -0.53941202 2.1708388
1.28334 -0.52838302 2.1703391
1.29321 -0.51922697 2.1757989
1.29696 -0.50830102 2.1750088
1.3038001 -0.49926201 2.1781988
1.31459 -0.490897 2.188359
1.31327 -0.47699502 2.1798489
1.3176301 -0.46664602 2.1807489
1.3238699 -0.45812199 2.1866791
1.33323 -0.45040298 2.192349
1.35351 -0.44820598 2.2114191
1.28702 -0.57429796 2.177319
1.28297 -0.56200802 2.1700392
1.28284 -0.55026501 2.1659789
1.28886 -0.54291999 2.1669488
1.2919201 -0.53159404 2.1670089
1.29048 -0.51717603 2.1587892
1.3007201 -0.50868499 2.1674089
1.3077201 -0.49870399 2.169399
1.31251 -0.48882401 2.1724091
1.32082 -0.480073 2.176039
1.3182001 -0.46850699 2.1715689
1.32726 -0.46046799 2.178349
1.34287 -0.45550799 2.1921289
1.29494 -0.57748199 2.1723189
1.2883201 -0.56571901 2.1648688
1.2908299 -0.55523604 2.1634989
1.2917199 -0.54259199 2.1587892
1.28721 -0.52718103 2.1483991
1.29318 -0.51816601 2.151109
1.2957001 -0.50780797 2.149559
1.3043201 -0.49804401 2.1550391
1.3153 -0.490237 2.1631391
1.31972 -0.480892 2.1654692
1.3273599 -0.47219101 2.1700392
1.3339 -0.46363202 2.1744988
1.30968 -0.58426398 2.175159
1.29434 -0.56703699 2.158829
1.2929699 -0.55401796 2.1538589
1.29322 -0.54248601 2.148459
1.2885699 -0.528817 2.138279
1.28966 -0.51676601 2.1369088
1.2953501 -0.50727201 2.1373589
1.3025301 -0.49780601 2.1408188
1.3112301 -0.48877999 2.147269
1.3233299 -0.48132703 2.1570389
1.3328199 -0.47400501 2.1643591
1.32155 -0.59005904 2.1761389
1.30644 -0.57322699 2.1588488
1.29817 -0.55698603 2.1481791
1.29316 -0.54177499 2.1363888
1.30118 -0.50739801 2.1312089
1.30401 -0.49629799 2.1301088
1.3164901 -0.491604 2.141789
1.31793 -0.48076302 2.1395888
1.33618 -0.477819 2.1549189
1.32853 -0.592565 2.173419
1.3140301 -0.577079 2.156239
1.3069299 -0.56121498 2.1438789
1.33065 -0.48348901 2.1406391
1.33722 -0.477366 2.142679
1.31646 -0.57583499 2.147239
1.30796 -0.56135499 2.1322589
1.33681 -0.48514998 2.134809
1.3492999 -0.48175898 2.144269
1.3178 -0.57326901 2.134459
1.35446 -0.48378301 2.139509
1.23376 -0.55374199 2.3090491
1.22649 -0.58667302 2.3091691
1.2289901 -0.57560998 2.305119
1.23316 -0.56453604 2.302449
1.2341 -0.55377996 2.2973292
1.23436 -0.54469103 2.295409
1.23148 -0.59080201 2.3026388
1.2305599 -0.57579303 2.2935691
1.23183 -0.56325901 2.2880991
1.2342 -0.55416697 2.2862189
1.23194 -0.60151297 2.2951989
1.23155 -0.58843499 2.2890491
1.23211 -0.57614499 2.2823291
1.23243 -0.56383204 2.2766488
1.23564 -0.55646998 2.2763391
1.23877 -0.60546201 2.2925589
1.23579 -0.59165299 2.2823389
1.23455 -0.57738501 2.2736688
1.2318599 -0.564529 2.2661889
1.23982 -0.60353696 2.282629
1.23657 -0.58942801 2.2723889
1.22947 -0.573434 2.2588792
1.3213 -0.52031702 2.2913888
1.2528 -0.50756401 2.211319
1.3237 -0.52854502 2.2886992
1.3300999 -0.52469003 2.292279
1.2589099 -0.51961201 2.213639
1.27654 -0.51879799 2.2286789
1.3251401 -0.52889997 2.2797289
1.3347099 -0.526627 2.2870388
1.24038 -0.53102201 2.1899688
1.2603099 -0.53251201 2.209429
1.26792 -0.52389598 2.213939
1.2829 -0.519669 2.2246587
1.31227 -0.52374297 2.2533388
1.33394 -0.52496499 2.2734988
1.2555799 -0.54175299 2.1982691
1.25957 -0.53388697 2.1996789
1.26509 -0.52572399 2.2010291
1.27571 -0.51794302 2.2059188
1.31036 -0.52110696 2.238549
1.33061 -0.521873 2.2569888
1.3368 -0.51640999 2.260499
1.2946601 -0.442072 2.188159
1.2941099 -0.43362001 2.185359
1.25983 -0.56914902 2.1991389
1.2649 -0.56063998 2.2020888
1.2585 -0.54561597 2.1921589
1.26513 -0.53776401 2.195329
1.27106 -0.52672601 2.1938488
1.28177 -0.51878703 2.199219
1.30081 -0.51673299 2.2159891
1.3266001 -0.51857799 2.2400088
1.33907 -0.51637197 2.251369
1.3036799 -0.44837102 2.189249
1.3061399 -0.440065 2.1901989
1.30348 -0.43068999 2.1846688
1.27995 -0.582623 2.2127891
1.26805 -0.56533998 2.196039
1.26652 -0.55134302 2.1905189
1.27112 -0.53995299 2.1887689
1.27382 -0.529064 2.1848791
1.27988 -0.51951098 2.1870289
1.29245 -0.51236802 2.1943591
1.31795 -0.51314098 2.217999
1.33964 -0.514929 2.239259
1.30924 -0.46165502 2.188679
1.31375 -0.45519403 2.189769
1.3127999 -0.44439998 2.1876791
1.30994 -0.433961 2.1813488
1.2715499 -0.57580602 2.191849
1.2711101 -0.56405902 2.187289
1.26877 -0.549766 2.1803689
1.2728601 -0.539693 2.1782789
1.2781401 -0.528988 2.177269
1.28759 -0.52069497 2.1831989
1.29106 -0.509812 2.1792388
1.3044 -0.50551599 2.1908491
1.3329401 -0.50762999 2.2177992
1.3245101 -0.489353 2.1996589
1.3162301 -0.46899799 2.1856391
1.32286 -0.46045101 2.189539
1.31862 -0.44753501 2.182559
1.31358 -0.43572798 2.1736889
1.2779 -0.57907397 2.1849389
1.2779499 -0.56899101 2.182689
1.27247 -0.55176604 2.1722689
1.27456 -0.53921503 2.1684189
1.27882 -0.53008199 2.166429
1.2880599 -0.52096802 2.170939
1.29617 -0.51137298 2.172909
1.3013201 -0.50184298 2.1750689
1.31875 -0.49844399 2.1905789
1.3113999 -0.48049802 2.175209
1.31496 -0.46966401 2.173409
1.3228301 -0.461088 2.179189
1.3276 -0.45249099 2.1810291
1.29213 -0.58767503 2.187819
1.28644 -0.57418996 2.1796389
1.2790899 -0.557778 2.1685488
1.27861 -0.54244798 2.160989
1.28821 -0.53364396 2.1654789
1.2851601 -0.51911497 2.1550689
1.29304 -0.51130599 2.160769
1.3010601 -0.50176901 2.1625891
1.3074299 -0.49095699 2.1664491
1.31635 -0.48143601 2.1679089
1.32248 -0.47170398 2.1709588
1.3276601 -0.46433499 2.1724389
1.29879 -0.591609 2.1828589
1.29661 -0.57972097 2.1780992
1.28207 -0.55701399 2.158689
1.28176 -0.54390204 2.1527491
1.28811 -0.53469396 2.154099
1.2844501 -0.51812303 2.1420889
1.2910899 -0.50875098 2.147089
1.29539 -0.49713099 2.1432691
1.3125501 -0.49234402 2.1582191
1.31688 -0.481929 2.157809
1.3239999 -0.47422698 2.161449
1.3344501 -0.47027501 2.1679292
1.31265 -0.59951097 2.185679
1.31156 -0.58980501 2.1820889
1.2894901 -0.56016803 2.1536989
1.28898 -0.54737699 2.1498089
1.2874899 -0.53255796 2.1403689
1.28651 -0.51798302 2.132159
1.29282 -0.508784 2.136889
1.2983 -0.49880099 2.1345389
1.3049699 -0.48889899 2.138119
1.31984 -0.48367 2.1508989
1.3213 -0.47384799 2.1466589
1.32022 -0.60249102 2.1828089
1.31883 -0.59230101 2.1775689
1.3018899 -0.56908298 2.1551189
1.2936301 -0.54897201 2.1414788
1.32013 -0.48413798 2.1382489
1.32533 -0.476004 2.1374989
1.3238699 -0.59435004 2.1734688
1.3177699 -0.578816 2.1619189
1.30679 -0.55907798 2.145539
1.34022 -0.59433901 2.1781089
1.31364 -0.56239498 2.1443288
1.2601399 -0.52644199 2.2237589
1.2712799 -0.52072603 2.2307589
1.26703 -0.50761396 2.2222989
1.24421 -0.54311699 2.208389
1.25962 -0.54077101 2.2208891
1.26563 -0.52932501 2.220629
1.27512 -0.52198702 2.2256689
1.2792701 -0.51522803 2.227469
1.24674 -0.556297 2.207679
1.2567099 -0.55251598 2.213949
1.25904 -0.53972602 2.210259
1.26397 -0.52950799 2.208359
1.26957 -0.51897597 2.2080288
1.28022 -0.51495099 2.217129
1.26498 -0.58363998 2.2209492
1.26071 -0.568546 2.2130389
1.2585701 -0.55317098 2.2040391
1.25843 -0.53768903 2.1980391
1.26555 -0.52850896 2.1975088
1.2712001 -0.51837099 2.197659
1.28122 -0.51184702 2.201869
1.2767299 -0.49396899 2.186929
1.26819 -0.58550704 2.2147489
1.2611099 -0.56860697 2.2025189
1.2638099 -0.55822897 2.1979489
1.26484 -0.543369 2.193249
1.27114 -0.53312498 2.1919889
1.2759401 -0.52061903 2.1903889
1.2863499 -0.511841 2.1942091
1.2945501 -0.50553 2.1984589
1.3038001 -0.49913299 2.2001388
1.27315 -0.58917898 2.2084188
1.26693 -0.57314801 2.196219
1.265 -0.556122 2.1867788
1.26926 -0.54330897 2.184329
1.27219 -0.53093499 2.1813691
1.2773401 -0.52105701 2.1784089
1.2869 -0.51259398 2.183439
1.2998101 -0.50611901 2.1919291
1.3128101 -0.502361 2.199369
1.3150301 -0.493321 2.1954191
1.2686 -0.58508998 2.1910291
1.27482 -0.57935202 2.1929789
1.27273 -0.56517798 2.1850791
1.27531 -0.55109298 2.180449
1.27722 -0.53539002 2.1746688
1.2848101 -0.52634299 2.176019
1.28739 -0.51416302 2.171849
1.3000901 -0.50654703 2.1801388
1.3131599 -0.50102103 2.189219
1.3089999 -0.48474601 2.1750791
1.3047099 -0.47069302 2.1647689
1.27937 -0.59284997 2.1910789
1.27739 -0.579772 2.183279
1.2776101 -0.56492102 2.177669
1.27733 -0.548913 2.1686089
1.27968 -0.53675497 2.165889
1.2851 -0.52693903 2.1659989
1.2894701 -0.51557398 2.162199
1.2976401 -0.50572896 2.1645288
1.30496 -0.49444801 2.1678689
1.30753 -0.48170799 2.1610789
1.3150001 -0.47627202 2.1662588
1.28196 -0.59390599 2.1819389
1.2942599 -0.591106 2.186919
1.28317 -0.567828 2.1706588
1.27944 -0.54972303 2.158819
1.2852401 -0.54010797 2.1611788
1.2895399 -0.52860498 2.1578889
1.28789 -0.51233101 2.1485691
1.29181 -0.50058401 2.145689
1.3024499 -0.4921 2.151309
1.30976 -0.48179099 2.1514289
1.3171201 -0.475584 2.1554389
1.2996601 -0.60619998 2.187429
1.3071699 -0.59992999 2.188839
1.29188 -0.57459801 2.167779
1.2899801 -0.55948502 2.1612189
1.28962 -0.54376596 2.153789
1.2806 -0.52121902 2.1359589
1.2909801 -0.51249802 2.1387091
1.29702 -0.50016898 2.138979
1.2989399 -0.488859 2.1362588
1.31345 -0.48608398 2.146019
1.31865 -0.47606999 2.145519
1.3152499 -0.463162 2.1361489
1.32198 -0.62438798 2.2022691
1.3184301 -0.611947 2.194309
1.29961 -0.57718897 2.1626289
1.29538 -0.56160098 2.1551089
1.2890401 -0.541246 2.1398191
1.2866701 -0.52424502 2.130039
1.30804 -0.49332401 2.1341691
1.3140199 -0.48286599 2.1348889
1.32201 -0.47542301 2.1364591
1.33801 -0.47504798 2.1464789
1.3297701 -0.62119204 2.1985691
1.3085099 -0.580746 2.1585488
1.3018401 -0.56391698 2.1477289
1.3324499 -0.47984099 2.135339
1.34384 -0.47715402 2.140609
1.3239501 -0.59159601 2.165519
1.31099 -0.570683 2.146399
1.3525701 -0.48210898 2.1390491
1.3087801 -0.56426799 2.1308188
1.32345 -0.591456 2.1346788
1.24638 -0.56342798 2.1993589
1.25915 -0.56304902 2.207319
1.26412 -0.57835698 2.2103791
1.2624401 -0.56444097 2.201509
1.25735 -0.54710501 2.1885488
1.2697001 -0.583534 2.206809
1.26837 -0.57060003 2.1987989
1.26121 -0.548756 2.181819
1.25756 -0.530541 2.169529
1.27403 -0.58608401 2.1999891
1.26709 -0.56623101 2.183269
1.2657499 -0.55000502 2.174789
1.26955 -0.53840303 2.170969
1.27158 -0.52548301 2.165139
1.26337 -0.57473898 2.1747789
1.2739 -0.57109797 2.176929
1.2688401 -0.55080503 2.1663888
1.27334 -0.5395 2.163929
1.27757 -0.52933496 2.161279
1.28251 -0.51739699 2.1569791
1.28917 -0.50617999 2.1533689
1.2736 -0.58265996 2.172739
1.28204 -0.57695502 2.173749
1.2771701 -0.55769402 2.1628189
1.2790799 -0.54312199 2.1594291
1.2814101 -0.52855402 2.1524289
1.2852401 -0.51505697 2.147279
1.2894599 -0.50384998 2.1438291
1.2880701 -0.49067798 2.136059
1.2766401 -0.58512199 2.1670589
1.2874401 -0.58122998 2.1702688
1.2893 -0.56721503 2.1635189
1.2813201 -0.54280996 2.148309
1.28548 -0.52862501 2.1445589
1.28654 -0.51340097 2.136379
1.2872901 -0.498932 2.1311388
1.31804 -0.61708701 2.1892691
1.31988 -0.60764599 2.1861789
1.29865 -0.574462 2.161459
1.29381 -0.55416697 2.1490688
1.28668 -0.53070903 2.1350088
1.3158799 -0.60207498 2.1736991
1.31361 -0.58819598 2.1663589
1.30384 -0.56372899 2.148349
1.3138901 -0.58310801 2.1540589
1.3007801 -0.55523604 2.131119
1.24246 -0.59906298 2.3093891
1.23322 -0.579988 2.307739
1.23044 -0.56920898 2.3086689
1.25115 -0.59862596 2.3060889
1.2436399 -0.58880502 2.3033891
1.23693 -0.58004397 2.2976089
1.23177 -0.57068402 2.297009
1.22846 -0.56056398 2.2986689
1.22988 -0.54935902 2.3044291
1.2638401 -0.60408199 2.304589
1.2555799 -0.59534097 2.2993188
1.24642 -0.58672798 2.2927091
1.24027 -0.576671 2.2894392
1.2402201 -0.56414598 2.2966189
1.23655 -0.55476397 2.297539
1.22892 -0.54769403 2.2900088
1.23174 -0.53588301 2.2971587
1.22684 -0.52903801 2.2939091
1.26746 -0.60206699 2.295979
1.2586499 -0.59338701 2.2895989
1.24896 -0.58487701 2.2825189
1.24412 -0.57565999 2.279799
1.23834 -0.56682402 2.2804787
1.2355 -0.55520898 2.2818491
1.23777 -0.54120302 2.290519
1.23514 -0.5327 2.291939
1.23395 -0.525603 2.2930591
1.28703 -0.60547 2.3037891
1.26823 -0.60097301 2.284179
1.25828 -0.59223801 2.2758191
1.2551399 -0.58193403 2.278079
1.24582 -0.575858 2.2690289
1.24466 -0.564556 2.2742591
1.24134 -0.55354804 2.2730989
1.24031 -0.54169101 2.2798889
1.23754 -0.53176898 2.2835488
1.2349299 -0.52483702 2.280679
1.30067 -0.60236901 2.3068991
1.2645401 -0.59944499 2.2678089
1.2616 -0.59209299 2.2654488
1.25486 -0.58317697 2.2637892
1.2524199 -0.57187003 2.2659087
1.24877 -0.56170201 2.2660089
1.24404 -0.55300099 2.2631891
1.24105 -0.54283696 2.2660389
1.2408201 -0.53078997 2.272949
1.24492 -0.51997501 2.2793689
1.30953 -0.59981203 2.3034289
1.2707801 -0.59761 2.2612188
1.26486 -0.58950698 2.2569392
1.25915 -0.57919997 2.256669
1.2589099 -0.567882 2.262399
1.25177 -0.56003499 2.2567091
1.24815 -0.54878104 2.2566488
1.2486 -0.53590697 2.2649789
1.2505001 -0.524849 2.2727289
1.24972 -0.51753896 2.2724187
1.3021001 -0.59816098 2.2832291
1.27684 -0.59546101 2.2553089
1.2687 -0.58890498 2.2490492
1.26562 -0.58005202 2.2496891
1.2596 -0.56931001 2.2488489
1.2569001 -0.557383 2.248909
1.25296 -0.54665399 2.2489889
1.25015 -0.53621101 2.2526388
1.252 -0.52454799 2.261889
1.24915 -0.51739103 2.2589688
1.28451 -0.59397596 2.2513089
1.27632 -0.58682996 2.2458591
1.2681301 -0.57773602 2.2403688
1.2622399 -0.56756002 2.2379088
1.2572399 -0.55839801 2.235409
1.2600499 -0.54608297 2.2447791
1.25411 -0.53570998 2.242739
1.25668 -0.52246201 2.2535489
1.26054 -0.51209497 2.261399
1.2982001 -0.595505 2.252049
1.28759 -0.59139997 2.243469
1.2793 -0.58441699 2.236589
1.27259 -0.57511699 2.232589
1.2627701 -0.56624597 2.2252188
1.25872 -0.55518901 2.2270989
1.26561 -0.54122299 2.2407489
1.25493 -0.53419995 2.2300689
1.25676 -0.52277899 2.2395191
1.2636499 -0.510912 2.2539091
1.2878 -0.58995402 2.2321491
1.2805099 -0.58299398 2.2253189
1.27556 -0.57358599 2.2232089
1.26579 -0.56571203 2.2148292
1.2621499 -0.55586898 2.2184789
1.2595 -0.54397702 2.2197289
1.25866 -0.53154802 2.2227089
1.2557399 -0.52276301 2.225359
1.25998 -0.51269603 2.2365689
1.29058 -0.587758 2.2210989
1.28553 -0.580235 2.2194989
1.27824 -0.57264501 2.213439
1.26875 -0.56465697 2.205379
1.26557 -0.55405498 2.2102389
1.2571 -0.545389 2.2023191
1.2574099 -0.53336698 2.209239
1.25543 -0.52309299 2.212189
1.25581 -0.51436698 2.2184188
1.29676 -0.58573401 2.2151787
1.29142 -0.57908297 2.2129488
1.2821801 -0.57121599 2.205039
1.27403 -0.56306899 2.199379
1.2674 -0.55348402 2.1983891
1.26297 -0.54286098 2.196209
1.2586499 -0.5341 2.1984091
1.25704 -0.523781 2.2009389
1.26038 -0.51237899 2.2091792
1.29977 -0.58509398 2.2066791
1.2965 -0.57707298 2.205039
1.2840199 -0.56924701 2.194679
1.27775 -0.55941004 2.194629
1.2713701 -0.54995096 2.190259
1.27283 -0.53824502 2.1970289
1.26608 -0.52990603 2.1950791
1.26502 -0.51778704 2.1977789
1.26832 -0.50792003 2.206269
1.32961 -0.58535701 2.2191391
1.3078799 -0.58377802 2.2007589
1.29882 -0.57634801 2.1942389
1.2858299 -0.56936699 2.1828392
1.28205 -0.55835098 2.186959
1.27792 -0.54806399 2.183769
1.27537 -0.53609401 2.1887689
1.27238 -0.52398401 2.1903589
1.27068 -0.513969 2.1919689
1.27016 -0.50631499 2.196959
1.32962 -0.58590299 2.2093689
1.31041 -0.583664 2.190979
1.30057 -0.575652 2.1835089
1.29116 -0.56778502 2.1764889
1.2859 -0.55744201 2.177289
1.279 -0.54750401 2.1721289
1.2794499 -0.53558302 2.179389
1.27677 -0.524225 2.1822588
1.27504 -0.51271898 2.1849489
1.27416 -0.50346696 2.188529
1.3430099 -0.59214401 2.2034891
1.32038 -0.59053397 2.1850491
1.3156301 -0.58127999 2.1840491
1.3030299 -0.573488 2.173939
1.29487 -0.563954 2.1706491
1.2855201 -0.55517101 2.165309
1.28216 -0.54607898 2.1652889
1.2808099 -0.53593898 2.167609
1.2768 -0.52569002 2.1699688
1.27764 -0.51295 2.1745389
1.27228 -0.50377899 2.1742289
1.26367 -0.49911499 2.1685488
1.33369 -0.59436297 2.1836691
1.32919 -0.586312 2.1828988
1.31319 -0.58018297 2.170049
1.30941 -0.57175803 2.169699
1.3023801 -0.56417102 2.165669
1.29327 -0.55524504 2.1606491
1.28671 -0.54506302 2.1588888
1.28144 -0.53527802 2.1560888
1.2845199 -0.52104598 2.1657989
1.2842599 -0.50919104 2.1707089
1.28057 -0.50054401 2.1711788
1.27158 -0.49532902 2.1663089
1.31573 -0.41682702 2.2352891
1.31313 -0.406068 2.239429
1.3049201 -0.396898 2.237529
1.30011 -0.38707599 2.2382889
1.34772 -0.58920598 2.187619
1.33419 -0.58564097 2.1759689
1.32533 -0.57776797 2.1705289
1.31295 -0.570364 2.162919
1.30467 -0.56104302 2.1564689
1.2964799 -0.55155498 2.153929
1.28962 -0.54205102 2.1495788
1.2882401 -0.53013402 2.1543288
1.2872701 -0.51942903 2.1552992
1.2862101 -0.50700599 2.1615989
1.28442 -0.49624199 2.1647291
1.3144901 -0.46680802 2.2000589
1.3213699 -0.453421 2.2119589
1.31408 -0.44503897 2.209729
1.3081599 -0.43348703 2.211319
1.3072 -0.42324698 2.2152991
1.30942 -0.408373 2.2249188
1.3081 -0.39406398 2.231369
1.30687 -0.381273 2.236949
1.34372 -0.58134997 2.1761789
1.33163 -0.57650602 2.1661389
1.32249 -0.56701201 2.1595888
1.3050799 -0.56122297 2.1450989
1.3015 -0.55081904 2.146179
1.29138 -0.54177397 2.137799
1.2891099 -0.53043497 2.143429
1.28461 -0.52109796 2.1404889
1.28688 -0.507559 2.147969
1.2939 -0.49182799 2.1629291
1.30838 -0.47326601 2.1843891
1.3092301 -0.45964101 2.189429
1.30882 -0.44764501 2.1949589
1.31121 -0.43414199 2.2037089
1.3124001 -0.42000702 2.210629
1.3137801 -0.40746897 2.216799
1.31162 -0.39621699 2.2211089
1.31198 -0.38198501 2.229049
1.3081399 -0.369504 2.232589
1.3373899 -0.57197303 2.1619389
1.3248199 -0.56630599 2.149009
1.31545 -0.55804801 2.1443491
1.30735 -0.54761702 2.1395991
1.2912899 -0.52904803 2.132889
1.2923399 -0.51506698 2.138639
1.28987 -0.50443196 2.1401289
1.2983299 -0.49004 2.1552992
1.30933 -0.47285998 2.174289
1.30987 -0.46001998 2.176929
1.31133 -0.446246 2.187429
1.31864 -0.429378 2.200089
1.31963 -0.41530299 2.208569
1.3217999 -0.40205002 2.2168391
1.32178 -0.388531 2.2241888
1.3248 -0.372803 2.235899
1.33339 -0.57091802 2.1455991
1.3290401 -0.56306899 2.1424091
1.31661 -0.55527502 2.1327288
1.2961999 -0.50265598 2.1355588
1.2950599 -0.49193099 2.140399
1.3097301 -0.473052 2.1613889
1.31227 -0.45963001 2.1673989
1.31661 -0.4447 2.1798689
1.32364 -0.42933801 2.1937289
1.32209 -0.41639501 2.2007089
1.3398199 -0.38985297 2.2305789
1.3350799 -0.56909597 2.1355991
1.32955 -0.56201601 2.1304691
1.32542 -0.552854 2.130239
1.30196 -0.48746201 2.136539
1.3153399 -0.46872699 2.156899
1.32781 -0.45166999 2.175869
1.33179 -0.43734601 2.187629
1.3123599 -0.472231 2.141829
1.23211 -0.55841899 2.307529
1.2532001 -0.59697497 2.307019
1.2438999 -0.588166 2.301399
1.2427 -0.577447 2.303659
1.23914 -0.56697899 2.3011289
1.23545 -0.557217 2.2979388
1.2361901 -0.54635298 2.3046389
1.2584 -0.59551603 2.2994392
1.25252 -0.58622897 2.2978289
1.24365 -0.57652599 2.2902689
1.23751 -0.56703699 2.285459
1.2361 -0.55734199 2.286159
1.2368699 -0.54611701 2.2914689
1.2409301 -0.53465402 2.3018689
1.27116 -0.600618 2.301239
1.2620701 -0.593018 2.2925391
1.2514601 -0.58482498 2.282959
1.24479 -0.57541102 2.2778487
1.24014 -0.56495303 2.2755389
1.24152 -0.55388498 2.2827189
1.23742 -0.54484296 2.2785089
1.24321 -0.53334099 2.291569
1.24857 -0.52406001 2.3032489
1.2769799 -0.59942102 2.2949688
1.26276 -0.59167498 2.2814689
1.25625 -0.58322698 2.2753489
1.24804 -0.57389498 2.267519
1.24412 -0.563613 2.2668588
1.24317 -0.55354804 2.271939
1.24202 -0.54313499 2.2706492
1.24589 -0.53215599 2.2813189
1.24633 -0.52423799 2.287509
1.3043699 -0.60388899 2.3090589
1.2876899 -0.59846801 2.2941489
1.2724299 -0.590698 2.279459
1.2579 -0.58274198 2.263469
1.2526001 -0.57399899 2.2593589
1.2502201 -0.56428796 2.2610888
1.24608 -0.553258 2.2602091
1.24388 -0.54194999 2.260339
1.247 -0.53151101 2.269419
1.25159 -0.52239299 2.2806389
1.2857001 -0.59620798 2.2802591
1.27598 -0.58794802 2.2695789
1.2618699 -0.58046198 2.2550189
1.2607701 -0.57023203 2.2590389
1.2571701 -0.56097502 2.257139
1.24772 -0.55314499 2.247879
1.24879 -0.54226702 2.253839
1.25061 -0.53057498 2.2598388
1.25561 -0.52112502 2.2719588
1.2814 -0.59431303 2.2602689
1.27413 -0.58672899 2.2542889
1.2665401 -0.579512 2.248729
1.26273 -0.57036901 2.2481492
1.2596099 -0.55936199 2.246099
1.2527601 -0.54921502 2.2427187
1.25668 -0.53662801 2.2514789
1.2538099 -0.52790296 2.251179
1.25772 -0.51995701 2.2611289
1.28978 -0.59256399 2.2567389
1.28442 -0.58601099 2.252239
1.27183 -0.57850701 2.243609
1.26915 -0.56834 2.2419589
1.2668 -0.55884999 2.2407691
1.25949 -0.55017501 2.2367389
1.25657 -0.53869098 2.2368789
1.25653 -0.52764601 2.2421992
1.2602401 -0.51875299 2.2514191
1.2937199 -0.59139901 2.2491488
1.2899201 -0.58471698 2.2452788
1.2792701 -0.57717901 2.2379291
1.27367 -0.56675601 2.2339191
1.2654901 -0.55781001 2.2280891
1.26231 -0.547535 2.2278588
1.25734 -0.53797102 2.223839
1.25482 -0.52877802 2.226619
1.25983 -0.51902902 2.2377789
1.29837 -0.58899999 2.241019
1.28917 -0.58311796 2.2341392
1.2819999 -0.57467097 2.228049
1.2768 -0.56437403 2.2248089
1.26885 -0.55522901 2.220989
1.26328 -0.546188 2.215899
1.2651 -0.53550202 2.2218587
1.2561901 -0.52889097 2.2153189
1.2532099 -0.520684 2.2152991
1.3056799 -0.58711797 2.2352591
1.29325 -0.58158201 2.2256589
1.28365 -0.57260799 2.217499
1.27513 -0.565184 2.2111089
1.27486 -0.55519098 2.214499
1.26763 -0.54651403 2.2075188
1.26106 -0.53650498 2.2050989
1.25941 -0.525787 2.208189
1.25783 -0.51716501 2.2061188
1.31293 -0.58538198 2.231899
1.3011301 -0.58104801 2.2216392
1.2888901 -0.57360297 2.2096891
1.28306 -0.56333697 2.2093689
1.27579 -0.55428004 2.2026589
1.2710099 -0.54427898 2.200109
1.2654799 -0.53565198 2.196739
1.26419 -0.52464402 2.2001388
1.26843 -0.51203799 2.2061789
1.27292 -0.50305998 2.2152891
1.30216 -0.57977098 2.2099891
1.2873801 -0.57322103 2.1940088
1.28585 -0.56238699 2.1996689
1.27613 -0.553038 2.1902092
1.2712899 -0.54301602 2.1896288
1.26919 -0.53329498 2.1897089
1.27281 -0.520123 2.1965089
1.27468 -0.50842899 2.2022791
1.27493 -0.500422 2.206439
1.31408 -0.58397597 2.2081089
1.30381 -0.57862598 2.198339
1.29388 -0.571181 2.188509
1.28567 -0.56219798 2.1862688
1.28382 -0.552288 2.185539
1.2771 -0.54233301 2.183109
1.27494 -0.53029799 2.1833189
1.2781501 -0.518987 2.1912289
1.27564 -0.50916201 2.1913488
1.27888 -0.49822798 2.200129
1.27494 -0.491137 2.196969
1.31424 -0.58454603 2.195329
1.3060001 -0.57780498 2.1894088
1.30091 -0.57023799 2.184449
1.2898899 -0.560794 2.1769791
1.28222 -0.55053198 2.1738191
1.28177 -0.53931898 2.1749389
1.27765 -0.52906001 2.1740789
1.28207 -0.51763201 2.1849589
1.27728 -0.50815398 2.180079
1.2785 -0.49698001 2.1875188
1.2879801 -0.48563498 2.200989
1.31075 -0.38523301 2.2577789
1.3588201 -0.59711897 2.220129
1.3373801 -0.59406602 2.199769
1.3248301 -0.58626997 2.1914191
1.31573 -0.57670301 2.187089
1.30079 -0.56865001 2.173269
1.29386 -0.55878502 2.1675189
1.28988 -0.54807699 2.169699
1.28649 -0.53850102 2.1685691
1.2854899 -0.52812403 2.1703188
1.2838401 -0.51719201 2.174809
1.28176 -0.507388 2.173059
1.2805099 -0.49698299 2.175719
1.27614 -0.48961201 2.1768088
1.3139 -0.412534 2.236279
1.3060499 -0.40379602 2.2324891
1.3037 -0.390993 2.2381089
1.3015699 -0.37993598 2.242209
1.3475101 -0.59832597 2.1994791
1.3358099 -0.59274602 2.1903188
1.32847 -0.58382601 2.1843591
1.31756 -0.574117 2.176589
1.30398 -0.56562799 2.164829
1.29487 -0.55761796 2.1573789
1.2921801 -0.54823202 2.1587789
1.28959 -0.53710699 2.1606688
1.2838901 -0.52716899 2.1568589
1.2878 -0.51564604 2.1668689
1.2856101 -0.50413501 2.1660089
1.27794 -0.49687302 2.161979
1.28052 -0.48878399 2.169189
1.31538 -0.444913 2.213429
1.3107699 -0.43736801 2.2119389
1.30414 -0.42719701 2.2118189
1.3064301 -0.41536498 2.2188189
1.3049999 -0.40422401 2.221029
1.30515 -0.39338401 2.228159
1.3038299 -0.38246799 2.2316887
1.34834 -0.59703803 2.1898191
1.3454499 -0.58948302 2.189429
1.32926 -0.58404398 2.173569
1.3298301 -0.57376701 2.1766989
1.31398 -0.56564802 2.1624589
1.30312 -0.556813 2.1551089
1.2964599 -0.54821801 2.1520789
1.2947099 -0.53725398 2.152539
1.2899001 -0.52706599 2.152689
1.2899801 -0.514862 2.155519
1.2875501 -0.50321203 2.1555789
1.28758 -0.49305901 2.1612289
1.3138001 -0.46803102 2.1899989
1.3199899 -0.45587003 2.202359
1.31441 -0.446794 2.2029791
1.30866 -0.43962002 2.1992888
1.3093801 -0.42681703 2.2063489
1.31177 -0.41285199 2.2132292
1.30768 -0.40309298 2.2138989
1.30778 -0.39187199 2.2200892
1.31204 -0.377211 2.230289
1.3570399 -0.58628297 2.1912088
1.33857 -0.58064002 2.1733189
1.3282499 -0.57117099 2.164289
1.32022 -0.56350303 2.1582689
1.31182 -0.55621397 2.152149
1.30287 -0.546386 2.146569
1.3001801 -0.53460997 2.145309
1.29526 -0.52491099 2.147099
1.28462 -0.51740801 2.1366389
1.28642 -0.50568402 2.1422088
1.29563 -0.49020803 2.1561289
1.30725 -0.47386003 2.173609
1.31284 -0.45973998 2.1840789
1.31565 -0.447476 2.1935689
1.3158299 -0.43521702 2.1966791
1.3133399 -0.42385799 2.1998689
1.3186799 -0.41192299 2.208899
1.31291 -0.40165699 2.2100189
1.3211 -0.384247 2.2267289
1.35464 -0.57707804 2.1812789
1.34161 -0.56860602 2.168119
1.32392 -0.562024 2.152159
1.31373 -0.55330104 2.1429789
1.3070599 -0.54313302 2.138519
1.29582 -0.52390599 2.1355491
1.2937399 -0.50047296 2.1392889
1.2982899 -0.488042 2.1470289
1.31005 -0.47384998 2.1643789
1.3136001 -0.460812 2.172929
1.3188699 -0.44631699 2.1845191
1.3236799 -0.433406 2.193619
1.32005 -0.42346802 2.1957889
1.32716 -0.40854698 2.2104089
1.3243401 -0.56053799 2.1390491
1.3170301 -0.550457 2.1345789
1.29462 -0.49118802 2.131449
1.3028599 -0.47723499 2.144489
1.31445 -0.46202302 2.161319
1.31979 -0.44869301 2.1715288
1.33047 -0.433507 2.189569
1.33851 -0.56455302 2.138979
1.3330901 -0.55891603 2.1347589
1.32636 -0.55126595 2.131429
1.30876 -0.47292301 2.1410489
1.32625 -0.45448399 2.1648591
1.3364199 -0.441921 2.178849
1.3392301 -0.44824699 2.1703091
1.35291 -0.436104 2.1870489
1.23874 -0.57163203 2.3085589
1.2368599 -0.56131399 2.3088391
1.23562 -0.55030799 2.3090689
1.24989 -0.588485 2.3054888
1.24878 -0.57910097 2.306479
1.24202 -0.56830299 2.2989891
1.23903 -0.55801201 2.2993891
1.2373 -0.54867297 2.2967091
1.2371 -0.53986901 2.300539
1.2665 -0.59754199 2.309119
1.2564 -0.58799899 2.300539
1.24806 -0.57800096 2.2910388
1.24297 -0.56824601 2.2847488
1.24257 -0.55709898 2.290139
1.2417901 -0.54773301 2.2909491
1.2412601 -0.53851199 2.2916489
1.23928 -0.53105199 2.2937491
1.27624 -0.60358697 2.3064389
1.2671399 -0.595164 2.298619
1.2585601 -0.58662301 2.2889688
1.2507499 -0.57735199 2.2805288
1.24903 -0.56803799 2.2790289
1.24484 -0.55781698 2.2776191
1.24545 -0.54699999 2.2840989
1.24418 -0.53698897 2.281019
1.24845 -0.52602798 2.2898388
1.2891999 -0.60318804 2.3095691
1.27473 -0.59517896 2.294029
1.25868 -0.58621001 2.275209
1.2552301 -0.57599902 2.2730289
1.2521601 -0.56570899 2.2704589
1.2478399 -0.55562699 2.2683289
1.24905 -0.54610902 2.2750988
1.24371 -0.53742498 2.2677491
1.24788 -0.52578801 2.2751691
1.26308 -0.512936 2.2976489
1.26995 -0.50421298 2.3078289
1.2917199 -0.60200804 2.300339
1.27644 -0.59395802 2.2819791
1.2654099 -0.58434701 2.2693892
1.25898 -0.574449 2.2656891
1.25804 -0.56590903 2.264199
1.2535601 -0.55559099 2.2614889
1.25349 -0.54483104 2.2672989
1.2485399 -0.53434199 2.2609987
1.25559 -0.52239603 2.2718091
1.26336 -0.51228899 2.2854691
1.275 -0.50277901 2.3035791
1.29656 -0.59963298 2.293299
1.2793499 -0.59259498 2.2717888
1.27264 -0.584553 2.2642889
1.2649601 -0.574862 2.2588489
1.25986 -0.56369501 2.253459
1.2564499 -0.553352 2.2520189
1.25778 -0.54286402 2.258209
1.2549701 -0.53248101 2.2556088
1.25493 -0.52284598 2.2587891
1.26614 -0.51135999 2.2757387
1.27124 -0.50302398 2.2860889
1.29347 -0.597543 2.2746189
1.28628 -0.59063703 2.267909
1.2720701 -0.58308899 2.2519889
1.26331 -0.57286203 2.2426388
1.2617199 -0.56277102 2.2429388
1.26235 -0.55317003 2.2467589
1.26176 -0.54275799 2.2488792
1.26211 -0.53203303 2.2520788
1.25938 -0.52225298 2.251519
1.26564 -0.51163101 2.2619989
1.27264 -0.50259203 2.274039
1.30634 -0.59533399 2.2764289
1.28681 -0.59001803 2.2556188
1.27361 -0.58138698 2.2407088
1.26773 -0.57217002 2.234499
1.26424 -0.563088 2.234009
1.26527 -0.55362302 2.2387891
1.26423 -0.54312801 2.2380788
1.26112 -0.53252602 2.2379389
1.266 -0.52126402 2.2468688
1.2647799 -0.512245 2.248739
1.25948 -0.5054 2.2435889
1.2983 -0.58871496 2.2563691
1.2849201 -0.582012 2.2411289
1.27464 -0.57323503 2.2307191
1.27044 -0.56274301 2.2277889
1.26753 -0.55242997 2.2294989
1.26455 -0.542292 2.224519
1.26746 -0.53126299 2.2323589
1.26243 -0.52239496 2.2309089
1.2628 -0.51240003 2.2334089
1.26305 -0.50405902 2.232759
1.2902 -0.58761299 2.232929
1.28294 -0.57954603 2.226279
1.2763 -0.57056701 2.221159
1.27233 -0.56152499 2.2164288
1.27273 -0.55132097 2.2222989
1.2675 -0.54246598 2.2156789
1.26237 -0.53233302 2.212589
1.26402 -0.52106398 2.221029
1.2596 -0.51169401 2.2159791
1.25183 -0.50528002 2.206629
1.29834 -0.586146 2.2291291
1.2935699 -0.57935697 2.225389
1.28233 -0.57028198 2.2145491
1.27557 -0.56108701 2.2089291
1.27518 -0.55111599 2.211509
1.26873 -0.54076302 2.205529
1.26489 -0.530945 2.202379
1.2695401 -0.51945901 2.2140892
1.26219 -0.510602 2.205389
1.2737 -0.50055903 2.2207589
1.2995 -0.58540404 2.218219
1.29091 -0.57851398 2.2108591
1.28984 -0.569956 2.2094088
1.2831399 -0.55985498 2.2055991
1.27591 -0.54867899 2.199199
1.27229 -0.53879201 2.1986389
1.27386 -0.52970904 2.2007089
1.2674099 -0.51999903 2.197309
1.26858 -0.50950098 2.1996989
1.27422 -0.49996299 2.2088389
1.30952 -0.583987 2.2171991
1.2979801 -0.57770199 2.2058389
1.2869201 -0.56831503 2.1938589
1.2847301 -0.55697501 2.1945291
1.27861 -0.54762697 2.1894388
1.27924 -0.53794199 2.195029
1.27749 -0.527354 2.193239
1.27264 -0.51655996 2.1909389
1.2810299 -0.50458699 2.202589
1.27799 -0.49737 2.200999
1.31426 -0.58267701 2.2106888
1.30147 -0.57594001 2.195729
1.28994 -0.567523 2.184449
1.29211 -0.55787301 2.190809
1.28359 -0.54848498 2.182399
1.28326 -0.53723598 2.186739
1.2821801 -0.526878 2.1847689
1.2797101 -0.51731604 2.1865492
1.27747 -0.506666 2.1856289
1.2845501 -0.49568501 2.1968288
1.29808 -0.485892 2.2162189
1.3053501 -0.38571602 2.246109
1.31032 -0.58269298 2.192219
1.30312 -0.57620698 2.1858289
1.2999201 -0.56783301 2.1840789
1.29221 -0.55724698 2.1780491
1.28987 -0.54691601 2.1780288
1.28531 -0.53698504 2.1750689
1.2823199 -0.52655101 2.173789
1.28276 -0.51606703 2.176909
1.2858901 -0.50401199 2.1824491
1.2811199 -0.496364 2.180999
1.2844299 -0.48778701 2.185019
1.31321 -0.40779302 2.2341089
1.31027 -0.398462 2.236099
1.30477 -0.38918599 2.234859
1.3042301 -0.37841499 2.2390389
1.3328199 -0.59041303 2.1990991
1.32447 -0.58354998 2.1924391
1.30799 -0.575275 2.179739
1.30312 -0.56522501 2.1768491
1.2964901 -0.55592704 2.169009
1.29434 -0.545816 2.1720788
1.2875501 -0.53665 2.164629
1.2890401 -0.524782 2.169379
1.28627 -0.5151 2.1691689
1.28945 -0.50475699 2.1750088
1.2880901 -0.49404201 2.1757989
1.2909 -0.48516202 2.1805289
1.32502 -0.437837 2.225209
1.3142301 -0.43185398 2.2167192
1.30161 -0.42330399 2.207289
1.30564 -0.411015 2.215209
1.30698 -0.39884299 2.2232089
1.3094299 -0.38619 2.2305491
1.31205 -0.374497 2.2380688
1.33302 -0.59028798 2.1901488
1.32974 -0.58359098 2.186619
1.31898 -0.57576698 2.1780288
1.30721 -0.56557596 2.168319
1.29881 -0.55545598 2.158529
1.2948101 -0.54461801 2.1592789
1.29431 -0.53294897 2.160979
1.29396 -0.52272499 2.1620491
1.29283 -0.512676 2.1652689
1.29423 -0.50162899 2.1699491
1.28838 -0.49359903 2.1633489
1.30039 -0.48109001 2.178709
1.3221899 -0.45148799 2.2065289
1.31507 -0.44131401 2.204159
1.31349 -0.430812 2.208169
1.30925 -0.421336 2.205709
1.31153 -0.41019797 2.2099791
1.30854 -0.40072 2.2130289
1.31585 -0.38697103 2.2254989
1.3171099 -0.373849 2.2317889
1.3395599 -0.588687 2.1853089
1.3323801 -0.58124 2.179019
1.32284 -0.57239699 2.1717191
1.31033 -0.56349599 2.158309
1.2999899 -0.55502898 2.1491489
1.29838 -0.545277 2.1493189
1.2965801 -0.53392398 2.151289
1.29405 -0.524207 2.151619
1.2959501 -0.51306897 2.1549189
1.2926899 -0.50219202 2.156369
1.2930299 -0.491045 2.156549
1.30858 -0.476576 2.1760988
1.3082401 -0.46610001 2.1796889
1.3115801 -0.453168 2.1855991
1.31308 -0.442541 2.1917489
1.31481 -0.43161899 2.197619
1.31634 -0.41968101 2.2012689
1.3165801 -0.409527 2.2047291
1.31431 -0.40028 2.2083089
1.33373 -0.377352 2.2384892
1.35331 -0.58614999 2.188659
1.34442 -0.58023298 2.1809587
1.3275501 -0.57195204 2.163779
1.31696 -0.56291097 2.1538291
1.30964 -0.55308801 2.1481988
1.3078599 -0.54293597 2.1485391
1.2975399 -0.53436399 2.1390989
1.29698 -0.52252102 2.1428189
1.28951 -0.51326001 2.136709
1.2964901 -0.50118899 2.146729
1.29659 -0.49060902 2.1490891
1.30502 -0.47883499 2.160629
1.3120199 -0.46489799 2.1715591
1.32101 -0.45113498 2.1841691
1.31698 -0.44156501 2.185519
1.3221201 -0.42933998 2.1938088
1.32425 -0.417391 2.2004089
1.32877 -0.40573898 2.210849
1.3425599 -0.57837796 2.1685889
1.3382001 -0.57001096 2.1636992
1.3256 -0.56167799 2.151139
1.31256 -0.552064 2.138649
1.30618 -0.54220003 2.1357489
1.2990299 -0.52276903 2.1312289
1.3019201 -0.51013803 2.1391389
1.29435 -0.50126302 2.1330991
1.3018401 -0.489025 2.143059
1.3124299 -0.474278 2.1579089
1.3180901 -0.46349099 2.1666489
1.3168601 -0.454649 2.168009
1.3193201 -0.44210899 2.176379
1.33613 -0.42575401 2.200099
1.33895 -0.56849402 2.154099
1.33332 -0.56038702 2.1465089
1.3194799 -0.55291599 2.134429
1.3146601 -0.54275697 2.1319489
1.30348 -0.499455 2.132159
1.30996 -0.47595298 2.1429889
1.32108 -0.463045 2.1597989
1.3290499 -0.45197898 2.1712689
1.33541 -0.56636798 2.136189
1.3294501 -0.55825597 2.1319089
1.31462 -0.47549 2.1354189
1.3178799 -0.46504101 2.144769
1.3400199 -0.55769199 2.1306989
1.3192 -0.46628502 2.132879
1.23949 -0.57324201 2.3080389
1.2365201 -0.552908 2.307339
1.23641 -0.54342097 2.308219
1.2501 -0.59314096 2.3088489
1.2471399 -0.583103 2.3045292
1.24392 -0.57243401 2.3006089
1.23954 -0.56308901 2.2986689
1.23744 -0.55328101 2.2935791
1.24122 -0.542436 2.301719
1.2385399 -0.53326499 2.298439
1.25258 -0.59942901 2.2950289
1.25432 -0.592242 2.3007488
1.24878 -0.58298999 2.2914689
1.24927 -0.57362401 2.2956791
1.24463 -0.56334597 2.2905288
1.23929 -0.55268902 2.2817991
1.2381901 -0.54376 2.2846091
1.2421601 -0.53390402 2.2896791
1.24347 -0.52632499 2.2943091
1.26727 -0.59916502 2.3005991
1.26141 -0.59179401 2.2946091
1.2535701 -0.58181304 2.283289
1.25275 -0.57231402 2.287169
1.24542 -0.56170702 2.276499
1.24594 -0.551588 2.277319
1.24379 -0.54190803 2.2781391
1.25174 -0.53248 2.2885489
1.24703 -0.52591902 2.2838392
1.26915 -0.59855497 2.289829
1.26158 -0.59030896 2.2806089
1.2567199 -0.58105898 2.2743289
1.2526001 -0.57117599 2.272439
1.25353 -0.561795 2.273869
1.24904 -0.55330503 2.2691691
1.25113 -0.54309398 2.2732089
1.2502201 -0.53272301 2.2731988
1.25051 -0.52507401 2.2746289
1.28134 -0.59856701 2.290889
1.2697799 -0.59168899 2.2774789
1.26464 -0.58268499 2.2717991
1.25964 -0.57248998 2.266849
1.25667 -0.56139398 2.2648292
1.2564499 -0.55099899 2.2667789
1.25537 -0.54133201 2.2651091
1.25454 -0.53204298 2.2637491
1.2574099 -0.52380598 2.2691989
1.27926 -0.598001 2.2750487
1.27639 -0.58980203 2.272239
1.2664701 -0.57994002 2.261199
1.2598001 -0.56975102 2.254319
1.25869 -0.56085801 2.254179
1.2586 -0.551355 2.255749
1.25993 -0.53974605 2.256259
1.2604001 -0.52909499 2.2587891
1.26342 -0.520989 2.262459
1.28558 -0.597853 2.269309
1.28365 -0.59098202 2.2677188
1.27342 -0.582165 2.2563291
1.2697899 -0.571868 2.2527189
1.26501 -0.56097597 2.249239
1.2628701 -0.55019498 2.2467489
1.26037 -0.540277 2.242239
1.26508 -0.529365 2.251179
1.26608 -0.52005404 2.2542489
1.2759401 -0.51259202 2.2669189
1.2903199 -0.59691399 2.2626889
1.27941 -0.589544 2.250809
1.2746199 -0.58026499 2.244679
1.26828 -0.56923199 2.2376788
1.26748 -0.55898201 2.239949
1.26689 -0.549757 2.2385089
1.26399 -0.54065001 2.2340689
1.26098 -0.53046203 2.232219
1.26228 -0.52041304 2.236979
1.2698799 -0.5126 2.248729
1.29834 -0.59629101 2.2612989
1.2848101 -0.58894801 2.2432489
1.27703 -0.57827902 2.2341392
1.27378 -0.56830102 2.2309589
1.2712101 -0.55910498 2.2320189
1.26597 -0.54955399 2.2249289
1.26597 -0.53876203 2.2245889
1.26125 -0.52949202 2.221319
1.2607 -0.520904 2.2212789
1.26864 -0.51248801 2.2341189
1.28687 -0.59589803 2.231379
1.2926899 -0.589333 2.237669
1.2897 -0.58046001 2.2358592
1.2774501 -0.56945801 2.222399
1.27519 -0.559071 2.2239289
1.26844 -0.54883802 2.2148089
1.26363 -0.53892797 2.2084289
1.26527 -0.52909499 2.214819
1.26078 -0.52059603 2.208329
1.2636499 -0.51217198 2.2131891
1.2993201 -0.59538198 2.232929
1.29392 -0.58769202 2.227639
1.29015 -0.57760698 2.2236288
1.27833 -0.56783998 2.2107089
1.27716 -0.55857104 2.2133591
1.27082 -0.54806304 2.204129
1.2665499 -0.53862101 2.2005689
1.26773 -0.52896601 2.2043891
1.26705 -0.51813 2.202919
1.27569 -0.508169 2.2129889
1.3105999 -0.59527099 2.233299
1.30478 -0.58859199 2.2285089
1.3000599 -0.57961798 2.2231188
1.28574 -0.56885701 2.206599
1.27951 -0.55834401 2.2032189
1.27583 -0.54885501 2.1971591
1.27237 -0.53771096 2.1951189
1.2721701 -0.52680701 2.1975391
1.26902 -0.51797795 2.192749
1.27501 -0.50743097 2.200299
1.2800599 -0.49887002 2.2076387
1.3024601 -0.59472799 2.214849
1.31225 -0.58692402 2.225719
1.2927999 -0.57746601 2.202929
1.291 -0.56744802 2.1989388
1.28585 -0.55783498 2.1975391
1.27974 -0.54703802 2.1892388
1.2771801 -0.536596 2.186919
1.27461 -0.52644503 2.187439
1.27485 -0.51570201 2.1881189
1.28031 -0.50542998 2.1942289
1.2811301 -0.49748403 2.197649
1.2935801 -0.49006698 2.2152789
1.31602 -0.40389901 2.2497289
1.3126301 -0.396534 2.247129
1.30761 -0.38613701 2.2436891
1.32987 -0.58858198 2.2233992
1.30247 -0.57676601 2.2000489
1.29011 -0.56685698 2.1860189
1.28782 -0.55673999 2.1863689
1.28225 -0.54749101 2.180629
1.28431 -0.53832501 2.1831889
1.2813201 -0.52709401 2.180769
1.27903 -0.51730901 2.1817889
1.28048 -0.507191 2.1835489
1.28213 -0.49715698 2.185549
1.2794499 -0.49000499 2.1844189
1.31345 -0.413746 2.2325392
1.3137 -0.40471101 2.2376089
1.3051699 -0.39718699 2.229239
1.30495 -0.3865 2.230159
1.3077999 -0.37596801 2.238519
1.3225101 -0.59424502 2.206929
1.31953 -0.58656698 2.204819
1.3102499 -0.577443 2.194479
1.30194 -0.568223 2.1885691
1.29431 -0.55857301 2.180589
1.29096 -0.547234 2.178489
1.2845501 -0.53602201 2.1708591
1.2815 -0.52556598 2.168189
1.2836099 -0.51537299 2.174479
1.28645 -0.504713 2.1793289
1.2876601 -0.496236 2.179709
1.28704 -0.488942 2.1801388
1.32147 -0.43697 2.221149
1.31444 -0.42782399 2.2168891
1.30633 -0.41775501 2.213129
1.30935 -0.40717399 2.2206891
1.30909 -0.39587003 2.2214191
1.30996 -0.38548303 2.2256491
1.3124299 -0.37492299 2.2324688
1.32181 -0.59267896 2.1972089
1.32047 -0.585594 2.1952288
1.31496 -0.57735401 2.1877091
1.30913 -0.56720299 2.1838789
1.29405 -0.55599302 2.1673489
1.2897999 -0.54485899 2.164469
1.291 -0.53583401 2.166739
1.2883999 -0.52725297 2.1645689
1.2849699 -0.51612598 2.1619291
1.2878 -0.504834 2.1695189
1.28704 -0.495426 2.1676888
1.28627 -0.48694801 2.1659689
1.3108799 -0.44735 2.1980288
1.31179 -0.437253 2.2018991
1.30751 -0.428413 2.2005389
1.3131599 -0.417676 2.2103188
1.31304 -0.40636501 2.211869
1.31213 -0.39690602 2.212049
1.31519 -0.38525599 2.221359
1.3203599 -0.37138698 2.2324591
1.32453 -0.58531302 2.186399
1.31978 -0.575185 2.1819189
1.3069999 -0.56450903 2.169059
1.30293 -0.55570596 2.1652288
1.2976601 -0.546933 2.1608288
1.29237 -0.53634602 2.157069
1.29293 -0.525406 2.157429
1.2894701 -0.51445597 2.1534891
1.2919501 -0.504089 2.161449
1.29571 -0.492553 2.1642191
1.3009 -0.48161802 2.170759
1.31978 -0.46908 2.1923389
1.31214 -0.45890599 2.1857488
1.31549 -0.446904 2.1929989
1.31647 -0.436856 2.1955788
1.3181 -0.42619202 2.2016089
1.31791 -0.41519001 2.204339
1.32206 -0.40519798 2.2097189
1.3245399 -0.39552799 2.2159491
1.3438699 -0.59264201 2.1938989
1.3347099 -0.58621198 2.183919
1.32752 -0.57751399 2.1776888
1.31987 -0.56661701 2.1703689
1.30936 -0.55533296 2.1605091
1.2961 -0.54507804 2.1486089
1.2960299 -0.53495604 2.1484089
1.2923801 -0.52397901 2.1439888
1.2931399 -0.513237 2.146029
1.29618 -0.502509 2.152499
1.29448 -0.49181598 2.1506989
1.30291 -0.48139703 2.1625791
1.3053999 -0.47090098 2.1680491
1.3085099 -0.461281 2.1708491
1.31727 -0.45012403 2.182349
1.3192101 -0.43920699 2.1866791
1.32095 -0.42817101 2.1910789
1.3254499 -0.41573602 2.2001989
1.3335899 -0.40453601 2.2121491
1.3393899 -0.59226799 2.1782191
1.33444 -0.58478701 2.1736591
1.33336 -0.57500499 2.1716189
1.31856 -0.56401002 2.1570389
1.3163 -0.55455101 2.155839
1.3012199 -0.54529798 2.1415491
1.29597 -0.53424901 2.1359789
1.29258 -0.52430302 2.1319189
1.2967399 -0.51457602 2.139859
1.29347 -0.50427401 2.136559
1.30065 -0.49266899 2.1463289
1.303 -0.48184398 2.1506689
1.30765 -0.470871 2.1593089
1.3161 -0.45952597 2.1680789
1.32401 -0.44782501 2.1783288
1.3262 -0.43674499 2.1835089
1.3362199 -0.424454 2.198349
1.34867 -0.41190398 2.2162092
1.33952 -0.591932 2.169229
1.3427901 -0.58350897 2.172179
1.33964 -0.57487899 2.1673989
1.33081 -0.56581402 2.158169
1.3199201 -0.55460399 2.1473789
1.3023599 -0.54321098 2.1305091
1.3056901 -0.48271802 2.1415789
1.3127699 -0.470236 2.1515892
1.325 -0.45747897 2.1659288
1.33583 -0.44557202 2.1810489
1.3489701 -0.43299499 2.199599
1.3405099 -0.5733 2.1582389
1.32979 -0.56395102 2.1453691
1.3269401 -0.55497098 2.141809
1.3144001 -0.47865599 2.139359
1.3230499 -0.467388 2.1502688
1.3272099 -0.45773602 2.1576989
1.3303101 -0.57021201 2.1339591
1.3354801 -0.56224704 2.1401989
1.3271699 -0.553487 2.1315789
1.31627 -0.47057098 2.130749
1.3268601 -0.46072301 2.1445289
1.2441601 -0.588844 2.3086689
1.24072 -0.56891996 2.3028791
1.24107 -0.557917 2.3034492
1.24132 -0.547719 2.303689
1.24262 -0.538486 2.304019
1.24735 -0.58047795 2.300319
1.24482 -0.57050598 2.2939289
1.24466 -0.56006402 2.2933288
1.24537 -0.54921502 2.2954788
1.24739 -0.53929102 2.2977688
1.25227 -0.530788 2.303829
1.26595 -0.59844297 2.308419
1.26059 -0.590639 2.3048291
1.25027 -0.580024 2.2895889
1.24891 -0.56969601 2.2862589
1.2460901 -0.55999297 2.2815988
1.24595 -0.54987204 2.281769
1.24752 -0.54028499 2.285799
1.25351 -0.530725 2.2915988
1.26482 -0.52408904 2.307749
1.26474 -0.59017503 2.2958491
1.25651 -0.57914197 2.283519
1.25068 -0.568416 2.2748389
1.24891 -0.558146 2.2735589
1.24789 -0.54870701 2.2697189
1.25266 -0.53865099 2.2777891
1.2626899 -0.52919602 2.288729
1.26632 -0.52295202 2.2957089
1.2621 -0.587183 2.2774289
1.25661 -0.57803899 2.2711289
1.25955 -0.57018697 2.272059
1.25296 -0.55870605 2.264509
1.25673 -0.54923099 2.268569
1.2538201 -0.53921598 2.2644088
1.26394 -0.52921903 2.2776589
1.27088 -0.52141398 2.2863691
1.26719 -0.589333 2.2682388
1.26566 -0.58002204 2.2682388
1.2566301 -0.56843799 2.255579
1.25758 -0.55889702 2.2574389
1.25643 -0.54886603 2.255559
1.25792 -0.53811902 2.2560689
1.26705 -0.52910101 2.267869
1.27299 -0.52032101 2.2758389
1.28571 -0.51404303 2.2914288
1.29063 -0.60031897 2.282969
1.27494 -0.590195 2.2656791
1.2642701 -0.57878 2.2522089
1.26624 -0.56940001 2.2549789
1.26044 -0.55949801 2.2484391
1.25912 -0.54906297 2.244169
1.2638301 -0.53981298 2.252099
1.26449 -0.52937299 2.2511389
1.2748101 -0.51987201 2.2649491
1.28574 -0.513188 2.2796891
1.2867399 -0.60701001 2.2684689
1.2857699 -0.59956598 2.2662492
1.2804401 -0.589818 2.2606189
1.26805 -0.58007002 2.2437289
1.26767 -0.56971097 2.2442889
1.26282 -0.55842298 2.2373888
1.26459 -0.54900002 2.238009
1.26633 -0.53914499 2.2416589
1.26388 -0.52793998 2.2362189
1.27247 -0.51915902 2.2484989
1.2794 -0.512016 2.2590492
1.29317 -0.60747999 2.2663989
1.2985899 -0.60009497 2.2698488
1.28026 -0.58981997 2.2483389
1.2752 -0.57873297 2.2393992
1.2687 -0.56735802 2.2321389
1.26902 -0.55717099 2.2318091
1.26651 -0.54693699 2.2288489
1.26468 -0.53643298 2.226119
1.26281 -0.52656198 2.2226191
1.273 -0.518121 2.235889
1.27387 -0.50976104 2.2376089
1.28488 -0.58839202 2.239759
1.2808099 -0.57902199 2.232759
1.27528 -0.56993699 2.227869
1.27403 -0.56046796 2.2255089
1.2744401 -0.55024201 2.225409
1.27056 -0.53949904 2.220499
1.2683899 -0.52846998 2.2170489
1.26791 -0.51792198 2.2172689
1.27543 -0.50818503 2.2262092
1.28273 -0.50004101 2.2336788
1.29004 -0.58773202 2.2326591
1.28965 -0.580621 2.2315989
1.28108 -0.57034403 2.2219088
1.2777801 -0.559259 2.216749
1.27404 -0.548325 2.2121491
1.2724199 -0.53731203 2.209429
1.26659 -0.527785 2.203639
1.26887 -0.51911598 2.2061491
1.2742701 -0.50826597 2.2114489
1.27926 -0.49871299 2.2182488
1.28151 -0.49177501 2.2213392
1.29474 -0.58632499 2.2264891
1.29173 -0.57854998 2.2225389
1.2822099 -0.568371 2.2100289
1.27809 -0.55732602 2.203939
1.2784101 -0.54683602 2.205539
1.2769799 -0.53775299 2.201539
1.27335 -0.52757502 2.2003689
1.2757701 -0.51697701 2.201019
1.28117 -0.50742602 2.2077589
1.27965 -0.49872601 2.205709
1.2826899 -0.491189 2.2114289
1.31393 -0.38943198 2.249089
1.3052601 -0.38119498 2.2411191
1.2943 -0.57721198 2.2126889
1.2858901 -0.56759799 2.202069
1.2805099 -0.557872 2.1930289
1.2821001 -0.54782504 2.1977289
1.27469 -0.53811699 2.187269
1.27967 -0.52800101 2.193959
1.27863 -0.51702398 2.1906888
1.2818201 -0.50716096 2.1977091
1.28046 -0.49828202 2.1940589
1.28519 -0.49064702 2.200109
1.3209801 -0.41345298 2.240119
1.3154601 -0.40401599 2.2363291
1.3066001 -0.39235902 2.230099
1.3100799 -0.38246301 2.2353487
1.30969 -0.371456 2.2379191
1.3020301 -0.57750499 2.2080789
1.29005 -0.56870097 2.194129
1.286 -0.55868602 2.1861889
1.2816499 -0.54729903 2.1841691
1.2809399 -0.53672004 2.1840689
1.2834599 -0.527291 2.185189
1.2842 -0.51679999 2.1840289
1.2840199 -0.50666499 2.1877589
1.2858701 -0.49667999 2.1879389
1.2903999 -0.48965099 2.1940391
1.32644 -0.43025902 2.233319
1.3169 -0.42239299 2.2249389
1.31382 -0.41313499 2.223829
1.30959 -0.40285099 2.2207088
1.31542 -0.39143199 2.228349
1.3163 -0.380705 2.2323692
1.3135699 -0.372107 2.2300892
1.30671 -0.57742 2.201369
1.2921699 -0.56834799 2.1829691
1.2953 -0.55962896 2.1849189
1.28822 -0.549496 2.1784391
1.28616 -0.538095 2.177269
1.28369 -0.52702099 2.1728189
1.2849801 -0.51649898 2.1722989
1.2886701 -0.50570202 2.179589
1.2929699 -0.496059 2.183239
1.2919201 -0.48901299 2.183929
1.31274 -0.43164501 2.207629
1.31322 -0.42197898 2.2117789
1.3141299 -0.41245499 2.213279
1.3158901 -0.40191299 2.215529
1.32119 -0.392225 2.221849
1.31959 -0.38179699 2.2249091
1.3256799 -0.37079298 2.2355289
1.30908 -0.57794398 2.189959
1.3025301 -0.56839597 2.181479
1.2931199 -0.55754101 2.1730089
1.29242 -0.54786098 2.1714089
1.29073 -0.537112 2.1691189
1.2884599 -0.52664602 2.1659689
1.28733 -0.51639903 2.1625891
1.29015 -0.50631601 2.1685691
1.2929699 -0.49708 2.173209
1.2958299 -0.48809397 2.1745191
1.32256 -0.45351002 2.2011189
1.3176199 -0.44324699 2.1993492
1.31366 -0.43402499 2.1965089
1.3202001 -0.422732 2.2061889
1.31726 -0.41137001 2.205349
1.3262199 -0.40127102 2.215209
1.3252901 -0.392048 2.2172689
1.3248199 -0.58714998 2.1949689
1.3143899 -0.57877302 2.1828289
1.31011 -0.56882703 2.1764688
1.30121 -0.55792099 2.1701989
1.2945501 -0.54665101 2.1608889
1.29302 -0.53608501 2.1604989
1.2929201 -0.52667803 2.158869
1.29064 -0.51622796 2.1541488
1.2903501 -0.50583303 2.1564789
1.2969201 -0.49618697 2.1659091
1.29537 -0.48558399 2.161139
1.31387 -0.476726 2.1824491
1.30785 -0.46401101 2.1745591
1.3172799 -0.452268 2.1874092
1.31899 -0.44252202 2.1918991
1.32024 -0.43328202 2.192919
1.32468 -0.423893 2.197849
1.3249 -0.41281399 2.2021492
1.3370301 -0.40189302 2.2177491
1.33539 -0.393352 2.2180789
1.3285899 -0.587291 2.186389
1.3202499 -0.578183 2.1768491
1.32033 -0.56849098 2.175739
1.3051801 -0.55739999 2.161479
1.29843 -0.54730397 2.153899
1.2981 -0.53747296 2.1538291
1.29396 -0.52617002 2.1476488
1.29026 -0.51590699 2.1420889
1.2940601 -0.50620902 2.148149
1.29276 -0.49500802 2.1482291
1.29956 -0.48430598 2.1541891
1.3102499 -0.47498599 2.1680889
1.31067 -0.465074 2.1667089
1.3191099 -0.454267 2.1768889
1.32319 -0.44314 2.185189
1.3290199 -0.43336701 2.1907291
1.3400199 -0.42382801 2.2047188
