# .PCD v0.7 - Point Cloud Data file format
VERSION 0.7
FIELDS x y z
SIZE 4 4 4
TYPE F F F
COUNT 1 1 1
WIDTH 97
HEIGHT 1
VIEWPOINT 0 0 0 1 0 0 0
POINTS 97
DATA ascii
1.00404 -0.42747101 2.9488189
1.02258 -0.66112399 2.944999
1.02223 -0.67696297 2.9489989
1.03889 -0.70653999 2.9462891
1.1001201 -0.38608003 2.9569488
1.09778 -0.39735401 2.9577889
1.06741 -0.39637297 2.9558091
1.08111 -0.40425301 2.9518588
1.05339 -0.42282701 2.959759
1.05445 -0.412918 2.9491889
1.07105 -0.42000401 2.9454489
1.02056 -0.45996702 2.9486389
1.01226 -0.65667397 2.9432189
1.01061 -0.67267603 2.947839
1.0291899 -0.68320394 2.9410191
1.03373 -0.69929701 2.941829
1.0341899 -0.62970603 2.952559
1.0362899 -0.62985903 2.9438889
1.07086 -0.71050203 2.9403791
1.01722 -0.64984596 2.9414589
1.01917 -0.66637701 2.944109
1.01476 -0.64870501 2.944679
1.01832 -0.66497701 2.9442589
1.02099 -0.68600899 2.945019
1.01678 -0.65460402 2.9454691
1.02347 -0.67189598 2.9451389
1.03707 -0.68612701 2.940249
0.99749202 -0.65480202 2.950989
0.99605101 -0.66198099 2.943269
1.00415 -0.65712899 2.9491291
1.00783 -0.65964699 2.943819
0.99803495 -0.65802401 2.946099
1.00819 -0.65593398 2.9526889
1.00363 -0.66089201 2.9423292
1.0159301 -0.66164201 2.9521189
1.0035601 -0.38797 2.962389
0.999461 -0.39127401 2.9535189
1.00173 -0.38716802 2.9543588
1.00709 -0.41588601 2.9580991
1.01289 -0.41276798 2.961679
1.0049 -0.38867199 2.9496689
0.97285199 -0.51635396 2.9555688
0.97574401 -0.51733601 2.9524391
1.02756 -0.442067 2.9591792
1.01933 -0.42611697 2.9473889
0.98925102 -0.52581501 2.960469
1.0151401 -0.45601699 2.9472189
1.0997 -0.381953 2.9515688
1.1054699 -0.382752 2.9491689
0.88703102 -0.48215303 2.9672489
0.89379001 -0.50015098 2.9628088
0.900989 -0.495325 2.9672189
0.89768201 -0.51393503 2.9649189
0.90057701 -0.50838798 2.9636288
0.90015405 -0.49661401 2.9575391
0.90960294 -0.49211103 2.9625189
0.89403397 -0.51124197 2.952179
0.90142405 -0.50754398 2.956389
0.90596199 -0.49946702 2.9540091
0.91696095 -0.49892101 2.9618189
0.91401601 -0.48839402 2.9544289
1.0018699 -0.38864899 2.9637389
0.90857297 -0.50301498 2.9494691
0.99650401 -0.39379501 2.954169
0.99471903 -0.38452399 2.9488289
1.00274 -0.38257802 2.9556289
1.02738 -0.44603699 2.9609492
1.02616 -0.434735 2.955539
1.04773 -0.385589 2.949609
1.01942 -0.45084998 2.950639
1.05811 -0.38303399 2.9489489
1.06958 -0.38000098 2.953819
1.02422 -0.46581298 2.9538589
1.06767 -0.38632703 2.949049
1.0249 -0.46607798 2.9454291
1.07845 -0.390286 2.949389
1.09586 -0.39158699 2.9542589
1.05395 -0.48111099 2.9542091
1.0672799 -0.491909 2.9584289
1.07683 -0.49874198 2.9577689
0.99484801 -0.38689801 2.956569
1.0034 -0.38586602 2.9624491
0.99366796 -0.39971501 2.9528089
0.99709898 -0.381237 2.9492991
1.00957 -0.42397597 2.948909
1.06373 -0.39285901 2.956579
1.06593 -0.39318502 2.9509988
1.07618 -0.39753503 2.951649
1.09498 -0.399387 2.9568892
1.0911599 -0.39689898 2.946579
0.91389501 -0.52175099 2.9622989
0.911614 -0.53667998 2.9528189
0.91786695 -0.53068805 2.9614592
1.14291 -0.63044202 2.9328189
1.1232901 -0.51381099 2.9378891
1.07489 -0.71640605 2.9466691
1.07259 -0.715832 2.9473388
