# .PCD v0.7 - Point Cloud Data file format
VERSION 0.7
FIELDS x y z
SIZE 4 4 4
TYPE F F F
COUNT 1 1 1
WIDTH 644
HEIGHT 1
VIEWPOINT 0 0 0 1 0 0 0
POINTS 644
DATA ascii
1.80933 -0.50085098 0.38824096
1.8225399 -0.48964402 0.38861096
1.8113201 -0.49958301 0.38269997
1.82087 -0.48844701 0.38036495
1.81603 -0.49736801 0.37664294
1.81366 -0.49750301 0.36671296
1.81293 -0.49850801 0.35760197
1.8158001 -0.49811199 0.35082597
1.82146 -0.49560797 0.34481597
1.82022 -0.496436 0.33409896
1.8206301 -0.49700099 0.32571495
1.81666 -0.49796799 0.41950399
1.8195599 -0.488978 0.41412297
1.81945 -0.49794999 0.41178095
1.8248801 -0.487546 0.40792397
1.8175101 -0.49758399 0.40220898
1.82183 -0.48649102 0.39730895
1.82517 -0.496492 0.39616898
1.8299 -0.486417 0.39127597
1.81841 -0.49763301 0.38440597
1.83149 -0.486716 0.38300094
1.8139399 -0.499066 0.37389097
1.8272901 -0.48801997 0.37240395
1.8157699 -0.49901903 0.36675996
1.83112 -0.484846 0.36566696
1.8222901 -0.49713799 0.36100999
1.83255 -0.48638499 0.35781997
1.8243899 -0.49710202 0.35211599
1.8378999 -0.48484001 0.35039294
1.8228301 -0.497168 0.34300196
1.84156 -0.48352402 0.34250596
1.82767 -0.495731 0.33616498
1.8422301 -0.484633 0.33424699
1.8308501 -0.49630502 0.32779896
1.8384801 -0.486265 0.32384995
1.83144 -0.49625802 0.32016397
1.8357 -0.49397799 0.31430396
1.73643 -0.49220797 0.41867298
1.7432801 -0.49340901 0.40855396
1.7322999 -0.49426898 0.41529495
1.7425101 -0.49623799 0.40507594
1.75651 -0.49797699 0.36587998
1.72884 -0.48620498 0.41431594
1.73674 -0.48934299 0.40415496
1.7285899 -0.485358 0.39757296
1.7379601 -0.48801398 0.37823197
1.74066 -0.488419 0.36850497
1.74334 -0.488554 0.36004996
1.72989 -0.49144599 0.41784298
1.73774 -0.49496898 0.40728197
1.74418 -0.49844199 0.39700899
1.75894 -0.50588101 0.38575995
1.7484 -0.49989301 0.38078198
1.7454801 -0.497336 0.37308797
1.7381301 -0.49203601 0.36720496
1.7245101 -0.48075801 0.41475296
1.735 -0.486489 0.39444196
1.7334801 -0.48490298 0.38607597
1.73615 -0.485598 0.37621999
1.73795 -0.48618901 0.36686194
1.7544501 -0.49504003 0.35472798
1.74151 -0.500121 0.37633297
1.7400301 -0.49958301 0.37616897
1.78251 -0.515239 0.41479698
1.77766 -0.52476901 0.41381097
1.7977 -0.50427103 0.41185197
1.79118 -0.51593399 0.40914595
1.77522 -0.52371496 0.40385997
1.7978901 -0.50629103 0.40409195
1.78418 -0.51539302 0.39858899
1.7771499 -0.52400798 0.39502993
1.7975301 -0.50549102 0.39575797
1.7828599 -0.51526099 0.38942796
1.76957 -0.52292597 0.38306797
1.79705 -0.50482601 0.38667497
1.78197 -0.51492101 0.38018095
1.77123 -0.52316499 0.37490997
1.79972 -0.50478899 0.37852898
1.78291 -0.51545501 0.37160397
1.76852 -0.523238 0.36515197
1.79633 -0.50620496 0.36883795
1.78442 -0.51603103 0.36295497
1.7685601 -0.52335203 0.35725597
1.8024001 -0.50494897 0.36222595
1.7854201 -0.514525 0.35423696
1.7778701 -0.52396399 0.35216594
1.79968 -0.50548899 0.35173398
1.78564 -0.516011 0.34611195
1.7759399 -0.52450001 0.34193397
1.79995 -0.50745302 0.34295195
1.78304 -0.51692599 0.33635795
1.76811 -0.52362704 0.33047295
1.81092 -0.50491202 0.33886096
1.78754 -0.51461202 0.32933494
1.77455 -0.523893 0.32454196
1.8090199 -0.50595999 0.32915497
1.78052 -0.51470298 0.31820199
1.76534 -0.52275002 0.31310695
1.8082401 -0.50472498 0.31942296
1.77323 -0.52443701 0.31049997
1.8111701 -0.50291097 0.31055796
1.8150901 -0.503061 0.30343598
1.82227 -0.50425702 0.29778996
1.8209801 -0.504067 0.28890097
1.8279401 -0.50462896 0.28335395
1.82303 -0.50414902 0.27106896
1.8239999 -0.505072 0.26346198
1.83215 -0.50630498 0.25924292
1.84255 -0.49670899 0.25341499
1.8353599 -0.505916 0.25090295
1.83789 -0.50652099 0.24202195
1.8397099 -0.50664699 0.23327194
1.8355401 -0.50695801 0.22223793
1.84016 -0.50799704 0.216447
1.84187 -0.50708002 0.20813392
1.85032 -0.49927899 0.20262696
1.8441401 -0.508232 0.19918694
1.83293 -0.50661999 0.18483497
1.8401101 -0.50693899 0.17950699
1.7961 -0.50314897 0.41509995
1.7929 -0.51267701 0.41494396
1.79625 -0.504031 0.40774497
1.7970101 -0.51349604 0.40709797
1.80267 -0.504511 0.40148598
1.7938499 -0.51284802 0.39685795
1.79618 -0.504152 0.39024794
1.7947201 -0.51302505 0.38839695
1.80128 -0.503591 0.38299495
1.7907801 -0.51164603 0.37776196
1.7999201 -0.50450498 0.37309697
1.79375 -0.51295602 0.37019596
1.7975 -0.50525302 0.36406395
1.79422 -0.51358396 0.36198497
1.8024601 -0.50569898 0.35728195
1.7903399 -0.51237398 0.35230696
1.80817 -0.50493997 0.35069597
1.79514 -0.51286799 0.34573597
1.8041 -0.50458801 0.33935297
1.79493 -0.51285303 0.33638194
1.80488 -0.50572699 0.33102399
1.79968 -0.51419902 0.32955596
1.8102901 -0.506733 0.32494995
1.79721 -0.51332998 0.31992194
1.81401 -0.50558299 0.31741399
1.80279 -0.51330501 0.31427395
1.81718 -0.50542599 0.30957195
1.8175701 -0.50479901 0.30005696
1.8294001 -0.49720001 0.29530495
1.8205 -0.50444299 0.29184997
1.8234301 -0.50593203 0.28307495
1.8245101 -0.50775599 0.27398291
1.83427 -0.49969199 0.27014497
1.81893 -0.50706601 0.26417693
1.8091999 -0.51325101 0.26052192
1.8317701 -0.50940901 0.26263496
1.8324699 -0.50797099 0.25202394
1.8390199 -0.49967498 0.24416199
1.83447 -0.50856096 0.24353096
1.8422501 -0.50055498 0.23703194
1.83673 -0.50853801 0.23532799
1.84269 -0.499477 0.22865295
1.8394501 -0.50888598 0.22633293
1.8383701 -0.50898999 0.21609397
1.83319 -0.50760299 0.20410095
1.8332601 -0.50757599 0.19473396
1.8343201 -0.50867802 0.18624496
1.8300999 -0.50780302 0.17566498
1.8364 -0.50809699 0.17021294
1.76755 -0.51849097 0.41735297
1.7524899 -0.52415103 0.41276696
1.7996899 -0.49814901 0.41684195
1.79014 -0.50776404 0.41490296
1.77362 -0.51740801 0.41031197
1.75664 -0.52433801 0.40491197
1.8001699 -0.49839297 0.40892097
1.78945 -0.51025504 0.40615597
1.76472 -0.51596904 0.39795893
1.7496201 -0.521963 0.39198697
1.7935699 -0.49918401 0.39775997
1.78697 -0.51152802 0.39724797
1.7624401 -0.51553798 0.38796794
1.74875 -0.52180099 0.38223797
1.8020101 -0.49846101 0.39232695
1.7900701 -0.50984102 0.38900596
1.7604201 -0.51533401 0.37782598
1.73834 -0.519853 0.36943296
1.78711 -0.509305 0.37718096
1.74229 -0.51255602 0.36225894
1.7294099 -0.51762199 0.35817897
1.7880499 -0.50948298 0.36763194
1.7538099 -0.51249403 0.35718495
1.73232 -0.51735002 0.35134995
1.7927201 -0.509175 0.36098197
1.7706399 -0.51585299 0.35507995
1.73804 -0.51754701 0.34530097
1.79778 -0.51022303 0.35461396
1.75271 -0.51294798 0.34352195
1.8057001 -0.50044203 0.34730297
1.8035201 -0.51097101 0.34809893
1.80555 -0.51026297 0.34011096
1.81304 -0.502186 0.33205697
1.80537 -0.50962502 0.33016196
1.81304 -0.50168699 0.32315999
1.7999001 -0.50798899 0.31873399
1.8173 -0.50417 0.31607696
1.81205 -0.51223499 0.31498897
1.8179801 -0.50414103 0.30778095
1.80756 -0.51081103 0.30390495
1.8189101 -0.502226 0.29895398
1.8143899 -0.51214701 0.29758197
1.8199699 -0.50237596 0.28973901
1.81152 -0.51107901 0.28551596
1.80881 -0.51112801 0.27476197
1.8185201 -0.504408 0.26960793
1.8071001 -0.510647 0.26565194
1.82002 -0.50439 0.26189795
1.81478 -0.51231301 0.26055497
1.82927 -0.50613099 0.25803497
1.81172 -0.50971299 0.25008696
1.8347 -0.50559402 0.24984398
1.84421 -0.49722302 0.24288192
1.83179 -0.50360698 0.23704994
1.8375599 -0.50523001 0.22991699
1.8399401 -0.505988 0.22165596
1.83992 -0.50591201 0.21215798
1.83981 -0.50580603 0.20257393
1.79445 -0.49910501 0.41788596
1.7857201 -0.51120299 0.41649297
1.7746 -0.51941502 0.41369593
1.7948899 -0.50170702 0.40940997
1.78558 -0.51242197 0.40744296
1.7710299 -0.51779598 0.40197295
1.79513 -0.50423002 0.40134698
1.7845501 -0.51292497 0.39782795
1.7720399 -0.51930499 0.39328697
1.7957699 -0.50241697 0.39156297
1.7805001 -0.512079 0.38722396
1.77203 -0.51950902 0.38514298
1.80079 -0.502195 0.38344395
1.7938299 -0.513982 0.38280496
1.77733 -0.52020198 0.37793198
1.80505 -0.50561601 0.37674296
1.7912101 -0.51443899 0.37288097
1.77588 -0.51945299 0.36685497
1.80558 -0.50779998 0.36869699
1.78936 -0.51459903 0.36282498
1.76805 -0.51734799 0.35453597
1.79775 -0.50298196 0.35525197
1.78722 -0.514543 0.35283399
1.772 -0.51915801 0.34788296
1.79974 -0.50286901 0.34693196
1.7944299 -0.51435101 0.34640995
1.7766701 -0.52007598 0.34056497
1.8035699 -0.50510502 0.34048396
1.79484 -0.51601601 0.33697098
1.77877 -0.52100199 0.33197698
1.80633 -0.50600201 0.33214799
1.80121 -0.51748699 0.32977197
1.77723 -0.52004504 0.32162797
1.8029699 -0.50369298 0.32062694
1.7928599 -0.51523298 0.31706098
1.77843 -0.52068299 0.31295097
1.8006901 -0.50487202 0.31078896
1.7998199 -0.51682496 0.31045794
1.77722 -0.519373 0.30250594
1.80742 -0.50519902 0.30384994
1.8005999 -0.51801103 0.30191997
1.77666 -0.52006 0.29224595
1.81019 -0.50806403 0.29439795
1.7910401 -0.51570201 0.28848693
1.7795 -0.52161497 0.28482094
1.8128301 -0.50716299 0.28543296
1.8018401 -0.51684302 0.28355193
1.78256 -0.52139401 0.27657396
1.81671 -0.51128399 0.27992195
1.7938401 -0.51521701 0.27081597
1.77713 -0.51998699 0.26364997
1.8150101 -0.51066601 0.26948196
1.79207 -0.515881 0.26046294
1.76987 -0.51740003 0.25148994
1.8207201 -0.50858301 0.26129699
1.7997301 -0.515508 0.25408599
1.77364 -0.51800501 0.24378693
1.8181701 -0.510014 0.251093
1.7853501 -0.51141399 0.23881897
1.7710099 -0.51726604 0.234479
1.8187399 -0.51007801 0.242715
1.77036 -0.517434 0.22769798
1.8412801 -0.50236201 0.23938096
1.82533 -0.50774896 0.23409195
1.8403 -0.50216401 0.22988801
1.83156 -0.50979596 0.22624794
1.83883 -0.502267 0.21967895
1.83306 -0.51054102 0.21708398
1.8327 -0.51029897 0.20721695
1.83382 -0.51128697 0.19830193
1.83289 -0.51096702 0.18914895
1.8364199 -0.51141298 0.18107598
1.83346 -0.51006198 0.16871499
1.7850599 -0.50924498 0.41866598
1.7778 -0.52081501 0.41751698
1.76472 -0.526079 0.41272897
1.7958599 -0.497522 0.41112095
1.7858 -0.510396 0.41049397
1.7819 -0.52251202 0.40980095
1.76271 -0.52501899 0.40259397
1.7997999 -0.49870202 0.40293598
1.7919201 -0.511329 0.40293494
1.7823399 -0.52309 0.40068799
1.7608099 -0.52441698 0.39272895
1.8013201 -0.49986303 0.39416596
1.7887601 -0.512631 0.39251995
1.78177 -0.52389002 0.39199597
1.75894 -0.52311701 0.38266894
1.80214 -0.50107896 0.38460496
1.79634 -0.51286203 0.38626197
1.78219 -0.52167499 0.38264194
1.7579401 -0.52209902 0.37246296
1.79318 -0.51182997 0.37607998
1.77843 -0.52040601 0.37112594
1.7528 -0.52023 0.36105698
1.80678 -0.50183398 0.36787495
1.78936 -0.51064497 0.36385396
1.76728 -0.51641297 0.35786396
1.74804 -0.51848596 0.35011396
1.80275 -0.50040001 0.35683495
1.7949001 -0.51478803 0.35585698
1.7696401 -0.51730096 0.34930897
1.7461901 -0.51752698 0.34103897
1.8037801 -0.50173002 0.34741497
1.79705 -0.513623 0.34759697
1.7768401 -0.51909304 0.34192196
1.75386 -0.520464 0.33555195
1.80662 -0.50125301 0.33958799
1.8002499 -0.51315498 0.34018996
1.7839501 -0.52007902 0.33494595
1.7581199 -0.52149796 0.32623294
1.81338 -0.50340199 0.33335096
1.79703 -0.51227498 0.32948294
1.77285 -0.517618 0.32039297
1.751 -0.51893103 0.31334198
1.81032 -0.50381303 0.32271796
1.7905 -0.51258099 0.31697196
1.76982 -0.51628798 0.31007195
1.7575101 -0.52127999 0.30626497
1.80193 -0.513313 0.31170794
1.77596 -0.51723999 0.30323598
1.7518401 -0.517735 0.29315197
1.8141099 -0.50616503 0.30613697
1.8043801 -0.51704901 0.30379295
1.7734399 -0.51657599 0.29209298
1.7495301 -0.51613498 0.28289092
1.81067 -0.50453603 0.29498497
1.7986 -0.51531601 0.29248795
1.78336 -0.51961702 0.28650695
1.8169099 -0.50473803 0.287388
1.8036799 -0.51474202 0.28437194
1.7872901 -0.51941401 0.27699295
1.81671 -0.505831 0.27716196
1.8105099 -0.519171 0.27773896
1.7867501 -0.51840401 0.26654595
1.8210001 -0.50788504 0.26943099
1.81185 -0.517896 0.268163
1.7895 -0.51923001 0.25769097
1.8254601 -0.50956899 0.26227197
1.80914 -0.51723701 0.25670594
1.78624 -0.51779497 0.24619095
1.81741 -0.50759399 0.24968399
1.80972 -0.51818103 0.24723694
1.7799201 -0.51615697 0.23386398
1.8417701 -0.49986699 0.246978
1.82846 -0.50918698 0.24421494
1.7838401 -0.50863701 0.22533493
1.7872 -0.52036595 0.22910798
1.83857 -0.50069696 0.23694694
1.82802 -0.50888699 0.23243195
1.7889301 -0.50786799 0.21594994
1.77696 -0.51447302 0.21517196
1.82802 -0.50850099 0.222948
1.7817999 -0.51614499 0.20739692
1.77903 -0.51275599 0.41359496
1.7742 -0.52229804 0.41261497
1.79418 -0.50174701 0.41063094
1.7877001 -0.51342702 0.40793297
1.77175 -0.52125001 0.40266597
1.79436 -0.503766 0.40287098
1.78067 -0.51290399 0.39738396
1.7736701 -0.52153701 0.39383397
1.7939999 -0.502967 0.39453697
1.7793499 -0.512775 0.38822496
1.7660699 -0.52047598 0.38188198
1.7935001 -0.502303 0.38545498
1.77844 -0.512438 0.37897995
1.76771 -0.52070999 0.37372196
1.79617 -0.50225902 0.37730595
1.7793801 -0.51296902 0.37040097
1.765 -0.52078998 0.36396596
1.79276 -0.50368398 0.36761898
1.78088 -0.51354098 0.36175096
1.76503 -0.520904 0.35606995
1.79882 -0.50240999 0.36099994
1.78186 -0.51203096 0.35303098
1.77434 -0.52149099 0.35096896
1.7960899 -0.50295699 0.35051098
1.7820799 -0.51351601 0.34490597
1.77239 -0.52203101 0.34073895
1.79635 -0.50491899 0.34172797
1.77946 -0.51443803 0.33515495
1.76455 -0.52117801 0.32928795
1.80731 -0.50235099 0.33762294
1.7839501 -0.51211202 0.32812595
1.7709801 -0.52142698 0.32334897
1.8053999 -0.50340301 0.32791996
1.77692 -0.51222098 0.31700194
1.76176 -0.52030897 0.31192598
1.7696401 -0.52197397 0.30930898
1.81861 -0.50166398 0.29653797
1.82427 -0.50201899 0.28209594
1.82845 -0.50368303 0.25797996
1.8316499 -0.50328499 0.24963592
1.8341701 -0.503883 0.24075097
1.83599 -0.504004 0.23199996
1.8318 -0.504327 0.22097099
1.83641 -0.50535196 0.21517394
1.8381 -0.50443 0.20685898
1.8403701 -0.50557595 0.19790894
1.7921201 -0.50085998 0.41484696
1.7889301 -0.510396 0.41469496
1.7922701 -0.50174499 0.407493
1.7930499 -0.511208 0.40684795
1.7987 -0.50221097 0.40123296
1.78988 -0.510571 0.39660797
1.7922 -0.50187099 0.38999498
1.79076 -0.51074797 0.38814795
1.7973 -0.50130004 0.38274196
1.78681 -0.509381 0.37751198
1.7959399 -0.50221997 0.37284398
1.78979 -0.51068598 0.36994594
1.7935201 -0.50297797 0.36381096
1.7902499 -0.511316 0.36173594
1.79847 -0.50341302 0.35702896
1.7863699 -0.51011902 0.35205695
1.80418 -0.50264299 0.35044196
1.79116 -0.51060396 0.34548694
1.8001 -0.50230402 0.33909997
1.79096 -0.51059198 0.33613297
1.8008901 -0.503443 0.33077094
1.79571 -0.51192796 0.32930595
1.8063 -0.504439 0.32469597
1.7932299 -0.511069 0.31967199
1.81002 -0.503281 0.31715897
1.79882 -0.51103097 0.31402299
1.81319 -0.50311899 0.30931699
1.81358 -0.50249499 0.29980096
1.8164999 -0.50213403 0.29159394
1.8194299 -0.503618 0.28281897
1.82052 -0.50544298 0.27372795
1.81494 -0.50476897 0.26392198
1.8052299 -0.51097798 0.26026994
1.82778 -0.507083 0.26238
1.82847 -0.50564498 0.25176698
1.8304801 -0.50623399 0.24327499
1.8327299 -0.50620699 0.23507194
1.8354601 -0.50655198 0.22607598
1.83438 -0.506661 0.21583694
1.7644 -0.515863 0.41814396
1.7493601 -0.52156699 0.41355798
1.7869501 -0.50506699 0.41569695
1.77046 -0.51475698 0.41110194
1.7535001 -0.52173501 0.40570095
1.78627 -0.50755298 0.40694797
1.7615499 -0.51333696 0.39875299
1.74647 -0.519373 0.39277995
1.78379 -0.50882703 0.39803997
1.7592701 -0.51290601 0.38876298
1.7456 -0.519207 0.38303098
1.7868899 -0.50712603 0.38979799
1.7572399 -0.51270097 0.37862197
1.73518 -0.51728201 0.37022996
1.7839301 -0.50659001 0.37797296
1.73911 -0.50996703 0.36305997
1.7262399 -0.51507002 0.35897896
1.7848599 -0.50675899 0.36842495
1.75062 -0.50986695 0.35798398
1.72914 -0.51478499 0.35214996
1.78953 -0.506432 0.36177197
1.76746 -0.51317197 0.35587198
1.73487 -0.51495999 0.34610096
1.79459 -0.50746 0.35540295
1.7495199 -0.510315 0.34431994
1.80032 -0.50818598 0.34888694
1.8023599 -0.50746602 0.34089896
1.80216 -0.50682199 0.33094996
1.7966901 -0.50519502 0.31952494
1.81409 -0.50132102 0.31686497
1.8088499 -0.50940204 0.31577396
1.8147501 -0.50128299 0.30856895
1.80436 -0.50798303 0.30469197
1.81119 -0.50929403 0.29836696
1.8083099 -0.50822699 0.28630197
1.8055999 -0.50827497 0.27554893
1.80388 -0.50779402 0.26643899
1.8115699 -0.50943297 0.26133895
1.82603 -0.503205 0.25881898
1.8085001 -0.50683498 0.25087297
1.8314799 -0.50264502 0.25062698
1.8367 -0.50300401 0.22243798
1.78106 -0.50963098 0.41651899
1.76996 -0.517874 0.41372696
1.7902 -0.50010502 0.40943396
1.78091 -0.51084596 0.40746999
1.76638 -0.51625997 0.40200695
1.7904299 -0.50262403 0.40136898
1.77987 -0.51134896 0.39785495
1.76737 -0.51776403 0.39332095
1.79106 -0.50080502 0.39158595
1.7758099 -0.51050997 0.38725498
1.76736 -0.51796299 0.38517597
1.79607 -0.50056499 0.38346294
1.78914 -0.51237202 0.38282499
1.77266 -0.51863801 0.37796098
1.8003399 -0.50397098 0.37675697
1.78653 -0.512833 0.37290195
1.7711999 -0.51788801 0.36688495
1.8008599 -0.50615001 0.36870995
1.78467 -0.51299399 0.36284694
1.76336 -0.51580203 0.35457295
1.7825199 -0.51293999 0.35285798
1.7673 -0.51759702 0.34791696
1.7897201 -0.51272398 0.34642896
1.7719799 -0.51849902 0.34059393
1.7988299 -0.50345004 0.34049997
1.7901199 -0.51438498 0.33698896
1.77407 -0.51941502 0.33200294
1.80159 -0.50433499 0.33216095
1.7965 -0.51583403 0.32978398
1.7725301 -0.51845902 0.32165694
1.7881399 -0.51359904 0.31707996
1.77371 -0.51909 0.31297797
1.7950901 -0.51516801 0.31047097
1.7725 -0.51777804 0.30253497
1.7958701 -0.51634902 0.30193195
1.77192 -0.51846296 0.29227492
1.80542 -0.50637001 0.29440796
1.7862899 -0.51406103 0.28850693
1.77477 -0.52000701 0.28484794
1.8080601 -0.505458 0.28544
1.7970901 -0.51516896 0.28356293
1.77782 -0.51977199 0.27659896
1.81194 -0.509565 0.27992493
1.7890899 -0.51356101 0.27083495
1.7723801 -0.51837701 0.26367897
1.81024 -0.50894797 0.26948592
1.7873 -0.51422501 0.26048294
1.7651 -0.51580602 0.25152496
1.81593 -0.50684398 0.261298
1.79496 -0.51382703 0.25409898
1.7688699 -0.516397 0.24381897
1.81338 -0.50827903 0.25109497
1.7805499 -0.50976896 0.23884597
1.76622 -0.515661 0.23451294
1.8139399 -0.50833696 0.24271698
1.7655799 -0.51582903 0.22773293
1.82052 -0.50598598 0.23408997
1.8267399 -0.50801104 0.22624199
1.82824 -0.50874799 0.21707496
1.8278799 -0.50850201 0.20720795
1.82899 -0.50948501 0.19829193
1.8280499 -0.50916302 0.18913895
1.8315899 -0.50959599 0.18106399
1.8286 -0.50824797 0.16870697
1.7830701 -0.50736696 0.41953096
1.77584 -0.51894999 0.41837895
1.76276 -0.52423501 0.41358796
1.7838 -0.50851703 0.41135895
1.77994 -0.52063799 0.41066498
1.7607601 -0.52317899 0.40345195
1.78993 -0.50943899 0.40380096
1.7803799 -0.52121603 0.40155098
1.75885 -0.52258098 0.39358598
1.7993201 -0.49795699 0.39503497
1.7867799 -0.510746 0.39338598
1.77982 -0.52201802 0.39285895
1.7569799 -0.52128202 0.38352597
1.80015 -0.49917001 0.38547498
1.7943699 -0.51096296 0.38712996
1.7802299 -0.51980001 0.38350499
1.75598 -0.520266 0.37331998
1.7912101 -0.50993699 0.37694696
1.77648 -0.51853698 0.37198895
1.7508501 -0.51840502 0.36191297
1.8047999 -0.49991798 0.36874497
1.78739 -0.508757 0.36471996
1.76531 -0.51456296 0.35872295
1.7460899 -0.51666903 0.35096896
1.79293 -0.51289099 0.35672295
1.7676899 -0.51544702 0.35016894
1.7442399 -0.51571298 0.34189296
1.7950901 -0.51172298 0.34846497
1.7748899 -0.51722699 0.34278497
1.75191 -0.51863801 0.33640698
1.79828 -0.51124901 0.34105897
1.7820101 -0.51820099 0.33581096
1.7561799 -0.51966304 0.32709095
1.8114101 -0.50147301 0.33422399
1.7950701 -0.51037401 0.33034995
1.7709 -0.51575804 0.32125396
1.74905 -0.51710802 0.31419697
1.8083501 -0.50188804 0.32358897
1.78854 -0.51069099 0.31783694
1.76788 -0.51443201 0.31093198
1.7555701 -0.51944602 0.30712196
1.79998 -0.51140302 0.31257698
1.7740101 -0.515374 0.30409798
1.7499001 -0.51590902 0.29400694
1.81214 -0.504233 0.30700898
1.8024299 -0.51513499 0.30466199
1.7715 -0.514714 0.29295394
1.7475901 -0.514314 0.28374496
1.7966499 -0.51340997 0.29335597
1.78142 -0.51773798 0.28737098
1.81494 -0.502801 0.28826097
1.80173 -0.51282799 0.28524095
1.7853501 -0.517528 0.27785698
1.8147501 -0.50389403 0.27803397
1.8085699 -0.51724499 0.27860999
1.7848101 -0.516518 0.26741096
1.81905 -0.50594103 0.27030495
1.8099099 -0.51596701 0.26903495
1.78756 -0.51733899 0.25855598
1.8235099 -0.507617 0.26314795
1.80722 -0.51531297 0.25757697
1.78431 -0.51590997 0.24705498
1.8154601 -0.50565499 0.25055695
1.80779 -0.51625502 0.248107
1.77799 -0.51428103 0.23472595
1.82651 -0.50722903 0.24509095
1.7819 -0.50675398 0.22619896
1.7852901 -0.51847696 0.229972
1.82608 -0.50692904 0.23330894
1.78699 -0.50597596 0.21681595
1.77503 -0.51260298 0.21603294
1.82609 -0.50654298 0.22382393
1.7798899 -0.514265 0.20826095
