# .PCD v0.7 - Point Cloud Data file format
VERSION 0.7
FIELDS x y z
SIZE 4 4 4
TYPE F F F
COUNT 1 1 1
WIDTH 1607
HEIGHT 1
VIEWPOINT 0 0 0 1 0 0 0
POINTS 1607
DATA ascii
1.4546001 -0.46545503 1.8747009
1.45586 -0.47561902 1.8753009
1.44696 -0.53901201 1.872766
1.4529099 -0.54773599 1.8739309
1.42513 -0.37105 1.8656589
1.42968 -0.384379 1.8671299
1.43093 -0.39890301 1.86545
1.4300901 -0.41077203 1.8646201
1.48629 -0.44499502 1.8732709
1.4561701 -0.465388 1.8669059
1.4579101 -0.47522399 1.866908
1.43485 -0.54101002 1.863508
1.42813 -0.55230999 1.8618289
1.43294 -0.370653 1.857041
1.42759 -0.38462502 1.8565351
1.42822 -0.39824 1.855237
1.46711 -0.46265998 1.8597901
1.4587101 -0.47465301 1.858797
1.4320799 -0.54135603 1.8563958
1.44133 -0.336716 1.845822
1.44375 -0.34888598 1.846841
1.4315 -0.36817101 1.8473539
1.42959 -0.38443902 1.8467969
1.42147 -0.39890701 1.8439959
1.4719 -0.462841 1.8523169
1.46759 -0.47275299 1.8520099
1.44463 -0.32203603 1.838593
1.4469501 -0.33442903 1.839861
1.4406199 -0.35067201 1.8405341
1.4349699 -0.36782101 1.8399719
1.41677 -0.388504 1.8369279
1.42585 -0.398047 1.8376929
1.48534 -0.45960301 1.8485129
1.45727 -0.30347201 1.831157
1.45753 -0.318082 1.833362
1.45521 -0.33080301 1.8335949
1.4452499 -0.345559 1.8325101
1.43735 -0.39641103 1.833841
1.46373 -0.31260002 1.826288
1.4593201 -0.327546 1.8259031
1.44302 -0.34194198 1.822319
1.4619701 -0.31169799 1.8170979
1.4560001 -0.32712501 1.8152329
1.45696 -0.55526197 1.8030899
1.4691 -0.56436199 1.80453
1.46981 -0.58121699 1.804172
1.47369 -0.59692699 1.8041389
1.46898 -0.61337501 1.8015931
1.45992 -0.29912701 1.8079981
1.45743 -0.314224 1.8058771
1.45162 -0.32751399 1.8045759
1.46814 -0.551768 1.7983319
1.4688499 -0.56332296 1.798526
1.4757401 -0.57599199 1.798461
1.47683 -0.59254003 1.7989279
1.48147 -0.60709101 1.798059
1.48226 -0.625983 1.7957621
1.4604801 -0.29881999 1.7988541
1.46076 -0.313086 1.7977929
1.45279 -0.32681099 1.794979
1.4650301 -0.55128503 1.7878289
1.47211 -0.56230903 1.791261
1.47928 -0.57494801 1.7904581
1.48207 -0.59103799 1.791057
1.4874699 -0.60828602 1.7899579
1.49857 -0.62289101 1.7896218
1.4409 -0.30405599 1.786485
1.45687 -0.31411698 1.7891499
1.44332 -0.33027303 1.7839561
1.4416901 -0.34214902 1.7825561
1.48282 -0.53485602 1.782977
1.46242 -0.55095404 1.77853
1.4738801 -0.56222701 1.7818589
1.48044 -0.577555 1.7825949
1.4834199 -0.59429902 1.7808231
1.4984801 -0.608248 1.7825869
1.50765 -0.62124801 1.7826649
1.44801 -0.31929299 1.7776779
1.44705 -0.33234701 1.7760069
1.4236599 -0.34685901 1.7708859
1.45998 -0.55101001 1.76974
1.4664999 -0.56133902 1.771607
1.46961 -0.57811999 1.7719619
1.47541 -0.59741998 1.770494
1.49278 -0.60817003 1.7728729
1.50802 -0.618586 1.7754291
1.4328301 -0.32406101 1.765448
1.44215 -0.33265498 1.767233
1.43241 -0.345635 1.763675
1.45989 -0.55179298 1.7602609
1.4635201 -0.56153303 1.7613859
1.47905 -0.61447501 1.7618219
1.5101199 -0.62014699 1.766842
1.4356799 -0.33570901 1.756914
1.4357001 -0.34729198 1.7529041
1.4593899 -0.55181801 1.750538
1.45613 -0.56196499 1.74949
1.5069799 -0.62353301 1.7578729
1.43311 -0.33892602 1.7461429
1.42758 -0.35034698 1.7421939
1.46749 -0.54982203 1.742908
1.46875 -0.5582 1.7422999
1.4293201 -0.34083599 1.7359298
1.42998 -0.35151699 1.7336209
1.46869 -0.54912698 1.7341369
1.47738 -0.55602002 1.7336991
1.42295 -0.34261501 1.725354
1.4234599 -0.35206002 1.723823
1.47978 -0.54634303 1.726094
1.47378 -0.55665201 1.7238981
1.4826 -0.546027 1.7171729
1.48209 -0.55555898 1.716279
1.48549 -0.54476202 1.7077719
1.4854 -0.55738801 1.7059751
1.4684 -0.53473204 1.6934369
1.47526 -0.54494798 1.695451
1.4930201 -0.55487096 1.6987588
1.49201 -0.57227004 1.6970911
1.4930099 -0.58890802 1.695015
1.49946 -0.60194403 1.6947
1.5042999 -0.614999 1.6940908
1.4891601 -0.53075498 1.692409
1.49324 -0.54141301 1.6924499
1.5017301 -0.5539 1.6916251
1.50219 -0.56827998 1.6919399
1.50446 -0.58651102 1.690292
1.5163901 -0.600959 1.691523
1.5297199 -0.61111403 1.6925889
1.5032401 -0.54057997 1.687683
1.50711 -0.554658 1.685397
1.50539 -0.57058001 1.6835769
1.50674 -0.58754301 1.6810889
1.5188299 -0.599635 1.683725
1.5275799 -0.612077 1.6852499
1.44159 -0.50031102 1.907591
1.4400101 -0.56782901 1.909379
1.43668 -0.50121897 1.900857
1.4316499 -0.513035 1.9000779
1.44791 -0.54710799 1.9003119
1.4586501 -0.56188399 1.904176
1.45959 -0.57520199 1.903469
1.4406199 -0.50071204 1.8935559
1.43284 -0.51281601 1.893576
1.4415801 -0.52797002 1.892887
1.44779 -0.54510701 1.892939
1.4570199 -0.56016803 1.895492
1.4702499 -0.57203096 1.897034
1.44478 -0.50006902 1.8860779
1.43532 -0.51359904 1.8844819
1.44609 -0.52653497 1.885574
1.4461501 -0.54102999 1.885033
1.4519501 -0.556508 1.885722
1.46261 -0.57122701 1.8886539
1.45121 -0.58725202 1.887979
1.4418401 -0.50067103 1.877336
1.43713 -0.51269799 1.8750739
1.44224 -0.52662998 1.876434
1.44372 -0.54325503 1.8756039
1.4436301 -0.55779099 1.8753549
1.44002 -0.501405 1.8672279
1.43841 -0.51406103 1.8672971
1.44459 -0.527677 1.8671439
1.43642 -0.544478 1.8653129
1.41799 -0.55964696 1.8624589
1.45139 -0.49877498 1.8595151
1.44392 -0.51271302 1.858605
1.4311501 -0.53053999 1.855927
1.41502 -0.54660398 1.854064
1.46279 -0.49599603 1.8519831
1.42784 -0.51702499 1.846561
1.4200301 -0.53140998 1.846128
1.4610801 -0.49633598 1.842696
1.4423 -0.51002604 1.839606
1.41974 -0.52608603 1.83683
1.45858 -0.49679101 1.8341479
1.46506 -0.49664199 1.824617
1.5034699 -0.49001399 1.8204139
1.4909301 -0.50476396 1.8176129
1.4674001 -0.52592099 1.8119159
1.4375399 -0.54614699 1.8061138
1.44898 -0.55915403 1.8072048
1.4561501 -0.57507098 1.8071949
1.45328 -0.59085 1.8056699
1.52644 -0.48568001 1.8167011
1.51879 -0.497504 1.814307
1.48808 -0.51903898 1.808669
1.4606799 -0.54226798 1.8034669
1.4607 -0.55984402 1.802431
1.4749299 -0.57130504 1.804547
1.46867 -0.58622301 1.8022971
1.4782001 -0.60106802 1.802231
1.47843 -0.62130797 1.8003349
1.5306599 -0.48548302 1.809664
1.5235801 -0.496914 1.8064249
1.51048 -0.511096 1.8040961
1.4710499 -0.53825498 1.79664
1.46592 -0.55518001 1.795022
1.47135 -0.57169604 1.7957059
1.48092 -0.58767104 1.79539
1.4836099 -0.60516202 1.7951059
1.49511 -0.61884898 1.79608
1.52388 -0.48838198 1.7997699
1.5165601 -0.50046802 1.7969639
1.49869 -0.51823503 1.7936599
1.46738 -0.54315299 1.786274
1.46469 -0.55922902 1.785494
1.47901 -0.57360697 1.7875071
1.4834399 -0.58738303 1.787392
1.48866 -0.60135102 1.7873749
1.48772 -0.61737704 1.7876359
1.51551 -0.50069302 1.7887149
1.5139199 -0.51137501 1.7870499
1.45119 -0.54806101 1.7728839
1.46357 -0.55651796 1.7768689
1.4724201 -0.56942999 1.7785339
1.48763 -0.58711702 1.7804469
1.49647 -0.60210699 1.7799
1.49761 -0.61589801 1.78073
1.51767 -0.50075901 1.7790539
1.53034 -0.507164 1.7811619
1.4542999 -0.54654402 1.7637079
1.45946 -0.55620301 1.767491
1.4766001 -0.608055 1.7686909
1.50094 -0.61637998 1.772464
1.51728 -0.50176203 1.7712821
1.5170399 -0.51045299 1.771297
1.46559 -0.54254103 1.755927
1.45869 -0.55381101 1.756904
1.50362 -0.61923301 1.764571
1.5061001 -0.50243002 1.7631369
1.46672 -0.53284299 1.7490219
1.4672301 -0.54154801 1.7487799
1.46301 -0.55132401 1.7475479
1.45978 -0.54332399 1.73928
1.4670501 -0.55148101 1.7380209
1.46442 -0.54206002 1.7287171
1.47095 -0.55103898 1.730067
1.4378999 -0.53013599 1.71355
1.45903 -0.54189998 1.717746
1.4705299 -0.55127501 1.7213559
1.47949 -0.49405497 1.716381
1.4526801 -0.54002398 1.7076019
1.46351 -0.553325 1.7088609
1.48612 -0.49327901 1.7112919
1.44821 -0.52829599 1.6973759
1.46577 -0.541857 1.7012039
1.47695 -0.55355299 1.703194
1.4779299 -0.56644404 1.701355
1.4999299 -0.579678 1.702666
1.4741 -0.537552 1.693436
1.4774801 -0.55396402 1.695192
1.5031199 -0.56486803 1.6985309
1.5068401 -0.58053398 1.6967599
1.5221601 -0.59341598 1.6992371
1.5200701 -0.61091101 1.696811
1.48132 -0.510616 1.6878048
1.4765199 -0.52254796 1.6872519
1.4899299 -0.53415799 1.68821
1.49507 -0.55100799 1.6888299
1.5000701 -0.56742799 1.6893589
1.50811 -0.57958698 1.689126
1.51826 -0.59375399 1.6904669
1.52782 -0.60862803 1.692312
1.52562 -0.62511599 1.6896869
1.5070399 -0.50587398 1.6872699
1.4952099 -0.52002102 1.6840619
1.50202 -0.53600001 1.683779
1.50771 -0.54905301 1.683633
1.50911 -0.56496203 1.6824899
1.51662 -0.58002299 1.683326
1.5296899 -0.60835701 1.684112
1.53116 -0.62269503 1.684639
1.521 -0.546673 1.6811459
1.42758 -0.48594001 1.949139
1.43768 -0.49835601 1.9496689
1.4342999 -0.48667198 1.9406489
1.4425101 -0.49836498 1.939689
1.4392101 -0.48755601 1.9317679
1.4511701 -0.49973401 1.930697
1.44373 -0.48828802 1.9227319
1.45365 -0.50125599 1.923371
1.4301801 -0.51517797 1.919416
1.44052 -0.47194198 1.915711
1.4447 -0.48682702 1.913747
1.44996 -0.50241601 1.914238
1.4314799 -0.51849496 1.910534
1.4445399 -0.57118899 1.9106109
1.45215 -0.45969898 1.905563
1.44405 -0.47271499 1.9060831
1.4463401 -0.48945701 1.905339
1.45604 -0.50258899 1.9063699
1.43218 -0.51841098 1.9029069
1.4335699 -0.53416502 1.901827
1.4505 -0.55170101 1.903398
1.4553599 -0.56821799 1.904536
1.4654499 -0.45830798 1.898227
1.44752 -0.48479599 1.8967459
1.44881 -0.50327098 1.896355
1.42927 -0.52210402 1.8941779
1.4425399 -0.53673196 1.8947251
1.4536799 -0.55243701 1.895831
1.46152 -0.56747603 1.8965509
1.46717 -0.45836899 1.8902719
1.45012 -0.471055 1.888461
1.44976 -0.48786598 1.8870339
1.4538699 -0.50299001 1.887705
1.44453 -0.52015597 1.8864028
1.45149 -0.53772402 1.886853
1.46023 -0.55312097 1.8881379
1.4712399 -0.56669897 1.8901221
1.4677401 -0.459501 1.8813361
1.4528301 -0.473847 1.8793789
1.45155 -0.48761299 1.8789231
1.44824 -0.50301397 1.878037
1.44581 -0.51879901 1.8774769
1.44876 -0.53283697 1.8776879
1.4522301 -0.54882902 1.8785139
1.45772 -0.56432199 1.880748
1.46808 -0.45916402 1.871014
1.45787 -0.47179401 1.871068
1.45198 -0.48675597 1.871263
1.45701 -0.50043201 1.869926
1.45011 -0.51725101 1.8694321
1.44569 -0.53442901 1.869437
1.4405 -0.55107898 1.8706219
1.4756501 -0.45792499 1.8638629
1.46183 -0.47055998 1.8622589
1.4573599 -0.48576099 1.8629199
1.4567101 -0.50181699 1.861256
1.4521401 -0.51639402 1.8604261
1.4897701 -0.456402 1.8597699
1.4641401 -0.47005001 1.854836
1.4592301 -0.486119 1.85303
1.46345 -0.50144798 1.8540559
1.4432499 -0.513969 1.850367
1.4572301 -0.47439802 1.8444749
1.45929 -0.485728 1.842326
1.46567 -0.49793598 1.8457708
1.46561 -0.47482601 1.8362241
1.47609 -0.48384801 1.8359281
1.4661701 -0.49622798 1.8347099
1.48095 -0.473452 1.8289011
1.4731899 -0.48611698 1.8268601
1.47335 -0.497567 1.8263589
1.50483 -0.47049499 1.823876
1.50263 -0.48164099 1.8231709
1.49771 -0.49515203 1.8215148
1.4712801 -0.50810796 1.818754
1.4501801 -0.58363098 1.806022
1.5106701 -0.47105399 1.815639
1.51713 -0.48295799 1.8168939
1.52911 -0.49358699 1.818539
1.5160699 -0.50456798 1.814888
1.44481 -0.54087603 1.799888
1.4613401 -0.55011797 1.8025769
1.4714501 -0.56486398 1.804009
1.47537 -0.580145 1.8042439
1.4770199 -0.593207 1.803977
1.49738 -0.47120398 1.8033509
1.51589 -0.48165798 1.8076249
1.5224099 -0.49411702 1.809584
1.5146099 -0.50686902 1.805488
1.45733 -0.53955299 1.7957449
1.46407 -0.55117697 1.796177
1.47489 -0.56633598 1.7972049
1.4722 -0.580769 1.7970639
1.48017 -0.59263903 1.797941
1.4782699 -0.60855299 1.795743
1.4811901 -0.62847698 1.7940509
1.4783599 -0.47230703 1.7915491
1.50269 -0.48107499 1.796003
1.51323 -0.495904 1.797713
1.4986701 -0.51433104 1.7938958
1.46244 -0.53709102 1.7876691
1.47244 -0.55136698 1.788638
1.4765899 -0.56613803 1.788483
1.4807299 -0.57992101 1.790844
1.48018 -0.59563202 1.7890838
1.49286 -0.61078399 1.789937
1.4978399 -0.62603402 1.7891029
1.4882801 -0.47282299 1.7844119
1.5056599 -0.48429698 1.7874969
1.5151 -0.49695501 1.7886249
1.50414 -0.51091599 1.7876719
1.47106 -0.532323 1.7811011
1.4655 -0.54826802 1.7789788
1.46556 -0.563541 1.778037
1.48227 -0.57956904 1.7808549
1.4984801 -0.59625798 1.783468
1.49895 -0.61207998 1.782734
1.48276 -0.473322 1.7730319
1.49735 -0.483401 1.7769901
1.51359 -0.49482399 1.78025
1.5206101 -0.50566202 1.7823629
1.46347 -0.53930998 1.7711619
1.46421 -0.551687 1.770401
1.46839 -0.56477201 1.7697339
1.45781 -0.58056402 1.766984
1.47724 -0.59691298 1.771421
1.49799 -0.60935998 1.775085
1.48528 -0.472271 1.7642239
1.49177 -0.48313099 1.7667499
1.5103101 -0.49354303 1.771655
1.51191 -0.50464499 1.7722629
1.46512 -0.55328101 1.7620028
1.4585099 -0.56528401 1.7584299
1.4984399 -0.61298299 1.767146
1.48323 -0.47225299 1.755643
1.4873101 -0.48298302 1.7562959
1.4984 -0.49554002 1.759988
1.4585299 -0.55407101 1.749519
1.45989 -0.56335998 1.749476
1.48728 -0.47206298 1.7478861
1.48926 -0.482784 1.7482029
1.46808 -0.532116 1.7404209
1.4704601 -0.54916102 1.741658
1.46235 -0.56163698 1.7412421
1.48095 -0.47235802 1.7379719
1.4908 -0.48260799 1.7401059
1.4611099 -0.53165001 1.73151
1.4706799 -0.54637098 1.734117
1.47303 -0.55833602 1.733673
1.48252 -0.47254798 1.729782
1.49252 -0.48379901 1.7306509
1.4731799 -0.54845202 1.726158
1.47255 -0.56087601 1.7228009
1.4924699 -0.47267601 1.721593
1.4917301 -0.485304 1.721084
1.47584 -0.55223596 1.7150639
1.47277 -0.56261998 1.7135839
1.4889301 -0.472085 1.71058
1.5005001 -0.48137799 1.7147659
1.4909599 -0.49583599 1.711545
1.4688201 -0.51456797 1.7048919
1.45812 -0.531142 1.702188
1.48114 -0.54740697 1.705784
1.4822501 -0.56225199 1.707171
1.45893 -0.57448 1.7033539
1.49192 -0.47260201 1.7019339
1.4981101 -0.48221099 1.7054099
1.48523 -0.498326 1.7007169
1.47054 -0.51516199 1.695845
1.46798 -0.53132898 1.69582
1.4875101 -0.54589903 1.6978519
1.49071 -0.561414 1.699495
1.49549 -0.57483298 1.6999869
1.4993601 -0.58958697 1.697083
1.4906 -0.47310799 1.6941141
1.49823 -0.48418599 1.696026
1.48164 -0.50165701 1.6906531
1.47901 -0.51764196 1.689682
1.48395 -0.53200197 1.6906949
1.4864501 -0.54487401 1.688952
1.4982699 -0.56007701 1.6914181
1.4984399 -0.575957 1.6926179
1.50886 -0.58967 1.6923881
1.5221601 -0.60317403 1.6933349
1.5182 -0.62106001 1.6904559
1.5030701 -0.48299301 1.6902879
1.4921899 -0.498844 1.685874
1.48351 -0.51452601 1.6827381
1.48646 -0.53032601 1.682278
1.4953599 -0.54598802 1.6820689
1.50217 -0.56152999 1.6832238
1.5085499 -0.57679498 1.6857339
1.51401 -0.59173 1.6860669
1.5245301 -0.603881 1.6864909
1.5295799 -0.61842996 1.6865289
1.54084 -0.61809599 1.6816089
1.4233299 -0.38174599 1.9287189
1.30019 -0.38882598 1.9171759
1.4131 -0.38718799 1.9237781
1.41287 -0.37855598 1.9239841
1.30935 -0.39801601 1.9133561
1.3289399 -0.39480498 1.914396
1.3875799 -0.39174899 1.9174989
1.40231 -0.38448298 1.9183109
1.40626 -0.375507 1.9190439
1.39697 -0.366898 1.9194031
1.3241099 -0.421496 1.9065241
1.33812 -0.414487 1.908699
1.3236001 -0.40107301 1.9095551
1.35254 -0.397046 1.9108578
1.3950701 -0.39429298 1.9123759
1.4111199 -0.38668001 1.912279
1.40737 -0.37586898 1.9135929
1.40011 -0.366768 1.91456
1.33571 -0.423507 1.9028338
1.34038 -0.41378799 1.90414
1.3269099 -0.40123403 1.9050479
1.36455 -0.39957199 1.90528
1.41573 -0.39574799 1.907298
1.4233999 -0.38836399 1.9063599
1.4109399 -0.37665901 1.9074899
1.4093201 -0.36837003 1.9089859
1.3186001 -0.45275101 1.893521
1.3299699 -0.44469798 1.8951389
1.33248 -0.43528199 1.896661
1.34224 -0.42821801 1.8973639
1.3386999 -0.41560298 1.897724
1.33781 -0.40410301 1.8993249
1.37007 -0.40148103 1.898266
1.43081 -0.39817199 1.900982
1.4473701 -0.39248902 1.9009689
1.43808 -0.381657 1.9019189
1.4194901 -0.37011799 1.9030169
1.32275 -0.46326697 1.888641
1.3253599 -0.45468199 1.88959
1.33065 -0.446165 1.889941
1.3342 -0.43616298 1.891426
1.34271 -0.42660198 1.8914059
1.3314301 -0.41346601 1.8920139
1.34506 -0.40653199 1.8928448
1.3749601 -0.401685 1.8921551
1.40704 -0.396837 1.8940469
1.44384 -0.39292702 1.895484
1.4577299 -0.38561001 1.896073
1.4463401 -0.37522301 1.897033
1.3712 -0.51831198 1.8808938
1.3724899 -0.51130402 1.881026
1.3304499 -0.476228 1.882818
1.3254499 -0.46422002 1.8843139
1.32938 -0.455266 1.8840089
1.33415 -0.444677 1.885047
1.3425599 -0.43629199 1.885918
1.33893 -0.42623699 1.8854159
1.3397501 -0.41550702 1.8865759
1.3484199 -0.40599701 1.8866581
1.37765 -0.40234298 1.8865919
1.39382 -0.39480099 1.8873121
1.4254299 -0.390971 1.8894529
1.46867 -0.38765898 1.890615
1.4805901 -0.38045502 1.8904469
1.35094 -0.494333 1.876478
1.33815 -0.481042 1.8777521
1.33073 -0.467379 1.8784839
1.33355 -0.45677701 1.8776289
1.3330001 -0.446197 1.8793421
1.3422199 -0.43670601 1.879725
1.33834 -0.42433399 1.8805909
1.3489701 -0.41603902 1.880335
1.35787 -0.40679002 1.8813139
1.3836099 -0.40223998 1.880869
1.39676 -0.393837 1.8811129
1.41247 -0.38797799 1.88212
1.48575 -0.38635299 1.8848579
1.51002 -0.383656 1.8843509
1.3397701 -0.48033902 1.8723069
1.33147 -0.46625999 1.8726081
1.33866 -0.45785901 1.87151
1.3366499 -0.44569001 1.8732309
1.3411099 -0.43534401 1.873462
1.34112 -0.42533797 1.874975
1.3458501 -0.41669202 1.8741181
1.35517 -0.40728199 1.8750479
1.3886701 -0.404333 1.8748689
1.39091 -0.39439401 1.875527
1.4154601 -0.38788101 1.8755538
1.4307801 -0.38115102 1.8758279
1.5106701 -0.38283902 1.880201
1.50954 -0.37603 1.880049
1.32022 -0.62160599 1.8567309
1.3120199 -0.61119097 1.8570969
1.34264 -0.47042099 1.8665509
1.3419501 -0.458316 1.865458
1.3382499 -0.44668499 1.8669659
1.3406501 -0.43610802 1.8678339
1.34479 -0.42616403 1.868938
1.35203 -0.41643003 1.8682019
1.36659 -0.407902 1.8690311
1.3910401 -0.403014 1.8698889
1.4090401 -0.39677602 1.8696741
1.41588 -0.38638401 1.86944
1.42474 -0.378162 1.870376
1.44629 -0.37482899 1.870819
1.30108 -0.60696298 1.852873
1.4147999 -0.52434701 1.854375
1.34244 -0.46832299 1.8601069
1.3396699 -0.45705798 1.8599359
1.3440199 -0.44820499 1.8609689
1.33807 -0.43642899 1.8622339
1.3454201 -0.42605498 1.862301
1.3477 -0.41595402 1.8626928
1.3577499 -0.40855598 1.863163
1.3967199 -0.40537399 1.8637079
1.42638 -0.401151 1.863025
1.45383 -0.400383 1.8618311
1.41197 -0.37351102 1.8644269
1.42496 -0.36927199 1.865353
1.29221 -0.60207701 1.847344
1.43452 -0.53943002 1.8488251
1.4223801 -0.52711302 1.849762
1.3374001 -0.45829898 1.854618
1.3424499 -0.448699 1.855148
1.3428199 -0.43671 1.8556879
1.3526601 -0.42729598 1.855788
1.35692 -0.4181 1.857571
1.3741601 -0.41146499 1.857742
1.4148101 -0.40769199 1.8570579
1.4477401 -0.406905 1.8563789
1.40203 -0.36906201 1.8583411
1.41505 -0.36475798 1.858179
1.29494 -0.60032797 1.840837
1.3152601 -0.59954101 1.840734
1.4335899 -0.53874499 1.843873
1.41493 -0.52350199 1.8453461
1.3428301 -0.468079 1.848267
1.3402801 -0.45618001 1.8490149
1.34073 -0.44578499 1.8498911
1.34227 -0.43707699 1.8492459
1.3501101 -0.42860699 1.849975
1.3572501 -0.41972199 1.8510699
1.44048 -0.41901901 1.8508811
1.4380001 -0.41169998 1.851174
1.41844 -0.37070999 1.852597
1.41316 -0.36244202 1.852549
1.42107 -0.35545799 1.851897
1.41801 -0.345238 1.8510159
1.2974401 -0.599702 1.8353469
1.29951 -0.59150004 1.8359878
1.31758 -0.59061003 1.835838
1.4437801 -0.54346001 1.837131
1.4358299 -0.53345799 1.8389069
1.3462199 -0.46036801 1.842616
1.34235 -0.446969 1.8436019
1.35043 -0.43708599 1.8433789
1.3503 -0.426774 1.8447239
1.36621 -0.42319402 1.843613
1.4868801 -0.415914 1.8455909
1.43085 -0.37214199 1.8478329
1.4186701 -0.36143902 1.8479179
1.4178901 -0.351762 1.8472321
1.41394 -0.34362498 1.847217
1.3098599 -0.61235803 1.829482
1.30294 -0.60158998 1.8300339
1.30258 -0.59238499 1.8307511
1.30481 -0.58297402 1.830255
1.46355 -0.54949099 1.831543
1.4411701 -0.53611302 1.8330789
1.34746 -0.47044101 1.835961
1.3455299 -0.45764703 1.836279
1.34469 -0.44500703 1.8373278
1.3571401 -0.42905602 1.8383729
1.3619901 -0.42214403 1.837369
1.4261501 -0.35354301 1.843521
1.4196 -0.34446999 1.843677
1.32358 -0.60782099 1.824093
1.30935 -0.59260702 1.824729
1.31414 -0.58306801 1.8240089
1.31364 -0.57278997 1.824115
1.3281 -0.56708002 1.822672
1.44845 -0.54528999 1.8280259
1.3484801 -0.48057598 1.829491
1.3474699 -0.468712 1.829754
1.34518 -0.457977 1.830556
1.34817 -0.44846803 1.830739
1.35593 -0.43794701 1.832142
1.31879 -0.594953 1.8193641
1.3180701 -0.58449 1.8191279
1.3136901 -0.57295102 1.8197459
1.3206199 -0.56496298 1.8192248
1.32893 -0.55733895 1.8178799
1.36694 -0.51842397 1.8198459
1.35826 -0.50513101 1.82121
1.3484199 -0.49017102 1.8230569
1.34718 -0.47866797 1.8237619
1.347 -0.45929199 1.824955
1.3501199 -0.44951099 1.824417
1.3509101 -0.438703 1.8255349
1.3338699 -0.58996898 1.8142679
1.3171201 -0.57181704 1.8148929
1.32649 -0.563936 1.8140531
1.33621 -0.55750799 1.812755
1.34872 -0.55204701 1.8118979
1.3671001 -0.53061002 1.8132958
1.358 -0.51710802 1.814751
1.3646001 -0.50811201 1.814294
1.3544999 -0.49345797 1.8165699
1.34983 -0.481572 1.818187
1.35049 -0.47065899 1.8187
1.3465899 -0.457822 1.818763
1.3528999 -0.447842 1.8185401
1.45597 -0.63943696 1.7974719
1.34771 -0.56882501 1.807954
1.3518 -0.55972099 1.806998
1.35132 -0.55024999 1.8073349
1.3595799 -0.54205298 1.8073829
1.35703 -0.52825904 1.8084019
1.35864 -0.51744497 1.8088238
1.37517 -0.511374 1.807519
1.3523599 -0.48081502 1.8121359
1.34481 -0.46698299 1.8132119
1.35045 -0.457515 1.8123959
1.35423 -0.448506 1.81306
1.3575799 -0.43956798 1.8133451
1.36641 -0.43049598 1.8132058
1.4546499 -0.63616598 1.7920179
1.4563099 -0.625103 1.791437
1.3652999 -0.56331098 1.801882
1.35426 -0.549909 1.802637
1.36492 -0.541538 1.801838
1.35588 -0.52671504 1.803387
1.3672501 -0.51945996 1.8026819
1.3565401 -0.48169398 1.805573
1.3470399 -0.46812198 1.8071851
1.3540699 -0.45946702 1.8056309
1.3524201 -0.44776401 1.8077999
1.36317 -0.43899399 1.806911
1.3693601 -0.43071201 1.8073089
1.4562199 -0.63580799 1.785907
1.4552699 -0.62364602 1.786415
1.45732 -0.61414301 1.78661
1.45847 -0.60544103 1.7868409
1.3766201 -0.55603999 1.796705
1.3755499 -0.545151 1.7967678
1.38132 -0.535151 1.7970929
1.3953999 -0.52574599 1.7956989
1.35621 -0.47113499 1.800058
1.3545799 -0.45968699 1.7996149
1.3578 -0.448746 1.800747
1.36769 -0.43068501 1.801742
1.4614 -0.63708097 1.779301
1.46383 -0.62666899 1.7799618
1.47888 -0.619856 1.779024
1.5046401 -0.617383 1.7768201
1.5088 -0.60992998 1.7770951
1.3536501 -0.46807203 1.7938238
1.3537601 -0.45713401 1.794452
1.35277 -0.44718701 1.7953089
1.36373 -0.439953 1.7955759
1.4690199 -0.63918799 1.772876
1.48475 -0.633192 1.7719181
1.35669 -0.478212 1.787052
1.35691 -0.47063702 1.7874939
1.3574699 -0.4605 1.788137
1.35483 -0.448028 1.7895019
1.3661799 -0.43918702 1.789057
1.3596801 -0.47831798 1.780561
1.3533901 -0.46731898 1.7819079
1.35217 -0.45611599 1.782886
1.3581901 -0.446982 1.783547
1.36921 -0.43954399 1.782558
1.35989 -0.48065498 1.7731
1.3615199 -0.47037399 1.77499
1.35307 -0.45808497 1.777109
1.35825 -0.44816101 1.7773889
1.3604 -0.471443 1.7682959
1.35905 -0.45846698 1.770494
1.36317 -0.44764 1.7711771
1.36137 -0.481258 1.7625738
1.52913 -0.40961102 1.7514759
1.36483 -0.460904 1.7563119
1.38236 -0.43194902 1.7582691
1.4470799 -0.42388698 1.751011
1.51362 -0.42256099 1.747401
1.5155901 -0.41446 1.74788
1.5036 -0.40388 1.7490759
1.36566 -0.49254102 1.74863
1.3597701 -0.479673 1.7507168
1.3609599 -0.46870899 1.7503129
1.3618801 -0.45726299 1.751449
1.36202 -0.44771498 1.752395
1.37572 -0.44116101 1.7521539
1.4513401 -0.42299801 1.745831
1.48307 -0.41771901 1.7448928
1.49137 -0.40875599 1.745459
1.4825599 -0.39929599 1.7453641
1.3688999 -0.50159597 1.7423569
1.36265 -0.492329 1.742556
1.3609599 -0.48050597 1.743685
1.36492 -0.46970201 1.7437711
1.36471 -0.45913699 1.745243
1.36786 -0.44889 1.746601
1.3757499 -0.43935201 1.74526
1.44286 -0.42282298 1.741243
1.4671299 -0.41526401 1.739653
1.48105 -0.407271 1.7403359
1.4782001 -0.39840499 1.7392719
1.3585601 -0.49836498 1.73689
1.36191 -0.49076098 1.7372839
1.35852 -0.47989801 1.7370389
1.36397 -0.47037202 1.7381699
1.36642 -0.460722 1.7394849
1.3695799 -0.45012403 1.7397629
1.3840899 -0.431759 1.7392
1.46944 -0.42333999 1.7336649
1.47269 -0.41432899 1.733349
1.4750999 -0.40588102 1.7343509
1.4899001 -0.40056598 1.7324389
1.35748 -0.49814099 1.7309531
1.3583901 -0.490089 1.7312199
1.3579401 -0.47993198 1.7316999
1.36332 -0.47083101 1.731665
1.36746 -0.459995 1.73358
1.38029 -0.439145 1.732842
1.3899699 -0.43149799 1.733176
1.39729 -0.42583901 1.7316738
1.49805 -0.41977298 1.7266749
1.4988099 -0.41070998 1.7269489
1.4931599 -0.40104902 1.727598
1.3522501 -0.49653801 1.7259351
1.34716 -0.48754397 1.726029
1.3587101 -0.48060599 1.725842
1.36932 -0.44906399 1.7269839
1.37816 -0.441302 1.726789
1.38811 -0.43224299 1.726728
1.34899 -0.49544898 1.7201771
1.3491 -0.48720402 1.7200009
1.36638 -0.48094201 1.718407
1.3751401 -0.45108798 1.720495
1.38269 -0.44104001 1.720273
1.3622099 -0.49078098 1.7121539
1.37414 -0.48404202 1.711055
1.3726801 -0.47214699 1.7129889
1.3716999 -0.46022701 1.7137909
1.37137 -0.44856301 1.7145151
1.3645101 -0.50916499 1.704584
1.3791499 -0.49450698 1.7046728
1.37123 -0.469935 1.707496
1.37315 -0.459728 1.707373
1.39202 -0.431932 1.7068131
1.37599 -0.49262401 1.6994019
1.37491 -0.48282 1.698841
1.37604 -0.47197101 1.700235
1.3889199 -0.44096002 1.7007159
1.39552 -0.43113601 1.7008649
1.3740401 -0.48985001 1.692554
1.3784699 -0.481576 1.692681
1.37793 -0.43826902 1.6949179
1.3924299 -0.43125701 1.6952358
1.40924 -0.42695799 1.6946429
1.36664 -0.487207 1.687452
1.37641 -0.448569 1.689154
1.40407 -0.42642897 1.690014
1.37723 -0.489115 1.6802039
1.3753799 -0.45769599 1.6827979
1.35614 -0.50498599 1.9192661
1.33204 -0.47489497 1.91957
1.34226 -0.49895099 1.914366
1.33823 -0.48855901 1.9139709
1.33492 -0.47620499 1.913118
1.33242 -0.46405399 1.9147989
1.34241 -0.49859798 1.9085339
1.33332 -0.48593399 1.907446
1.33497 -0.47553399 1.9069439
1.3318499 -0.45138198 1.9088831
1.3454 -0.42664599 1.909925
1.34272 -0.49782601 1.90134
1.33149 -0.48372 1.901333
1.3472 -0.42611399 1.9039259
1.39502 -0.531977 1.892033
1.35504 -0.503977 1.8944119
1.33478 -0.48616999 1.8954719
1.33215 -0.47494301 1.896382
1.33678 -0.464571 1.8963159
1.33555 -0.45243499 1.8966
1.34376 -0.432347 1.8975549
1.3472501 -0.425295 1.897905
1.40763 -0.53668499 1.8880769
1.3800399 -0.51617002 1.8885001
1.33658 -0.476161 1.8906829
1.3370399 -0.46470401 1.889706
1.34347 -0.42327702 1.8916119
1.3878999 -0.51861304 1.8836999
1.33858 -0.475564 1.8839068
1.33621 -0.46134999 1.8838599
1.3349401 -0.449613 1.884032
1.3394901 -0.44148499 1.8854221
1.33944 -0.42968801 1.885293
1.33918 -0.41960099 1.884831
1.3398499 -0.46464401 1.877789
1.33909 -0.45211202 1.878265
1.33918 -0.44003201 1.8792899
1.34004 -0.42927897 1.8792138
1.34278 -0.42021999 1.8789999
1.32761 -0.40646499 1.87939
1.34119 -0.46617198 1.871857
1.33992 -0.45335999 1.8717841
1.3406301 -0.44197601 1.873266
1.34444 -0.43063399 1.873212
1.33938 -0.417781 1.873328
1.3466001 -0.41113499 1.873226
1.3372501 -0.449963 1.865441
1.3417701 -0.440377 1.86703
1.34501 -0.43031102 1.867334
1.3525701 -0.42196098 1.86728
1.35834 -0.41282001 1.867066
1.3506199 -0.40276799 1.8677859
1.34464 -0.476273 1.8592209
1.3407 -0.45265302 1.8595309
1.34 -0.44013199 1.86052
1.34577 -0.43059599 1.8618159
1.34598 -0.42016497 1.8610049
1.35798 -0.41368499 1.861485
1.3695599 -0.40882 1.8616879
1.30273 -0.60804403 1.844641
1.3421401 -0.45429698 1.853292
1.3446801 -0.44323599 1.854086
1.34278 -0.42937401 1.854934
1.3571899 -0.422387 1.8556339
1.36931 -0.41620401 1.8559948
1.29498 -0.60193998 1.839605
1.31353 -0.60071301 1.8388029
1.34754 -0.47604802 1.846189
1.34209 -0.46224603 1.8469349
1.3442301 -0.451527 1.847625
1.33892 -0.43766999 1.848302
1.34026 -0.42815 1.8489231
1.34953 -0.42194 1.84949
1.2982001 -0.60247302 1.833933
1.3039399 -0.59380603 1.8338629
1.3114101 -0.58633 1.8333539
1.34431 -0.453529 1.8418679
1.3488699 -0.44390899 1.8420371
1.34764 -0.431604 1.842739
1.35331 -0.42449501 1.841964
1.31459 -0.608742 1.8280399
1.3013201 -0.59115398 1.8282989
1.30778 -0.58280897 1.828323
1.3161399 -0.57546002 1.8277069
1.33627 -0.57502002 1.8264259
1.3488699 -0.47637799 1.833575
1.34806 -0.46456298 1.8338619
1.3488901 -0.45356399 1.8354748
1.34478 -0.439677 1.836574
1.35155 -0.43164799 1.8357581
1.35641 -0.42525798 1.8359469
1.3200901 -0.59845698 1.8222369
1.3086301 -0.58200902 1.822659
1.31142 -0.57282102 1.8232129
1.31953 -0.56552202 1.822139
1.3908 -0.52991796 1.822088
1.36895 -0.51000601 1.82398
1.3475599 -0.454234 1.8284839
1.3551601 -0.44349399 1.8297
1.35961 -0.434562 1.829623
1.36066 -0.42681301 1.8299179
1.32112 -0.58616501 1.817076
1.31559 -0.572276 1.817441
1.3192 -0.562563 1.816915
1.32798 -0.55509299 1.8158909
1.35358 -0.55465597 1.8142591
1.3853999 -0.535882 1.817706
1.3650999 -0.51923501 1.81823
1.36206 -0.506001 1.81884
1.34674 -0.45346999 1.822818
1.35149 -0.44452 1.823151
1.3610001 -0.43526101 1.82336
1.3614399 -0.42680302 1.8240478
1.32884 -0.57806301 1.8123208
1.3278199 -0.56459498 1.8116488
1.3322099 -0.55407798 1.810611
1.33609 -0.546462 1.8110849
1.34661 -0.53914797 1.810387
1.3543601 -0.52719504 1.8110001
1.36095 -0.51727998 1.812619
1.37685 -0.51261002 1.811195
1.34909 -0.475355 1.81513
1.35184 -0.45457199 1.817214
1.44381 -0.63618499 1.7945279
1.34189 -0.55746299 1.805604
1.34457 -0.54770303 1.805625
1.3471 -0.53548998 1.805692
1.35198 -0.52638197 1.8060651
1.36158 -0.518861 1.8063629
1.3893601 -0.51791 1.8040729
1.3533 -0.46724701 1.80996
1.35546 -0.455834 1.8103271
1.3543601 -0.44299001 1.809731
1.3633 -0.43607101 1.8109931
1.3676801 -0.428828 1.811228
1.45302 -0.63939101 1.7885919
1.45821 -0.63018799 1.7877671
1.35084 -0.55085802 1.8009189
1.3569599 -0.542189 1.800932
1.3566499 -0.52828801 1.801568
1.38276 -0.52482396 1.79945
1.4107001 -0.52611196 1.797449
1.35444 -0.46669701 1.803565
1.3561901 -0.45381501 1.8037219
1.3536201 -0.44209802 1.804276
1.36186 -0.43504903 1.804616
1.36948 -0.42896998 1.8047589
1.4572999 -0.64156604 1.7824531
1.4605401 -0.63091999 1.7820529
1.46491 -0.62019503 1.7808059
1.4405999 -0.55655801 1.7852578
1.45012 -0.55211699 1.7859039
1.4154899 -0.52727199 1.791463
1.3538499 -0.45582902 1.7975751
1.3608299 -0.44509602 1.797915
1.3606399 -0.434147 1.7986439
1.3625799 -0.426622 1.798844
1.47286 -0.63417798 1.7744669
1.48718 -0.62829298 1.7732708
1.50091 -0.62172699 1.773163
1.46618 -0.55943501 1.779256
1.44182 -0.54038501 1.783143
1.3563499 -0.465848 1.790192
1.35006 -0.45187101 1.7922651
1.3596699 -0.43407699 1.792619
1.3675799 -0.42786703 1.7916831
1.4602001 -0.55687201 1.7727671
1.4570799 -0.54827398 1.7749209
1.35569 -0.46499801 1.783808
1.35947 -0.455396 1.7855539
1.36077 -0.443481 1.785293
1.36198 -0.432982 1.7866
1.3664999 -0.42683998 1.785494
1.5185499 -0.435835 1.7744449
1.46786 -0.558779 1.766547
1.46022 -0.54906797 1.7679139
1.3589 -0.45477402 1.7784119
1.36143 -0.442963 1.7789209
1.3635601 -0.43373299 1.780591
1.3712399 -0.42853099 1.7789929
1.5012699 -0.43908402 1.7704179
1.50138 -0.43074 1.7708701
1.51337 -0.42644298 1.771158
1.45055 -0.55194002 1.763436
1.4379401 -0.53939897 1.7650101
1.35598 -0.46405497 1.7717639
1.3541 -0.45201099 1.772171
1.3643299 -0.444915 1.7727429
1.36841 -0.43551898 1.773923
1.3745599 -0.428359 1.7726309
1.49244 -0.43638599 1.766138
1.4936399 -0.42828998 1.765438
1.51272 -0.42631301 1.7658789
1.36246 -0.468748 1.7653979
1.3572099 -0.45467201 1.7658451
1.3583901 -0.44377699 1.7674469
1.37282 -0.43658599 1.7667551
1.4739 -0.43224201 1.7611079
1.48052 -0.42391101 1.759758
1.50939 -0.42345601 1.7588019
1.36061 -0.46773997 1.758541
1.35866 -0.453486 1.7594761
1.3591 -0.44298401 1.7616229
1.46395 -0.43015498 1.7553259
1.4711 -0.42020902 1.754115
1.50126 -0.41995701 1.75331
1.49229 -0.40815103 1.753783
1.3629899 -0.48022997 1.751163
1.36379 -0.46880099 1.751321
1.36254 -0.455908 1.752735
1.3671601 -0.445472 1.75471
1.37694 -0.43741298 1.7538409
1.4554801 -0.42665401 1.749028
1.46255 -0.41630799 1.748551
1.4792999 -0.41158298 1.748951
1.4836501 -0.40389001 1.7477359
1.4006701 -0.52653003 1.7390549
1.3807601 -0.50987798 1.7416049
1.36894 -0.493835 1.7433909
1.3621401 -0.47833598 1.7446039
1.3619701 -0.46566501 1.7458121
1.3700501 -0.44619301 1.748157
1.4463699 -0.42528099 1.743468
1.4620799 -0.418825 1.7423859
1.4707201 -0.408117 1.7423301
1.46758 -0.398013 1.7433358
1.3939301 -0.52408403 1.7339259
1.3755001 -0.50749803 1.7357129
1.36238 -0.49013999 1.737416
1.3614501 -0.47887298 1.738776
1.3602699 -0.46792001 1.7397419
1.36681 -0.458004 1.73997
1.37305 -0.44740298 1.741004
1.4505401 -0.426314 1.736751
1.46787 -0.41761199 1.735262
1.47481 -0.408059 1.7350971
1.4753799 -0.40011001 1.7367849
1.3889999 -0.52176702 1.728048
1.3650301 -0.50227296 1.730101
1.348 -0.48481801 1.733277
1.3562801 -0.47717801 1.733555
1.3633299 -0.46663398 1.7328999
1.3695101 -0.45574299 1.733992
1.3762801 -0.44653702 1.73469
1.3825301 -0.43813801 1.7340879
1.4694 -0.42967901 1.7297199
1.48569 -0.423219 1.7284759
1.4848199 -0.412009 1.7291089
1.4780099 -0.40094897 1.730822
1.52553 -0.60285997 1.698351
1.37695 -0.51637697 1.722679
1.35972 -0.50063598 1.7237539
1.3544099 -0.48734799 1.7269589
1.3584599 -0.47646499 1.7266128
1.3666999 -0.467421 1.725703
1.36738 -0.456992 1.7280749
1.37681 -0.44826198 1.7281228
1.497 -0.40690202 1.724285
1.5210201 -0.60095197 1.69393
1.36329 -0.51081902 1.7177939
1.3575701 -0.500377 1.7178501
1.36297 -0.49046502 1.7186428
1.36845 -0.47855201 1.7189789
1.36879 -0.46699402 1.7196399
1.3715601 -0.45764402 1.72181
1.37577 -0.44700298 1.7215109
1.38633 -0.43010899 1.7214121
1.53397 -0.61636198 1.685845
1.5177699 -0.60001498 1.6885779
1.3530499 -0.50578803 1.7129749
1.36155 -0.500651 1.7117898
1.37342 -0.45770901 1.7152649
1.3806701 -0.44821998 1.714415
1.3833001 -0.438912 1.714139
1.3881301 -0.43180901 1.7144799
1.34808 -0.50348401 1.708233
1.3681901 -0.503824 1.7059419
1.3775799 -0.45806199 1.7078629
1.38157 -0.44725499 1.7085299
1.39402 -0.43324101 1.7069279
1.37086 -0.50587004 1.7014319
1.38328 -0.44809899 1.701897
1.39285 -0.43259701 1.700591
1.37729 -0.46851501 1.693539
1.38392 -0.45062402 1.6947519
1.3857001 -0.43884602 1.6957309
1.3771601 -0.457084 1.68893
1.3765301 -0.44489101 1.690318
1.37951 -0.45937401 1.6815948
1.4063499 -0.37469199 1.9298779
1.4035201 -0.38159198 1.9257931
1.4226199 -0.38129699 1.9260888
1.43095 -0.375155 1.9264209
1.34138 -0.41402698 1.9185691
1.41239 -0.385391 1.9211631
1.41638 -0.37823799 1.9200519
1.42462 -0.37178901 1.9215829
1.43257 -0.36308601 1.9210559
1.4340301 -0.35036302 1.919814
1.41299 -0.385602 1.914816
1.42239 -0.380573 1.913493
1.4208901 -0.367587 1.9150769
1.41582 -0.35189497 1.9150479
1.41608 -0.34148997 1.9151349
1.41046 -0.32949102 1.914567
1.40142 -0.31261399 1.913649
1.4204201 -0.38854697 1.908287
1.4313699 -0.384617 1.907482
1.43875 -0.37574798 1.9079529
1.42256 -0.35536098 1.909122
1.4109501 -0.338745 1.9101139
1.408 -0.32526797 1.909202
1.3970799 -0.30785599 1.9085059
1.33021 -0.488646 1.891102
1.43415 -0.39326301 1.9014139
1.44467 -0.38819098 1.9020749
1.4505401 -0.37958199 1.9013251
1.42676 -0.35793498 1.9025149
1.4109 -0.33781898 1.9036709
1.40418 -0.321284 1.903415
1.3951499 -0.30714598 1.9032458
1.34849 -0.49758899 1.8867819
1.3326 -0.48184299 1.8872099
1.41398 -0.38491902 1.8937769
1.44353 -0.38750499 1.89584
1.46261 -0.38476199 1.8962531
1.4564101 -0.37179002 1.8972059
1.43039 -0.34819198 1.8985089
1.4049001 -0.324597 1.8988471
1.40131 -0.30851901 1.898211
1.33894 -0.48422799 1.8823609
1.33433 -0.47443298 1.882939
1.40591 -0.38291198 1.88703
1.42502 -0.38224497 1.889209
1.4525701 -0.382043 1.8917379
1.4205499 -0.30218801 1.892557
1.3472199 -0.487416 1.8760581
1.34261 -0.47705001 1.8773609
1.4021201 -0.38137299 1.8813418
1.4095399 -0.377323 1.8814828
1.40359 -0.38127801 1.875322
1.41097 -0.37617502 1.873848
1.30619 -0.61667198 1.8540509
1.32672 -0.45732298 1.8646909
1.41166 -0.38237801 1.868078
1.42145 -0.37826598 1.8676388
1.4283099 -0.373604 1.8681509
1.2987199 -0.60996801 1.8491189
1.3302799 -0.45891398 1.8590078
1.42725 -0.38785401 1.8618329
1.4218899 -0.37724602 1.862042
1.4226199 -0.36860099 1.8621069
1.29633 -0.607678 1.8444679
1.3097999 -0.60533404 1.8431408
1.3504601 -0.485502 1.851145
1.4449099 -0.38502201 1.8558719
1.42881 -0.368613 1.85583
1.4462399 -0.36455101 1.8549979
1.30933 -0.61311501 1.837594
1.3059801 -0.59878397 1.836933
1.4473701 -0.373539 1.849198
1.43387 -0.35799399 1.8494859
1.4432601 -0.348903 1.8487149
1.45575 -0.34082699 1.8476858
1.3209 -0.61790901 1.8314259
1.32092 -0.605591 1.831109
1.3227401 -0.59524798 1.83069
1.32892 -0.58462602 1.8292911
1.3495101 -0.47631499 1.8368319
1.4527401 -0.37281799 1.843251
1.4333299 -0.35716701 1.8442191
1.4414799 -0.34838402 1.8436301
1.4432499 -0.33587199 1.843493
1.4402001 -0.32366198 1.8431059
1.3326401 -0.61032796 1.82493
1.3232001 -0.59216398 1.825094
1.32093 -0.576819 1.8247
1.3368 -0.57461703 1.8242559
1.34638 -0.56941599 1.8241099
1.36519 -0.50281298 1.8294019
1.3496201 -0.474024 1.830089
1.3431799 -0.46092099 1.83095
1.44181 -0.358107 1.839198
1.4552799 -0.35232601 1.8384739
1.4453399 -0.33589101 1.8383909
1.44373 -0.32302201 1.8380679
1.4520799 -0.31546 1.8373041
1.32424 -0.59099603 1.8191099
1.32511 -0.57965201 1.819151
1.3192 -0.56327999 1.8200449
1.3323599 -0.55990005 1.819724
1.36239 -0.52952403 1.818931
1.35808 -0.51646501 1.819862
1.36384 -0.50376302 1.8226379
1.3510201 -0.484386 1.82426
1.3501199 -0.47302502 1.824762
1.3480999 -0.46149299 1.8250799
1.33436 -0.44631499 1.826646
1.44699 -0.32212201 1.8326709
1.4450901 -0.31064799 1.832215
1.4577 -0.30414 1.8314608
1.3378501 -0.59737897 1.813108
1.33058 -0.58189201 1.8133709
1.32445 -0.565579 1.813778
1.32566 -0.55489802 1.81463
1.3404 -0.55078101 1.8133719
1.34127 -0.53659403 1.8132199
1.34732 -0.524414 1.814519
1.35483 -0.51665002 1.814689
1.3670399 -0.50904 1.815053
1.3545599 -0.487856 1.8175769
1.35088 -0.47255698 1.8189569
1.34661 -0.458933 1.819088
1.34302 -0.44916803 1.8206149
1.44159 -0.30773601 1.826947
1.45726 -0.301456 1.8254679
1.3345399 -0.56897902 1.807637
1.3372301 -0.55798 1.8078419
1.3347501 -0.54333901 1.808362
1.34491 -0.53600699 1.808252
1.3531899 -0.527376 1.808707
1.36455 -0.519912 1.808646
1.377 -0.51253504 1.807785
1.3533299 -0.46302798 1.8132989
1.3528399 -0.45317101 1.81345
1.4584801 -0.31067699 1.8202329
1.4676499 -0.30359101 1.818998
1.43233 -0.62834597 1.790306
1.35685 -0.56746697 1.8010559
1.348 -0.54984903 1.80215
1.3510499 -0.53825098 1.8027049
1.36111 -0.53089499 1.8029699
1.37757 -0.52324998 1.802217
1.40088 -0.52322698 1.8005389
1.3505701 -0.46090499 1.8068781
1.34832 -0.45033902 1.807197
1.47923 -0.31699699 1.8143089
1.45263 -0.63960499 1.7841989
1.45495 -0.62862498 1.783934
1.36261 -0.55897701 1.796427
1.36647 -0.54884499 1.797025
1.40862 -0.52626497 1.795131
1.3568 -0.45488498 1.7999749
1.46571 -0.63420397 1.777966
1.4710201 -0.62526697 1.7770799
1.47655 -0.61761099 1.7765579
1.35528 -0.46225497 1.7930939
1.3533599 -0.45235002 1.7929939
1.35423 -0.459959 1.787366
1.35615 -0.46178201 1.7811459
1.3618699 -0.465294 1.773916
1.3650999 -0.45579499 1.7659249
1.3584199 -0.46062902 1.759926
1.3592399 -0.44942799 1.7603101
1.33974 -0.43109402 1.762293
1.38006 -0.50731999 1.750006
1.36726 -0.49052897 1.7508969
1.3633 -0.47458401 1.7523869
1.3595101 -0.45996398 1.753181
1.35954 -0.449341 1.754818
1.3454601 -0.43389302 1.7573169
1.37203 -0.50216204 1.7440479
1.36825 -0.49159598 1.7437949
1.3623199 -0.477117 1.745662
1.36449 -0.46436799 1.746187
1.36459 -0.45179 1.747685
1.35153 -0.436317 1.750877
1.37254 -0.502298 1.736604
1.35777 -0.484375 1.738929
1.3638699 -0.47457299 1.739368
1.3574899 -0.459988 1.740837
1.36475 -0.45173401 1.740631
1.36041 -0.43877399 1.742668
1.36648 -0.50040197 1.7304621
1.36483 -0.49033299 1.7313669
1.36317 -0.477011 1.732726
1.36909 -0.46564701 1.733091
1.3686399 -0.45171502 1.7335849
1.3659101 -0.43963102 1.7354981
1.35814 -0.49656701 1.7246618
1.3634399 -0.48765302 1.7246618
1.3651401 -0.47525102 1.7266229
1.3715301 -0.45488 1.727074
1.3730099 -0.44283298 1.727836
1.36849 -0.431669 1.730261
1.52703 -0.62210298 1.691579
1.3771499 -0.51560903 1.7156619
1.36309 -0.49912998 1.7177091
1.3760099 -0.49395999 1.7157528
1.3695199 -0.47689399 1.7193359
1.37325 -0.451969 1.7209281
1.3798 -0.44463798 1.721176
1.3682001 -0.43127602 1.7233659
1.5150101 -0.614434 1.68875
1.3582001 -0.50532001 1.7131048
1.3823199 -0.507788 1.709119
1.375 -0.45515597 1.713745
1.37309 -0.441939 1.7164389
1.36446 -0.429748 1.7177939
1.51649 -0.62374997 1.6830579
1.37523 -0.44457 1.709567
1.37634 -0.465709 1.699405
1.37304 -0.44561699 1.7026939
1.37868 -0.46717602 1.686124
1.37769 -0.4576 1.687304
1.38146 -0.46008599 1.6803759
1.32953 -0.45728299 1.9233811
1.42907 -0.399883 1.926348
1.4296001 -0.38714999 1.926778
1.43681 -0.377662 1.927246
1.33192 -0.45028001 1.917644
1.38994 -0.40262601 1.918555
1.4144 -0.40403199 1.9202648
1.4189301 -0.39317903 1.921394
1.41942 -0.38056302 1.9216969
1.42618 -0.37182799 1.922341
1.43513 -0.36371899 1.9225149
1.4430901 -0.35698199 1.922645
1.36305 -0.51453996 1.910512
1.3273101 -0.46811798 1.9103149
1.3322501 -0.46018901 1.910694
1.3223599 -0.38690701 1.9087659
1.39309 -0.40546399 1.9138291
1.4042799 -0.40214902 1.9143569
1.4178901 -0.396099 1.9146799
1.42484 -0.38464299 1.9157319
1.42123 -0.36903703 1.9162309
1.42079 -0.35545599 1.916821
1.4180901 -0.34234902 1.9169269
1.40933 -0.32252103 1.9151829
1.3396801 -0.498927 1.905419
1.3376 -0.48547798 1.90466
1.33108 -0.46921101 1.9044958
1.3322999 -0.46029499 1.9041488
1.30661 -0.38503101 1.9044089
1.33149 -0.392066 1.9044099
1.3964101 -0.407197 1.90827
1.41017 -0.40414101 1.9079349
1.41819 -0.39585701 1.907706
1.4257201 -0.38602501 1.908456
1.42538 -0.37160599 1.9094919
1.4292301 -0.35927102 1.910049
1.42088 -0.34062499 1.9105929
1.3959301 -0.314677 1.9096891
1.4027499 -0.306898 1.910871
1.32765 -0.46672699 1.897663
1.3285699 -0.458839 1.8976309
1.3158901 -0.38977402 1.8997699
1.34386 -0.39811698 1.8990079
1.4092 -0.40138999 1.9011301
1.4295599 -0.398285 1.901559
1.4366499 -0.38895902 1.9020239
1.43715 -0.37821302 1.903384
1.4376199 -0.36518699 1.9033359
1.4282299 -0.345658 1.9043919
1.4052901 -0.32012001 1.904581
1.3986099 -0.30311301 1.905134
1.33444 -0.47016799 1.8897569
1.32853 -0.45897499 1.891281
1.33523 -0.39979199 1.8938199
1.3644099 -0.40594798 1.8931298
1.4091201 -0.404192 1.894841
1.4130299 -0.39239398 1.894588
1.4340601 -0.388854 1.895687
1.44498 -0.381199 1.8971519
1.45961 -0.37742501 1.897332
1.4570301 -0.36408299 1.898971
1.4114599 -0.32368198 1.9000281
1.4016099 -0.30660498 1.9000989
1.3321201 -0.46730998 1.883616
1.33349 -0.46108899 1.8840549
1.3454801 -0.40472901 1.887517
1.36686 -0.408445 1.8865069
1.40677 -0.40180501 1.888219
1.41373 -0.391698 1.8871369
1.42521 -0.385656 1.8891079
1.43457 -0.37779498 1.8899671
1.33298 -0.46810901 1.8785778
1.33039 -0.45893398 1.8786319
1.3492 -0.40739301 1.8806641
1.36808 -0.41105098 1.8791471
1.4082 -0.40109402 1.8805619
1.40317 -0.38424501 1.8805679
1.4188 -0.38034999 1.8823099
1.4424499 -0.382287 1.8827119
1.35718 -0.41192502 1.8735199
1.3691601 -0.41044602 1.87208
1.4060299 -0.400318 1.872965
1.4044 -0.38652301 1.8741319
1.40844 -0.375451 1.875196
1.42756 -0.37520099 1.8764399
1.3643299 -0.41514197 1.8660129
1.3792399 -0.41247699 1.8654199
1.40402 -0.399528 1.8671509
1.4119501 -0.39235297 1.867553
1.40984 -0.37668201 1.867914
1.41982 -0.371225 1.869444
1.3666999 -0.41679999 1.859659
1.37256 -0.411562 1.859684
1.40862 -0.402026 1.861819
1.41282 -0.39073199 1.862083
1.4101501 -0.37402001 1.8617209
1.4171801 -0.36709401 1.861823
1.3661901 -0.41577801 1.853775
1.41013 -0.404439 1.8561661
1.4430001 -0.38380101 1.8535739
1.4295501 -0.37025699 1.855278
1.42388 -0.35532501 1.8543429
1.42414 -0.341717 1.8531338
1.43285 -0.36797902 1.849189
1.4161 -0.34922299 1.8492138
1.42636 -0.342509 1.8483189
1.44327 -0.33839402 1.84764
1.41942 -0.34819001 1.843727
1.41337 -0.33468601 1.8435199
1.4329201 -0.33217299 1.842649
1.4489 -0.327537 1.841836
1.3753101 -0.420169 1.8328869
1.41763 -0.34566298 1.8387469
1.42265 -0.33777601 1.838493
1.4339399 -0.32941398 1.8372769
1.4392999 -0.32138002 1.837185
1.44907 -0.31304801 1.8355991
1.47009 -0.31138501 1.834543
1.44511 -0.32029998 1.830907
1.4555401 -0.313225 1.8289459
1.45855 -0.30421001 1.829512
1.4614999 -0.325266 1.822569
1.46196 -0.31604201 1.82276
1.45841 -0.30287999 1.823463
1.47495 -0.33132702 1.8150361
1.4685 -0.32000402 1.8162171
1.45569 -0.32308102 1.808944
1.46016 -0.31758699 1.8095999
1.44436 -0.319345 1.8013049
1.45225 -0.31449199 1.80319
1.3660699 -0.42720002 1.79036
1.44959 -0.33055499 1.79422
1.43899 -0.31778899 1.79526
1.4446601 -0.312435 1.7961079
1.37202 -0.431912 1.783999
1.43769 -0.32633701 1.7889029
1.4369701 -0.31706801 1.7902139
1.46373 -0.32174501 1.7886789
1.3608201 -0.43504798 1.7784599
1.3741001 -0.43276501 1.7771908
1.4338299 -0.337062 1.7793449
1.4355999 -0.32875597 1.7812909
1.4359 -0.31872699 1.7840549
1.36772 -0.43876401 1.7703251
1.43189 -0.33673501 1.7745349
1.4329 -0.32891101 1.776403
1.36808 -0.43946302 1.7632159
1.37605 -0.43429199 1.7629099
1.3845199 -0.42670798 1.763641
1.4293 -0.33609501 1.769437
1.4335099 -0.33031201 1.7701221
1.42396 -0.33439401 1.76545
1.38905 -0.42865798 1.7496039
1.35998 -0.44595101 1.7420498
1.3731599 -0.44428501 1.7409549
1.38192 -0.43619001 1.7427979
1.36641 -0.44985801 1.734779
1.37117 -0.44274199 1.7350861
1.37655 -0.435211 1.7366018
1.38836 -0.429196 1.7361051
1.37692 -0.44638598 1.728109
1.3817199 -0.436856 1.729939
1.38278 -0.44993401 1.699012
1.37914 -0.458606 1.6920968
1.3833901 -0.44840899 1.6932559
1.39094 -0.43966901 1.69199
1.3808501 -0.44883597 1.686335
1.3938699 -0.42840001 1.6872199
1.39968 -0.42201802 1.682749
1.3397701 -0.41736197 1.922644
1.32085 -0.394977 1.9228189
1.4259801 -0.39947799 1.927264
1.43628 -0.39415601 1.9274429
1.4431 -0.38431701 1.927615
1.34313 -0.421377 1.917155
1.3319401 -0.40262198 1.9184309
1.32366 -0.38811001 1.918859
1.41494 -0.411082 1.920071
1.4204401 -0.398886 1.921567
1.42059 -0.38536203 1.921968
1.43161 -0.37799099 1.9222848
1.4457401 -0.373009 1.9225409
1.32718 -0.42185003 1.911155
1.3375 -0.40707299 1.9123081
1.33093 -0.39253101 1.9134959
1.4085801 -0.404383 1.9142349
1.4163499 -0.393803 1.91553
1.41983 -0.38229197 1.916397
1.41751 -0.368588 1.9158249
1.42219 -0.35840401 1.916258
1.4313099 -0.349152 1.9159119
1.42457 -0.32874298 1.91519
1.34215 -0.41093102 1.9058239
1.3390801 -0.39754501 1.906196
1.4180299 -0.41024503 1.907009
1.4216499 -0.39865398 1.9082539
1.4180499 -0.38063899 1.9095678
1.4186 -0.36644799 1.910032
1.4244901 -0.35529998 1.909209
1.4186599 -0.335684 1.90962
1.4069099 -0.31387898 1.9100119
1.40649 -0.30076799 1.910549
1.3430001 -0.41073 1.898454
1.34071 -0.39771199 1.899032
1.40977 -0.40705898 1.8998219
1.4228101 -0.400157 1.90088
1.4285699 -0.38826197 1.9021679
1.42548 -0.37084901 1.9034461
1.4305999 -0.35991299 1.902027
1.4264901 -0.34226599 1.903366
1.4103799 -0.31757998 1.903899
1.34438 -0.41088101 1.8912219
1.3509599 -0.40365699 1.892171
1.4044099 -0.40437901 1.892535
1.41021 -0.39357299 1.8932239
1.4269501 -0.38808101 1.8946899
1.43467 -0.377417 1.896286
1.44159 -0.368707 1.896036
1.44784 -0.357317 1.8978779
1.43507 -0.33456299 1.8988041
1.4148101 -0.306279 1.8985209
1.3436099 -0.43249902 1.8841749
1.34137 -0.41914999 1.884679
1.3466901 -0.40989798 1.8855759
1.36449 -0.40769401 1.8854779
1.40145 -0.40038398 1.8866699
1.4076899 -0.39199799 1.886199
1.41379 -0.38190201 1.8871551
1.4361501 -0.38106301 1.88836
1.33895 -0.430848 1.8762391
1.3450501 -0.42398 1.8781199
1.34987 -0.41336799 1.8786639
1.3661599 -0.40923899 1.8782229
1.40336 -0.402165 1.8794819
1.4114799 -0.39208901 1.879778
1.41202 -0.37812501 1.8802271
1.4410499 -0.38449699 1.8795689
1.34547 -0.43788299 1.8685269
1.3412601 -0.42176601 1.870905
1.3512801 -0.41301301 1.8711538
1.37324 -0.41160598 1.8705601
1.4063201 -0.40092498 1.8723249
1.40869 -0.38757402 1.8733121
1.4153199 -0.37869799 1.872632
1.44168 -0.38448101 1.8730521
1.3291401 -0.43936798 1.861369
1.34277 -0.435523 1.862218
1.34516 -0.42182201 1.8643249
1.35709 -0.41559899 1.863916
1.3704699 -0.41089198 1.863436
1.41154 -0.40834498 1.8648208
1.411 -0.39073899 1.8653009
1.41193 -0.375934 1.8654691
1.43871 -0.38184699 1.866666
1.32321 -0.446302 1.85497
1.33996 -0.44762698 1.854872
1.3476 -0.43973401 1.854548
1.35272 -0.42727298 1.856697
1.36263 -0.417723 1.8568039
1.37888 -0.41323799 1.857132
1.4056599 -0.40254501 1.857872
1.4165199 -0.395798 1.857525
1.4211301 -0.38324797 1.858456
1.42644 -0.37221101 1.859266
1.34317 -0.46149102 1.8475769
