# .PCD v0.7 - Point Cloud Data file format
VERSION 0.7
FIELDS x y z
SIZE 4 4 4
TYPE F F F
COUNT 1 1 1
WIDTH 285
HEIGHT 1
VIEWPOINT 0 0 0 1 0 0 0
POINTS 285
DATA ascii
1.52431 -0.576056 0.92801589
1.53661 -0.57970798 0.92451268
1.5522 -0.576397 0.92524576
1.5651 -0.57178396 0.92588645
1.5450301 -0.58198798 0.91940272
1.5516901 -0.57535702 0.91985434
1.55446 -0.56577498 0.91939646
1.54644 -0.58160001 0.91296935
1.55485 -0.57499903 0.91338968
1.55248 -0.56191003 0.91274828
1.5574899 -0.550978 0.91298729
1.55933 -0.53755701 0.91250783
1.57276 -0.528238 0.91321433
1.5886501 -0.51777303 0.9160068
1.54796 -0.58070302 0.90665662
1.56045 -0.57523704 0.9065938
1.5630701 -0.566365 0.90763313
1.55541 -0.551126 0.90691775
1.55993 -0.53733504 0.90715891
1.5578101 -0.52382499 0.90742487
1.58244 -0.51888597 0.90875185
1.5767101 -0.57910198 0.90181917
1.56556 -0.56435698 0.90094942
1.5591999 -0.54807699 0.90016288
1.5597301 -0.53535098 0.90032446
1.56587 -0.52593499 0.90226507
1.57866 -0.51818401 0.90188187
1.5905299 -0.50908202 0.90292776
1.5846499 -0.56943202 0.89592415
1.5709599 -0.55326599 0.89462137
1.5713401 -0.53996396 0.89463699
1.5709801 -0.526824 0.89574456
1.58915 -0.51919198 0.89609826
1.5942199 -0.561005 0.89094085
1.57806 -0.54373699 0.88991326
1.5860699 -0.52980399 0.88996446
1.53693 -0.60404098 0.9503473
1.53102 -0.59367198 0.94942909
1.5236099 -0.59736401 0.94415116
1.53423 -0.59405601 0.94397539
1.52794 -0.59741199 0.93731344
1.53304 -0.59068298 0.93680549
1.53548 -0.60025001 0.93006253
1.5310899 -0.588673 0.93038559
1.54842 -0.584589 0.93078858
1.541 -0.60199201 0.92331588
1.53645 -0.59132999 0.92431688
1.5423 -0.581321 0.92396563
1.55799 -0.57332903 0.9242391
1.56207 -0.55993098 0.9232741
1.54436 -0.60186297 0.91729188
1.53965 -0.590159 0.91758657
1.55101 -0.58344299 0.91801256
1.5481399 -0.57001501 0.91781396
1.55661 -0.55846196 0.91766447
1.5647399 -0.54665899 0.91784281
1.5791099 -0.53593999 0.91809881
1.58281 -0.52266198 0.91888261
1.55994 -0.59714699 0.91213572
1.5455999 -0.57888103 0.91122466
1.55659 -0.56984699 0.91182142
1.54922 -0.55377996 0.91005927
1.55588 -0.54433203 0.9117837
1.55782 -0.53057897 0.91125226
1.5756301 -0.52260602 0.91288966
1.58415 -0.51239401 0.91457015
1.56213 -0.584077 0.90440047
1.5543201 -0.56817299 0.90453398
1.54862 -0.55301702 0.90390581
1.55585 -0.54249102 0.90446591
1.5566901 -0.52940702 0.90492761
1.56587 -0.52087599 0.90570557
1.5883701 -0.51428002 0.90768999
1.56462 -0.58275104 0.89770097
1.5597 -0.57046902 0.89790505
1.5541201 -0.55509102 0.89829087
1.56056 -0.54376 0.89757556
1.56209 -0.530801 0.89919007
1.5710001 -0.51994997 0.89935625
1.59551 -0.514368 0.90019906
1.5826199 -0.57942903 0.8937996
1.56259 -0.55845499 0.89291281
1.57156 -0.54793203 0.89299375
1.57682 -0.53532201 0.89387488
1.59989 -0.52719504 0.89437586
1.53974 -0.60608 0.93894297
1.5385499 -0.60529703 0.93375432
1.5378 -0.59497201 0.93376869
1.54564 -0.60818297 0.92878699
1.5405201 -0.59508598 0.92810422
1.54003 -0.58299899 0.92802107
1.54882 -0.57221198 0.9265306
1.54567 -0.60627401 0.92227191
1.54327 -0.59345603 0.92126435
1.54559 -0.58312696 0.92220122
1.55082 -0.57155204 0.92111421
1.5542799 -0.55800498 0.92045856
1.56995 -0.54831499 0.92162079
1.5896499 -0.54347801 0.9231407
1.58516 -0.52628702 0.92354602
1.5484101 -0.59448797 0.91555184
1.5457801 -0.58024901 0.9151563
1.55028 -0.56796199 0.91498154
1.55274 -0.555462 0.9138844
1.55752 -0.54442298 0.91546518
1.5654401 -0.532543 0.91612738
1.56938 -0.51926303 0.91547388
1.5867701 -0.51420301 0.91823161
1.55405 -0.58287102 0.90885997
1.54961 -0.56653899 0.90803438
1.5612301 -0.55888301 0.90794653
1.55914 -0.54312599 0.90834272
1.56216 -0.528862 0.90924025
1.56721 -0.51871496 0.9085083
1.5824001 -0.511289 0.91036326
1.55961 -0.57061899 0.90224177
1.55564 -0.554865 0.90147644
1.5634599 -0.54350203 0.90109956
1.56366 -0.52979696 0.90244734
1.57296 -0.51953399 0.9022243
1.5899401 -0.51234698 0.90297675
1.55325 -0.55449903 0.89621955
1.5635201 -0.54581797 0.89609009
1.57005 -0.531394 0.89576125
1.59021 -0.52480298 0.89577675
1.58916 -0.52487397 0.88959998
1.6005 -0.52617097 0.88381332
1.5234599 -0.59489202 0.93031222
1.5331399 -0.59074003 0.93091238
1.54705 -0.58653498 0.93138468
1.5470599 -0.60868597 0.9264794
1.5397201 -0.59378505 0.92632544
1.54985 -0.58564901 0.92554039
1.5505099 -0.57247001 0.92534035
1.5653399 -0.564511 0.92507112
1.54796 -0.59595698 0.92017627
1.55722 -0.58864498 0.91980928
1.55775 -0.57375699 0.91926122
1.56341 -0.55962104 0.91890532
1.5586901 -0.54328203 0.91871732
1.57464 -0.53430301 0.91886115
1.58463 -0.52054399 0.92081618
1.5903701 -0.50907201 0.92166734
1.56101 -0.60221201 0.91483819
1.5619701 -0.58930802 0.91392303
1.5524601 -0.56923902 0.91203505
1.5609599 -0.559219 0.91172707
1.56945 -0.54646403 0.91298598
1.5685699 -0.53041899 0.91260982
1.58059 -0.52238798 0.91306615
1.5883299 -0.51007098 0.91448092
1.5573699 -0.56868696 0.90503401
1.5639 -0.55967897 0.90467048
1.5691299 -0.54766202 0.90469337
1.5751899 -0.53358901 0.90628833
1.58295 -0.52338499 0.90633029
1.58929 -0.51312602 0.90677398
1.5795799 -0.578785 0.89867872
1.5671 -0.55953002 0.89811671
1.5772301 -0.55003202 0.89770472
1.5748399 -0.534895 0.89876956
1.5843899 -0.52394903 0.89937556
1.5907201 -0.57379401 0.89358354
1.58261 -0.55510503 0.89292139
1.59224 -0.541619 0.89261955
1.60076 -0.52836299 0.89219618
1.53608 -0.58857602 0.95040125
1.5250599 -0.590532 0.94477606
1.5340401 -0.58546799 0.94427514
1.53622 -0.59685397 0.93929762
1.5437801 -0.59009802 0.93792951
1.5600901 -0.58865702 0.93875444
1.5388 -0.59771997 0.9309752
1.5380901 -0.58473402 0.93038279
1.5483201 -0.57886004 0.93169624
1.55373 -0.56646901 0.93013674
1.5444299 -0.60057497 0.92404383
1.5434899 -0.58890897 0.92431563
1.5453999 -0.57470101 0.92392039
1.55055 -0.559793 0.92205215
1.56344 -0.55138999 0.92315519
1.5753 -0.54150301 0.92362726
1.58504 -0.53179801 0.92350912
1.5888699 -0.51535302 0.92346549
1.54418 -0.58520001 0.91703475
1.54671 -0.57044601 0.91575122
1.5481501 -0.55686003 0.9154247
1.5569299 -0.54689902 0.91567498
1.5683999 -0.536443 0.91772932
1.5740199 -0.52270198 0.91695631
1.58793 -0.515405 0.91697693
1.55091 -0.572133 0.90818465
1.5502499 -0.55763602 0.90870565
1.55513 -0.54352099 0.90705413
1.56248 -0.53153402 0.90989476
1.5744901 -0.52179503 0.90963799
1.5928799 -0.51682901 0.91026992
1.56498 -0.57923901 0.90109849
1.5536599 -0.55809599 0.90079397
1.5534101 -0.54113299 0.89980733
1.56644 -0.53212798 0.9017117
1.58184 -0.52419698 0.90276629
1.5945599 -0.516527 0.90260142
1.57099 -0.57048303 0.89580286
1.5652299 -0.55236 0.89536226
1.56759 -0.535882 0.89536977
1.57941 -0.52234101 0.89566934
1.5608001 -0.59903699 0.95616448
1.5723801 -0.58833402 0.95809799
1.5697 -0.59572297 0.95269912
1.5624001 -0.590877 0.95170754
1.55822 -0.59846699 0.94542235
1.54248 -0.59401798 0.94184613
1.55514 -0.59715003 0.93810987
1.54514 -0.59102404 0.93568403
1.56713 -0.57519299 0.93790573
1.54514 -0.59011197 0.93039507
1.5552001 -0.577066 0.9304378
1.5757099 -0.55927104 0.93310899
1.56328 -0.58238101 0.92531294
1.5632601 -0.57295203 0.92516464
1.57241 -0.55878603 0.92634124
1.5910001 -0.52954501 0.92917961
1.57535 -0.577595 0.92121345
1.56912 -0.56925797 0.92034221
1.5813699 -0.55404997 0.92109048
1.5839 -0.54117501 0.92162955
1.5732001 -0.53482699 0.92083788
1.5933701 -0.54775 0.91617674
1.59259 -0.53701901 0.91501611
1.58556 -0.53066397 0.91578954
1.57981 -0.54922503 0.93047303
1.5591701 -0.55178297 0.92367715
1.56776 -0.54202998 0.92499489
1.5531501 -0.55237097 0.918145
1.55855 -0.543405 0.91849935
1.58803 -0.52671599 0.92314643
1.5891401 -0.51493901 0.92428863
1.55585 -0.55161399 0.91287214
1.5622301 -0.542579 0.91281754
1.5652001 -0.532058 0.91375577
1.5741401 -0.520217 0.91550219
1.5620799 -0.54956198 0.90841186
1.5655999 -0.53979599 0.90870184
1.56915 -0.52929997 0.90942788
1.57086 -0.52050203 0.90990013
1.55822 -0.59687304 0.95661336
1.56978 -0.58613801 0.95851225
1.56709 -0.59353501 0.95312029
1.55979 -0.588709 0.95215309
1.5555999 -0.59630901 0.94587958
1.53984 -0.59190297 0.94235307
1.5525 -0.59500003 0.93857706
1.54248 -0.58890098 0.93618357
1.5644299 -0.573008 0.93833899
1.54245 -0.58798802 0.93089461
1.55247 -0.57491404 0.9309082
1.5729401 -0.55706298 0.93351859
1.56055 -0.58020598 0.92575729
1.5605201 -0.57077599 0.9256109
1.56962 -0.55658501 0.92676127
1.58814 -0.52729398 0.92954671
1.5725999 -0.57538599 0.92162108
1.56635 -0.56706601 0.92077082
1.57855 -0.55182397 0.92148316
1.5810601 -0.53894198 0.92201686
1.57033 -0.53262401 0.9212597
1.5905299 -0.54548901 0.91653329
1.5897 -0.53476101 0.9153769
1.58267 -0.52842498 0.91617346
1.57964 -0.54823798 0.93015343
1.5589999 -0.55083597 0.923374
1.5675701 -0.54106599 0.92468882
1.5529801 -0.55143499 0.91784686
1.55836 -0.542458 0.91820073
1.58781 -0.52570802 0.92283028
1.5889 -0.51392901 0.92397696
1.5556799 -0.55066895 0.91257209
1.56204 -0.54162103 0.91251624
1.5649899 -0.53109401 0.91345686
1.5739 -0.51923501 0.91520089
1.5619099 -0.54860198 0.90810752
1.56539 -0.53882903 0.90839887
1.56892 -0.52832597 0.90912664
1.57061 -0.51952499 0.90960157
