# .PCD v0.7 - Point Cloud Data file format
VERSION 0.7
FIELDS x y z
SIZE 4 4 4
TYPE F F F
COUNT 1 1 1
WIDTH 912
HEIGHT 1
VIEWPOINT 0 0 0 1 0 0 0
POINTS 912
DATA ascii
1.34207 -0.56347501 2.1245689
1.4237601 -0.50297499 2.0094488
1.4131799 -0.51755297 2.010509
1.4273599 -0.49929699 2.000479
1.4153501 -0.516343 2.001039
1.43007 -0.49938098 1.991989
1.4183201 -0.51481998 1.9908389
1.4206901 -0.51494098 1.9804889
1.41833 -0.51598799 1.971109
1.4399 -0.49703202 1.9643891
1.42019 -0.51536202 1.962239
1.4222301 -0.51519197 1.953339
1.37508 -0.53767896 2.1224689
1.3552901 -0.55499601 2.1219988
1.3749499 -0.54071498 2.113719
1.35432 -0.55537301 2.1114991
1.37511 -0.53841096 2.1043589
1.3526199 -0.554447 2.1025589
1.43593 -0.48570701 2.0130491
1.42011 -0.50964904 2.013989
1.43944 -0.484263 2.004339
1.43397 -0.49537498 2.005389
1.42407 -0.50776696 2.004169
1.4507201 -0.48311099 1.9973489
1.4333299 -0.49624902 1.9961591
1.4266701 -0.50883001 1.9938089
1.4511399 -0.48453602 1.9896289
1.4229801 -0.510243 1.9848289
1.4240199 -0.509673 1.9765189
1.3718201 -0.54051 2.120569
1.33227 -0.56193101 2.107199
1.3368201 -0.56025499 2.0997689
1.3273801 -0.56178701 2.089349
1.3423899 -0.54842496 2.082269
1.30993 -0.564789 2.0793891
1.3219099 -0.55458802 2.073669
1.30396 -0.56690603 2.072299
1.3009599 -0.55772096 2.0664191
1.4266299 -0.50076902 2.0304089
1.42599 -0.50009102 2.0214889
1.4280601 -0.50029802 2.0119588
1.43116 -0.50009102 2.003989
1.4299201 -0.50007898 1.9863089
1.4328301 -0.50063497 1.9768389
1.4362199 -0.50024599 1.9679291
1.43962 -0.50012499 1.959179
1.28567 -0.50740099 2.1037791
1.28898 -0.49745098 2.0929689
1.29416 -0.478145 2.0878489
1.29467 -0.486316 2.0817289
1.2987601 -0.47715598 2.076709
1.29848 -0.478264 2.070339
1.30334 -0.469208 2.0717192
1.31593 -0.452654 2.0667789
1.3027099 -0.47867697 2.059119
1.3070199 -0.46828401 2.059099
1.31409 -0.45139998 2.0606289
1.30276 -0.48770303 2.0537291
1.3183399 -0.450084 2.0556791
1.3096001 -0.467217 2.0481789
1.3107001 -0.45791698 2.0486491
1.3205701 -0.450169 2.049659
1.31112 -0.45839298 2.0434089
1.31125 -0.47927299 2.024869
1.32516 -0.44909 2.0258789
1.3318 -0.442471 2.0278189
1.33166 -0.440687 2.0218289
1.31543 -0.45809701 2.0134189
1.3215899 -0.45082501 2.014149
1.3306199 -0.44208899 2.0152788
1.3431799 -0.434073 2.016469
1.3235899 -0.46015 2.0091989
1.32916 -0.45031399 2.0088189
1.31609 -0.468692 2.0015991
1.32523 -0.46040699 2.002629
1.32291 -0.44890299 2.0026591
1.3288901 -0.44076002 2.003449
1.32268 -0.47816101 1.9963489
1.32662 -0.46020302 1.9959891
1.3256199 -0.44944698 1.997679
1.3276601 -0.479103 1.9904691
1.32656 -0.45985901 1.9906589
1.33215 -0.450701 1.9914389
1.3270301 -0.480472 1.9836789
1.32912 -0.47262099 1.9848689
1.3297501 -0.46171901 1.985449
1.32784 -0.45056301 1.984569
1.33533 -0.44075501 1.9853989
1.33109 -0.48141301 1.9792191
1.3302799 -0.471578 1.9792191
1.32767 -0.45973301 1.979079
1.32661 -0.44855702 1.9788489
1.33843 -0.44073102 1.9791489
1.3422999 -0.43100497 1.9806988
1.3313699 -0.480726 1.973349
1.3329899 -0.47009701 1.973439
1.32538 -0.457228 1.973519
1.3281 -0.44747201 1.973009
1.3421401 -0.43120801 1.974509
1.32929 -0.48031101 1.9675289
1.33399 -0.47234902 1.9671289
1.3292 -0.458803 1.9675088
1.3333501 -0.44841498 1.9674491
1.33935 -0.44009399 1.969169
1.34296 -0.43051398 1.9682889
1.35194 -0.42368999 1.9706589
1.32969 -0.47798002 1.960889
1.3364799 -0.47231603 1.9615289
1.33463 -0.462571 1.9616389
1.33149 -0.449745 1.9613489
1.33705 -0.43910703 1.962839
1.3406301 -0.42990699 1.9630289
1.33938 -0.421487 1.9636189
1.32689 -0.47693297 1.954119
1.32593 -0.46827999 1.9552389
1.3198199 -0.45556501 1.954899
1.32522 -0.447532 1.9554191
1.32772 -0.439174 1.9561789
1.33636 -0.43020001 1.958089
1.3282499 -0.419314 1.958369
1.31958 -0.44663399 1.9500589
1.3141099 -0.43532699 1.9506989
1.2837 -0.49488801 2.105639
1.29245 -0.479049 2.0940289
1.28865 -0.48385701 2.088649
1.29468 -0.46918097 2.0879989
1.29205 -0.475797 2.0826387
1.29664 -0.46824002 2.0830991
1.29441 -0.47574401 2.0766189
1.29899 -0.468871 2.077379
1.2940401 -0.47364199 2.0709989
1.3036799 -0.46884999 2.0718689
1.30531 -0.468153 2.065799
1.30505 -0.45931599 2.0650392
1.30574 -0.466894 2.0586691
1.32339 -0.44526199 2.0611591
1.2996401 -0.46337003 2.0522289
1.3099201 -0.45951802 2.0538988
1.32381 -0.444574 2.0549688
1.3097099 -0.45789 2.0482888
1.32005 -0.45180801 2.0493391
1.31688 -0.449752 2.0423288
1.32511 -0.44248298 2.0432088
1.3371899 -0.436611 2.044719
1.32082 -0.44981498 2.036639
1.32296 -0.44232699 2.0363691
1.33558 -0.436459 2.038389
1.31673 -0.44721001 2.0304291
1.3225 -0.44150698 2.0300689
1.33056 -0.43499699 2.031399
1.34776 -0.43183997 2.0337689
1.31675 -0.44567502 2.0238488
1.32651 -0.44035703 2.0248389
1.33369 -0.433126 2.025919
1.3463 -0.429997 2.027499
1.31681 -0.43747899 2.0183489
1.3233 -0.43031502 2.0192389
1.335 -0.42613497 2.0211091
1.31786 -0.43819699 2.0143089
1.31933 -0.43033299 2.014519
1.32776 -0.424761 2.015729
1.31446 -0.461009 1.953009
1.28887 -0.51958698 2.1030788
1.2950599 -0.53175801 2.097929
1.2897501 -0.48264703 2.0964289
1.30393 -0.53644699 2.0922089
1.31681 -0.54331601 2.0876691
1.30128 -0.462704 2.0844088
1.3313099 -0.55097997 2.084029
1.29582 -0.48220402 2.0779488
1.29855 -0.47245997 2.078239
1.3024001 -0.46363202 2.078939
1.35078 -0.551682 2.0800691
1.29793 -0.47232801 2.072619
1.29836 -0.46242902 2.0718191
1.3626 -0.55537897 2.0743492
1.29821 -0.47405398 2.0658991
1.29381 -0.462495 2.0647089
1.37439 -0.56172103 2.070889
1.2933999 -0.471818 2.0599189
1.3751401 -0.55374002 2.0665491
1.2992599 -0.48474097 2.056489
1.35288 -0.42633498 1.9740089
1.34715 -0.42589101 1.9671289
1.3356799 -0.42900503 1.960539
1.3473899 -0.42617297 1.961689
1.3372501 -0.42964 1.9546689
1.35092 -0.42760503 1.9559289
1.35717 -0.42259899 1.955299
1.28194 -0.47533903 2.123389
1.28456 -0.478403 2.1186991
1.27837 -0.48537102 2.1119988
1.28622 -0.48027501 2.112639
1.29064 -0.47010899 2.113909
1.27939 -0.48797101 2.105319
1.28625 -0.50383097 2.1003089
1.2861199 -0.49463001 2.0935888
1.303 -0.528382 2.0830991
1.2924401 -0.48444501 2.080519
1.31853 -0.538387 2.0788989
1.3050901 -0.46443 2.0683591
1.31267 -0.45574799 2.0685089
1.32119 -0.447611 2.0635889
1.3054401 -0.476814 2.0549688
1.30635 -0.46312302 2.0555389
1.31071 -0.45402899 2.0547891
1.3039501 -0.487587 2.0493891
1.3085099 -0.46557599 2.049159
1.3076301 -0.48822299 2.0429189
1.3104401 -0.463857 2.0430288
1.3171899 -0.456067 2.036329
1.33336 -0.43907699 2.037029
1.3254499 -0.44700599 2.0302191
1.3320799 -0.437848 2.0300088
1.31566 -0.46693698 2.023869
1.3219399 -0.44298303 2.0227489
1.31396 -0.46436799 2.016489
1.32138 -0.45679 2.0177491
1.32307 -0.44543499 2.0162089
1.33564 -0.43841201 2.017149
1.31496 -0.46279201 2.0093989
1.32042 -0.455073 2.009979
1.32953 -0.44680402 2.0109689
1.33513 -0.43741 2.010129
1.3179401 -0.46283001 2.0026889
1.3232601 -0.45528901 2.0028689
1.3261701 -0.44417599 2.004149
1.33216 -0.43556401 2.0043089
1.3441499 -0.43067101 2.005069
1.3233501 -0.46640098 1.995909
1.3235699 -0.45648301 1.9965891
1.3285699 -0.44627398 1.9973789
1.33248 -0.435018 1.9987489
1.31951 -0.46383899 1.988989
1.32743 -0.45985803 1.9908991
1.32832 -0.44775701 1.9902991
1.33802 -0.437502 1.9917489
1.3244901 -0.46599799 1.982659
1.3241701 -0.456646 1.984359
1.33196 -0.44961601 1.9838389
1.3344001 -0.43826401 1.984399
1.34411 -0.42948601 1.9850689
1.3265899 -0.46694699 1.9758289
1.32733 -0.45692798 1.9776388
1.32876 -0.44497398 1.9781289
1.33524 -0.43593499 1.977959
1.35039 -0.42949903 1.978399
1.32775 -0.46792302 1.969259
1.3288901 -0.45858899 1.9706889
1.3318 -0.44694301 1.972119
1.34069 -0.43793702 1.9710089
1.34604 -0.426833 1.9713789
1.32944 -0.468382 1.9627891
1.33127 -0.46066299 1.964489
1.33395 -0.44905201 1.9649091
1.33936 -0.438611 1.9642191
1.3436199 -0.42879501 1.965209
1.34571 -0.417611 1.9666791
1.3312199 -0.46967098 1.956229
1.3327099 -0.45967302 1.9577091
1.33453 -0.44634601 1.957979
1.33715 -0.43545699 1.9589591
1.3313699 -0.421774 1.9593289
1.3344501 -0.47212502 1.9505889
1.33284 -0.46169701 1.9506689
1.3389101 -0.45239398 1.9508491
1.33718 -0.437682 1.952839
1.3117399 -0.457284 2.050149
1.3153999 -0.459436 2.0433788
1.3133399 -0.48409998 2.029779
1.3362601 -0.439224 2.0226889
1.3436501 -0.43242601 2.0175889
1.32328 -0.46115699 2.008579
1.3305299 -0.45086801 2.0022089
1.3242999 -0.47161701 1.994689
1.3256799 -0.45954898 1.9950589
1.32829 -0.447207 1.9956089
1.33263 -0.438095 1.994689
1.3448399 -0.431734 1.9957789
1.3289599 -0.44889501 1.9889591
1.34981 -0.43062001 1.9891989
1.32743 -0.47321099 1.980759
1.33077 -0.464876 1.9812188
1.33244 -0.451401 1.9812089
1.3306199 -0.463723 1.9749091
1.3322501 -0.450948 1.973389
1.33729 -0.44079301 1.974879
1.3454201 -0.43188301 1.9751389
1.33297 -0.46481299 1.9675189
1.33044 -0.449276 1.9670089
1.3373399 -0.43954301 1.9677789
1.3379201 -0.47013801 1.960939
1.3334399 -0.453017 1.9610488
1.31898 -0.42871299 1.9603391
1.33016 -0.420434 1.9624989
1.35207 -0.41962701 1.964489
1.33814 -0.47024798 1.9540089
1.33506 -0.455345 1.9543289
1.35618 -0.55827302 2.1259489
1.35795 -0.556943 2.113729
1.35578 -0.572299 2.116559
1.35051 -0.56091899 2.1059289
1.3381799 -0.57971299 2.110769
1.34601 -0.56214803 2.0953188
1.32446 -0.586303 2.1048789
1.3291 -0.57443404 2.093159
1.31231 -0.593207 2.101809
1.31944 -0.57943296 2.089489
1.3115401 -0.56344002 2.1271491
1.30504 -0.54797697 2.1164489
1.3207401 -0.58539003 2.1290989
1.32026 -0.57615799 2.127959
1.3142799 -0.562356 2.1169088
1.30668 -0.54742599 2.106169
1.3219399 -0.58686101 2.1192291
1.3249201 -0.578197 2.1197889
1.3189399 -0.56399202 2.1101589
1.31511 -0.55147201 2.104389
1.32541 -0.58918399 2.111589
1.33324 -0.58144903 2.1159189
1.32883 -0.56827998 2.1095991
1.31882 -0.553765 2.098259
1.3281599 -0.58915502 2.104939
1.33729 -0.58377701 2.1109588
1.33952 -0.572779 2.1085489
1.3236799 -0.55350399 2.091099
1.34523 -0.58385396 2.1083388
1.35509 -0.57837796 2.1139789
1.33303 -0.55631 2.0875189
1.33067 -0.54457498 2.084419
1.34963 -0.57252997 2.0975189
1.33992 -0.55769503 2.0824389
1.33533 -0.544644 2.077029
1.3545799 -0.56341898 2.0864689
1.3434801 -0.54941702 2.073369
1.33998 -0.56331003 2.0630789
1.35331 -0.56081796 2.0744488
1.34677 -0.54776102 2.0648389
1.2567199 -0.377832 1.950379
1.35615 -0.55926603 2.065259
1.3505901 -0.54646599 2.056329
1.3355099 -0.52997798 2.039279
1.37552 -0.56663299 2.0732889
1.36058 -0.55156499 2.0564389
1.3414 -0.53281701 2.0352688
1.3028599 -0.405707 1.9724989
1.37859 -0.55973399 2.0665591
1.35067 -0.53540099 2.0339289
1.2923199 -0.40906101 1.9576089
1.2889501 -0.40015802 1.953429
1.35045 -0.53075904 2.020889
1.29514 -0.40849498 1.9526889
1.3579899 -0.531874 2.0167191
1.3575799 -0.50816 1.957399
1.3693601 -0.52373403 1.9592788
1.36449 -0.513331 1.953629
1.30779 -0.55880904 2.1213889
1.3046899 -0.54549998 2.112849
1.32455 -0.57476401 2.1292388
1.3096299 -0.55888301 2.1123991
1.31047 -0.54864603 2.1073089
1.31429 -0.55895305 2.1043789
1.31104 -0.54604197 2.096869
1.32263 -0.56058496 2.100769
1.31688 -0.54957998 2.0929589
1.31156 -0.53509301 2.083689
1.31995 -0.54785198 2.0851691
1.31304 -0.53336602 2.073879
1.3187 -0.53473204 2.068939
1.32661 -0.53608 2.0635989
1.33295 -0.53819597 2.056339
1.3407 -0.54331404 2.0520191
1.3508099 -0.55601799 2.0548089
1.34614 -0.54572999 2.0483289
1.34123 -0.53406602 2.039459
1.34007 -0.54127401 2.0325489
1.3426499 -0.53181899 2.0295389
1.3428999 -0.54019403 2.0221789
1.34776 -0.53370303 2.0238988
1.3503101 -0.53365499 2.0160689
1.34155 -0.51721501 2.0037889
1.35623 -0.53602296 2.0119791
1.3517599 -0.52375501 2.0039589
1.35838 -0.53402698 2.0044389
1.35192 -0.51929599 1.993399
1.3471899 -0.43485999 1.9650791
1.35987 -0.50654399 1.9545289
1.3398499 -0.55491197 2.1010389
1.33752 -0.53900999 2.0563691
1.35429 -0.55723399 2.0651989
1.3400199 -0.53935999 2.0488789
1.3255 -0.51856303 2.0308189
1.34474 -0.54130602 2.0439489
1.33119 -0.52396399 2.0278389
1.3348199 -0.52318001 2.0201991
1.3398399 -0.52248502 2.010839
1.3461099 -0.52588797 2.0060489
1.3508 -0.52767396 2.000289
1.34194 -0.51168597 1.9869291
1.33778 -0.49560001 1.9794791
1.3436999 -0.52233201 1.9832889
1.34964 -0.515643 1.9826989
1.3391299 -0.49864602 1.9716589
1.3518 -0.525837 1.9810389
1.35597 -0.51696897 1.978489
1.3445799 -0.49917901 1.965349
1.29711 -0.54739302 2.125489
1.29705 -0.54367501 2.1132789
1.3224699 -0.58045602 2.128829
1.30215 -0.54661 2.1060488
1.31285 -0.58156502 2.115159
1.31682 -0.57222402 2.1134489
1.3065 -0.54856199 2.0973489
1.30489 -0.534006 2.0903988
1.32269 -0.58725703 2.113229
1.32652 -0.57910001 2.1125689
1.31873 -0.560435 2.099509
1.3105099 -0.53749299 2.084589
1.32198 -0.60390699 2.1044588
1.31429 -0.58513904 2.093159
1.33149 -0.58198202 2.1070788
1.32118 -0.55798304 2.089499
1.31644 -0.53953803 2.077719
1.31538 -0.61155599 2.093389
1.3207401 -0.60377997 2.094589
1.30967 -0.58341801 2.0781488
1.33297 -0.58593601 2.0997589
1.3309 -0.56815702 2.0923889
1.3366901 -0.55436701 2.0884991
1.3169999 -0.61275697 2.0878789
1.31344 -0.59745497 2.0786788
1.3054401 -0.57935399 2.0646091
1.30128 -0.56678599 2.0564089
1.26125 -0.352779 1.951139
1.3298399 -0.61215997 2.0890589
1.30124 -0.57547903 2.0534289
1.31179 -0.57342499 2.059299
1.32476 -0.43198398 1.997329
1.3349299 -0.438155 1.9982089
1.33587 -0.43770301 1.9887689
1.3392301 -0.51681703 2.0072391
1.34157 -0.51744199 1.9999989
1.3394901 -0.43650901 1.9679489
1.34015 -0.43439499 1.9590089
1.34409 -0.50440699 1.9763589
1.34115 -0.49167401 1.967809
1.3430099 -0.43435201 1.951709
1.34641 -0.50377601 1.966059
1.3538201 -0.50806701 1.9621689
1.3465899 -0.49290198 1.952529
1.30785 -0.56053102 2.1259789
1.3010299 -0.46592498 2.0792789
1.3216001 -0.58591098 2.1292989
1.3183701 -0.56966096 2.121799
1.30318 -0.54073399 2.1031389
1.31284 -0.579045 2.1112289
1.32295 -0.57318401 2.1157389
1.31279 -0.54915696 2.1005089
1.3148599 -0.59614801 2.109499
1.3140301 -0.58319902 2.104409
1.32566 -0.577582 2.109869
1.32198 -0.55725896 2.0995688
1.31621 -0.61222303 2.1069088
1.31819 -0.60199201 2.1045589
1.31533 -0.58749199 2.0987389
1.32338 -0.55352902 2.0887389
1.31248 -0.53006303 2.0701089
1.3261399 -0.60960996 2.1057889
1.31629 -0.52908599 2.0617089
1.32704 -0.53440702 2.058779
1.31194 -0.411125 1.9714191
1.32145 -0.41931802 1.9734188
1.3070301 -0.39767399 1.956759
1.3298399 -0.42643797 1.972739
1.31086 -0.39954102 1.9531589
1.32915 -0.402435 1.963819
1.33978 -0.43380201 1.972419
1.32285 -0.407747 1.954029
1.3314999 -0.40290201 1.954859
1.34498 -0.43944901 1.9671689
1.3387101 -0.40651903 1.9500089
1.34749 -0.51225102 1.9864191
1.33839 -0.49308997 1.973609
1.34711 -0.43671101 1.956599
1.3410201 -0.49289501 1.964259
1.3371 -0.47732103 1.955199
1.34606 -0.49572399 1.9568989
1.3610899 -0.50529599 1.950469
1.33742 -0.56832403 2.1257191
1.33241 -0.56231499 2.1210189
1.3397501 -0.56749201 2.1164191
1.33564 -0.56013304 2.113729
1.3403101 -0.56637001 2.1052189
1.3376601 -0.55767 2.1038089
1.34997 -0.56237203 2.1013889
1.33518 -0.55855203 2.089159
1.3299899 -0.54897201 2.0897188
1.35535 -0.56126803 2.093509
1.34672 -0.555318 2.0896389
1.33567 -0.54879797 2.083849
1.3751601 -0.55464 2.102699
1.35546 -0.55282998 2.085809
1.34043 -0.54659998 2.0774889
1.36615 -0.55737299 2.083529
1.3646801 -0.54905701 2.0831189
1.37172 -0.55382705 2.0770388
1.3625799 -0.54723501 2.071049
1.3762699 -0.55151999 2.0700691
1.37385 -0.54379904 2.0706289
1.3848399 -0.53878099 2.0697391
1.3931199 -0.53482896 2.065279
1.40773 -0.52934897 2.0690789
1.40679 -0.52888602 2.058409
1.4022501 -0.529513 2.0420089
1.4138499 -0.52624202 2.041249
1.41342 -0.52596599 2.0309789
1.41154 -0.52561796 2.018769
1.26176 -0.37229002 1.9540689
1.4102299 -0.52569002 2.006269
1.4071201 -0.52659899 1.991129
1.4141099 -0.52500302 1.9862289
1.40843 -0.51836103 1.9838589
1.41422 -0.52480799 1.9761389
1.40991 -0.51662499 1.974679
1.42101 -0.52197701 1.9695591
1.40953 -0.515468 1.9648191
1.4524001 -0.52182996 1.9809489
1.43916 -0.517106 1.973339
1.40941 -0.51641399 1.954229
1.44724 -0.516482 1.9696289
1.4587399 -0.520711 1.967419
1.4419399 -0.51689899 1.9554089
1.3319299 -0.565961 2.1207991
1.3321099 -0.55804801 2.124439
1.33083 -0.56627601 2.1069291
1.33604 -0.55665296 2.1175392
1.32787 -0.56686801 2.0919089
1.3376601 -0.55645198 2.107039
1.32578 -0.54998296 2.0951989
1.33639 -0.56430399 2.0893891
1.33735 -0.55641997 2.0951989
1.3318499 -0.54755199 2.0907989
1.35588 -0.55845904 2.098819
1.33709 -0.55556798 2.0838888
1.3329101 -0.54592901 2.080719
1.3433501 -0.55177301 2.078099
1.33538 -0.543235 2.072479
1.35655 -0.548136 2.077409
1.3413401 -0.54302001 2.0664589
1.36588 -0.54548699 2.075789
1.37248 -0.54251403 2.071269
1.32293 -0.44744399 2.0574191
1.38363 -0.53979403 2.069109
1.3227401 -0.44772899 2.0453789
1.40029 -0.53579599 2.074769
1.32128 -0.44714999 2.0317991
1.40382 -0.53435397 2.0681489
1.39271 -0.52850699 2.0572088
1.4064 -0.533117 2.0592289
1.40052 -0.52651602 2.053509
1.41179 -0.53145701 2.0520089
1.3970599 -0.52575499 2.040349
1.4195 -0.530074 2.048039
1.4069 -0.52530497 2.0383489
1.41325 -0.53106302 2.0322289
1.40519 -0.52415901 2.026119
1.25976 -0.36633998 1.952439
1.4157001 -0.52903301 2.0228689
1.40634 -0.522542 2.0172291
1.3346801 -0.46115199 1.974489
1.2982401 -0.38636199 1.965369
1.2831199 -0.384397 1.953599
1.27677 -0.37644798 1.951669
1.4016099 -0.53250098 1.997679
1.40871 -0.52229804 2.0088789
1.2979699 -0.38581797 1.958069
1.41041 -0.53062403 1.993819
1.40502 -0.52249402 1.9941089
1.4120599 -0.53030497 1.985339
1.41327 -0.52133596 1.9886689
1.41974 -0.52798599 1.982029
1.42721 -0.51747298 1.9906189
1.4316499 -0.524643 1.9818289
1.4238901 -0.51814097 1.9777589
1.4251199 -0.52552503 1.965899
1.42182 -0.51741403 1.966169
1.42678 -0.52533698 1.955439
1.42365 -0.51708597 1.9575189
1.44381 -0.52125096 1.9599589
1.4291999 -0.51626998 1.950569
1.3362199 -0.56614202 2.1236389
1.3366001 -0.56594199 2.1124289
1.34366 -0.55822301 2.1232591
1.3395101 -0.564803 2.1037791
1.34507 -0.55683303 2.1139889
1.3276 -0.56657702 2.0799189
1.33921 -0.55621201 2.0955389
1.34149 -0.56475103 2.0832889
1.3333 -0.558029 2.0764589
1.3385201 -0.54692 2.0850489
1.3400501 -0.56396097 2.0706489
1.3364301 -0.55622 2.0683889
1.33464 -0.54811102 2.070209
1.36423 -0.56037498 2.083209
1.3594 -0.55286402 2.0803089
1.3447 -0.54433602 2.069299
1.37205 -0.55922198 2.082499
1.36948 -0.55111402 2.080549
1.3558999 -0.54300499 2.068469
1.32269 -0.44261903 2.0571389
1.32858 -0.43959099 2.053869
1.33252 -0.43871799 2.047699
1.3294799 -0.44001099 2.0321789
1.3301101 -0.438602 2.0213389
1.2708499 -0.36844102 1.953769
1.28596 -0.38583699 1.9515891
1.28584 -0.37776798 1.953699
1.4141201 -0.51644099 2.0030689
1.4162601 -0.51567298 1.9954089
1.40424 -0.51626498 1.954659
1.33052 -0.56913102 2.121839
1.3354201 -0.56130797 2.1285191
1.3208901 -0.57014298 2.0934091
1.3412601 -0.56121302 2.121989
1.31898 -0.57041001 2.083369
1.3378501 -0.56209803 2.1053689
1.34263 -0.553074 2.1135089
1.32319 -0.56995702 2.0790391
1.3294901 -0.56215501 2.0856588
1.339 -0.55235803 2.0987289
1.33183 -0.56839401 2.0779488
1.3266901 -0.56076199 2.0718391
1.33284 -0.55113703 2.080369
1.3248801 -0.560193 2.0613689
1.33004 -0.55228001 2.0667889
1.36212 -0.55461496 2.0832789
1.3411099 -0.54984903 2.0667689
1.3560201 -0.54660201 2.0695689
1.3687199 -0.54569799 2.072989
1.41327 -0.530092 2.0525889
1.40105 -0.52259701 2.0437188
1.3298199 -0.462479 1.9861591
1.4026101 -0.530047 2.034399
1.4018401 -0.52169698 2.0360589
1.4180701 -0.52931899 2.037159
1.4028 -0.52179301 2.025929
1.4222599 -0.52833301 2.0314989
1.41435 -0.521887 2.025969
1.40843 -0.51968801 2.0112891
1.4173501 -0.51465696 1.987569
1.3317 -0.56634104 2.1276889
1.3432801 -0.57685798 2.1260591
1.33049 -0.56783199 2.1141989
1.3402499 -0.55889499 2.1258287
1.3270199 -0.57430696 2.1005089
1.3328799 -0.56649601 2.1069889
1.34798 -0.559003 2.1223688
1.3365101 -0.57485199 2.099869
1.3285099 -0.56667399 2.0913889
1.3383299 -0.55739897 2.101959
1.32493 -0.56617701 2.077749
1.3264799 -0.55726796 2.077539
1.3262 -0.56404799 2.0672088
1.3214101 -0.55541998 2.0597489
1.33876 -0.54691005 2.079849
1.32493 -0.56244099 2.0544589
1.32127 -0.55496401 2.0499091
1.34241 -0.54657799 2.0706391
1.33398 -0.56265998 2.0550089
1.3397501 -0.55482399 2.059469
1.34904 -0.546152 2.0667291
1.35708 -0.54435802 2.064929
1.40692 -0.52158403 1.9992089
1.4011501 -0.520881 1.9847291
1.40213 -0.51975 1.9759189
1.39882 -0.51872003 1.964859
1.33841 -0.56697798 2.126869
1.3333701 -0.56098199 2.122189
1.3407 -0.56613803 2.117559
1.33658 -0.55879003 2.1148889
1.34123 -0.56501299 2.106359
1.33855 -0.556319 2.104959
1.35086 -0.56098598 2.102489
1.33603 -0.55720598 2.0903189
1.33082 -0.54764098 2.090889
1.3562199 -0.55986601 2.094599
1.3475701 -0.55394101 2.090759
1.3364799 -0.54745001 2.0850089
1.37604 -0.553186 2.103729
1.3562801 -0.55142701 2.086899
1.3412 -0.545237 2.078629
1.3669701 -0.55594003 2.084589
1.3654801 -0.54762799 2.0841889
1.3725301 -0.552378 2.078079
1.36334 -0.54580998 2.072119
1.3770399 -0.55005598 2.071099
1.3746001 -0.54234201 2.0716588
1.38557 -0.53729403 2.070739
1.39382 -0.53331798 2.0662589
1.40843 -0.527798 2.0700088
1.40746 -0.527336 2.0593491
1.4028701 -0.527973 2.042959
1.4144599 -0.52467 2.0421689
1.41399 -0.52439302 2.031909
1.41207 -0.52404803 2.0196989
1.26167 -0.371126 1.9554889
1.4107201 -0.52412105 2.007199
1.40757 -0.52503604 1.9920689
1.4145501 -0.52342099 1.987139
1.41462 -0.52322298 1.977059
1.4213699 -0.52037299 1.970449
1.45281 -0.52013999 1.9817389
1.43952 -0.51545203 1.974179
1.4097199 -0.51483798 1.9551589
1.44758 -0.51480502 1.970439
1.4185201 -0.513062 1.9506189
1.4591099 -0.51900202 1.9681989
1.44225 -0.51523399 1.956239
1.3335401 -0.56684399 2.121299
1.3337101 -0.55893302 2.124949
1.33241 -0.56715 2.1074288
1.3376499 -0.557531 2.1180389
1.32943 -0.567734 2.0924091
1.3392501 -0.55732203 2.1075392
1.3273399 -0.550852 2.0957191
1.3379401 -0.56516302 2.0898888
1.3389101 -0.55728298 2.0956988
1.33339 -0.54841501 2.0913191
1.35744 -0.55931199 2.0992889
1.3386099 -0.55642301 2.084389
1.33444 -0.54678398 2.081249
1.34487 -0.55261999 2.078589
1.3368801 -0.544083 2.072999
1.35806 -0.54897499 2.077889
1.34284 -0.54386103 2.0669689
1.3674001 -0.54632097 2.0762489
1.3739901 -0.54333997 2.0717089
1.38513 -0.54061198 2.0695388
1.4017999 -0.53660798 2.0751691
1.38825 -0.53155398 2.0641589
1.3226601 -0.447979 2.0323989
1.4053199 -0.53515899 2.0685489
1.3941901 -0.52931195 2.0576389
1.40789 -0.53391498 2.059629
1.402 -0.52731299 2.0539191
1.41326 -0.53224701 2.0523989
1.39851 -0.526546 2.0407691
1.42097 -0.53085703 2.048409
1.40834 -0.52608699 2.038749
1.4146899 -0.53183699 2.032609
1.40661 -0.52493596 2.0265288
1.26095 -0.36715198 1.9531989
1.41711 -0.5298 2.0232489
1.40774 -0.52331102 2.0176289
1.2994701 -0.38715899 1.966059
1.28433 -0.38519502 1.954319
1.27797 -0.37724799 1.952399
1.4029801 -0.53325999 1.9980789
1.41009 -0.52306002 2.0092788
1.2991999 -0.38661098 1.9587489
1.4117799 -0.53137404 1.9942089
1.4063801 -0.52324903 1.994519
1.4134101 -0.53104901 1.9857291
1.41462 -0.52208197 1.9890689
1.42108 -0.52872396 1.982409
1.42856 -0.51821202 1.9909891
1.43299 -0.525374 1.9821891
1.4252299 -0.51887298 1.9781289
1.42644 -0.52624899 1.9662689
1.42312 -0.51814002 1.966549
1.4280701 -0.52605301 1.955799
1.42495 -0.51780498 1.957889
1.44512 -0.52196002 1.960289
1.43048 -0.51698101 1.9509391
1.33711 -0.56622702 2.1235189
1.3374801 -0.56602198 2.112319
1.34454 -0.55829203 2.1231391
1.34039 -0.56487298 2.1036592
1.34593 -0.55689502 2.113879
1.32845 -0.56665999 2.079809
1.34007 -0.556279 2.0954189
1.34235 -0.56480598 2.083159
1.3341401 -0.55809897 2.0763488
1.3393401 -0.54698199 2.084929
1.34089 -0.56401402 2.070519
1.33726 -0.55627799 2.068269
1.3354499 -0.54817599 2.0700989
1.36509 -0.56038201 2.0830588
1.36023 -0.55287898 2.080169
1.34551 -0.54437804 2.0691791
1.3728999 -0.55921197 2.0823591
1.3703101 -0.551108 2.0803988
1.3566999 -0.54302299 2.0683389
1.3232601 -0.44270402 2.0570889
1.32915 -0.439661 2.0538189
1.3330799 -0.438777 2.0476489
1.3300301 -0.44006801 2.032119
1.33065 -0.43865299 2.0212891
1.27119 -0.368588 1.9538089
1.28633 -0.38595 1.951599
1.28619 -0.377882 1.953709
1.4148101 -0.51630402 2.0029089
1.41694 -0.51552796 1.995249
1.4049001 -0.51612699 1.954509
1.33269 -0.56955099 2.1226089
1.3375701 -0.56171602 2.1293089
1.32306 -0.57058299 2.0941989
1.34341 -0.56160402 2.1227789
1.3211501 -0.57085401 2.0841589
1.34 -0.56249404 2.106159
1.3447599 -0.55345899 2.1142991
1.32535 -0.57038802 2.079829
1.33163 -0.56256902 2.0864489
1.34113 -0.55274898 2.099519
1.33399 -0.56880003 2.0787389
1.32884 -0.56118101 2.072629
1.33495 -0.55154097 2.0811491
1.3270199 -0.56061399 2.0621591
1.33216 -0.552688 2.067579
1.3642399 -0.55493701 2.084069
1.3432201 -0.55022699 2.067559
1.35812 -0.54693699 2.070359
1.37082 -0.546 2.0737689
1.4153199 -0.53026199 2.053359
1.40308 -0.52279997 2.0445089
1.40466 -0.53024399 2.0351889
1.40388 -0.521896 2.036839
1.42011 -0.52947301 2.0379391
1.40483 -0.52198702 2.0267091
1.42431 -0.52847302 2.032289
1.41638 -0.522048 2.0267489
1.41045 -0.519862 2.012069
1.41934 -0.51480001 1.988349
1.3308001 -0.56627101 2.127039
1.34237 -0.57679904 2.1254189
1.3296001 -0.56776297 2.113559
1.33936 -0.558833 2.1251991
1.32613 -0.57423598 2.099859
1.332 -0.56643003 2.106349
1.34709 -0.55894798 2.1217289
1.3356199 -0.57479 2.0992289
1.32763 -0.56660497 2.090739
1.33746 -0.55733699 2.1013191
1.32407 -0.56610602 2.0770991
1.3256199 -0.55720001 2.076879
1.3253399 -0.56397998 2.0665591
1.32056 -0.55534899 2.059099
1.3379101 -0.54685301 2.0792191
1.32408 -0.56237298 2.0538089
1.32043 -0.55489397 2.0492489
1.34157 -0.54652399 2.069999
1.33313 -0.56260103 2.054369
1.3389 -0.55476898 2.0588291
1.3482001 -0.54610503 2.0660889
1.3562399 -0.54431897 2.0642991
1.3337801 -0.44182599 2.0191989
1.4061501 -0.52159899 1.9986091
1.40039 -0.52089196 1.9841189
1.4013699 -0.51976299 1.975309
1.39808 -0.518731 1.964259
1.3061999 -0.54929 2.0935488
1.32004 -0.54830599 2.0802288
1.30519 -0.55936599 2.0860889
1.32285 -0.547162 2.067879
1.3051699 -0.55772203 2.0772088
1.31964 -0.534724 2.059289
1.3155999 -0.547638 2.060159
1.3098599 -0.55811101 2.0621591
1.30024 -0.53508997 2.0568991
1.30416 -0.54683298 2.054729
1.29214 -0.55691999 2.057219
1.3014101 -0.53741699 2.0464489
1.2870899 -0.54679102 2.0511789
1.2925999 -0.55788499 2.0453489
1.3433501 -0.52703899 2.0165589
1.29059 -0.54860902 2.039479
1.28424 -0.55794799 2.0391691
1.3175701 -0.51319599 2.021559
1.28847 -0.54900199 2.030899
1.2765499 -0.55810398 2.0345089
1.37814 -0.54064101 2.125169
1.37603 -0.54069698 2.1155691
1.37806 -0.542642 2.1030788
1.37679 -0.543199 2.0934589
1.3595101 -0.55098403 2.0676889
1.3185699 -0.54063398 2.0749688
1.30489 -0.54814398 2.0929291
1.31871 -0.547122 2.0795889
1.3039 -0.558222 2.085479
1.3214999 -0.54597002 2.067239
1.3038601 -0.55657798 2.0765891
1.3182499 -0.53354001 2.0586591
1.31424 -0.54646498 2.0595291
1.30854 -0.55695301 2.0615289
1.2988499 -0.53395802 2.056299
1.3027999 -0.54569101 2.0541189
1.29081 -0.55580896 2.0566189
1.3000101 -0.53628099 2.0458388
1.2857201 -0.54569304 2.0505891
1.29125 -0.55677301 2.044749
1.34189 -0.52579099 2.0158889
1.2892101 -0.54750299 2.0388789
1.28289 -0.556858 2.038579
1.3160601 -0.512016 2.0209391
1.2870799 -0.54790002 2.0302992
1.2752 -0.55703402 2.0339389
1.3754699 -0.54038399 2.126039
1.3733701 -0.54043901 2.1164389
1.3753999 -0.54236901 2.1039491
1.3741299 -0.54292303 2.0943389
1.3568699 -0.55074298 2.0685589
1.3159 -0.54052401 2.0758591
