# .PCD v0.7 - Point Cloud Data file format
VERSION 0.7
FIELDS x y z
SIZE 4 4 4
TYPE F F F
COUNT 1 1 1
WIDTH 499
HEIGHT 1
VIEWPOINT 0 0 0 1 0 0 0
POINTS 499
DATA ascii
1.76776 -0.38696 0.25329301
1.77272 -0.37270901 0.24745598
1.79608 -0.35736197 0.24958397
1.79328 -0.36874297 0.249823
1.7849001 -0.381524 0.24632797
1.80759 -0.355663 0.24904999
1.79922 -0.36544701 0.24509193
1.79144 -0.37816501 0.24120598
1.79892 -0.36670798 0.23898399
1.7947999 -0.377635 0.23602897
1.7816701 -0.37351599 0.25969994
1.8012601 -0.36303902 0.25395095
1.80849 -0.349738 0.25290298
1.82625 -0.33828899 0.24834099
1.83075 -0.326922 0.24760598
1.78774 -0.374762 0.25166595
1.7939999 -0.36239201 0.24967697
1.80765 -0.34964699 0.24662299
1.83016 -0.338191 0.24081795
1.8319299 -0.32704201 0.24185799
1.84667 -0.31953898 0.23709397
1.7843499 -0.37355098 0.24419098
1.8019099 -0.36171901 0.24042198
1.80785 -0.350577 0.23887299
1.81898 -0.33860299 0.23706695
1.8363299 -0.32755798 0.23339294
1.8558201 -0.320288 0.22765495
1.77483 -0.38401797 0.23796996
1.773 -0.37109601 0.23966195
1.7966299 -0.36201 0.23445396
1.81727 -0.349397 0.23018494
1.8290499 -0.33658698 0.22846596
1.8367 -0.32616401 0.227267
1.77625 -0.38369599 0.22973794
1.76955 -0.37075099 0.23274399
1.76626 -0.368815 0.22566399
1.77623 -0.36145198 0.22132896
1.7634599 -0.36597002 0.21887498
1.75433 -0.35642201 0.22207497
1.7696 -0.35736901 0.21180893
1.7540401 -0.39086801 0.29617396
1.80045 -0.368929 0.25724
1.8097 -0.35459 0.25565797
1.8058901 -0.340738 0.25850999
1.8247701 -0.33487201 0.25322098
1.8029 -0.36611199 0.24983697
1.81005 -0.35409802 0.24990493
1.81673 -0.34314603 0.24902999
1.8241299 -0.33351299 0.24647094
1.7964901 -0.37763301 0.24396393
1.80247 -0.36582297 0.24236999
1.8093899 -0.35350299 0.24321395
1.8214 -0.34249401 0.23983696
1.8274499 -0.33348098 0.23889893
1.7962899 -0.37690398 0.23759499
1.8220199 -0.37051898 0.23005997
1.81472 -0.35445401 0.23424897
1.8304499 -0.34495398 0.23059295
1.8244799 -0.33299801 0.23381194
1.7572399 -0.40137401 0.23475799
1.75763 -0.40253502 0.21774192
1.76222 -0.40318698 0.20762596
1.76054 -0.40302101 0.19946495
1.75977 -0.40227601 0.190513
1.76929 -0.40450901 0.17745292
1.76437 -0.40258899 0.17023598
1.7730701 -0.40458301 0.15809593
1.7719901 -0.40394902 0.14958198
1.7765199 -0.41432703 0.12806496
1.7747501 -0.40341598 0.13080895
1.74722 -0.40117699 0.27721596
1.82373 -0.35267201 0.25866601
1.81659 -0.377489 0.25121093
1.80795 -0.359586 0.25663796
1.8161701 -0.35009998 0.25475097
1.82424 -0.34160501 0.25317496
1.8063999 -0.375085 0.24599396
1.81323 -0.361893 0.24760193
1.8148301 -0.34859198 0.24805497
1.82101 -0.33935201 0.24678695
1.7983099 -0.372527 0.24220398
1.8082001 -0.35977799 0.24217094
1.8161 -0.34741297 0.24133499
1.81735 -0.33732399 0.24190994
1.75582 -0.40404901 0.22997795
1.7628599 -0.40617198 0.20838997
1.7638099 -0.40612301 0.19947395
1.7684801 -0.39716998 0.19998597
1.7634801 -0.403945 0.19098693
1.76642 -0.39535999 0.19313698
1.7692 -0.40715399 0.17993797
1.7712801 -0.396393 0.18272698
1.77048 -0.39630699 0.17350999
1.7700599 -0.40565801 0.16198494
1.77354 -0.39642701 0.16260597
1.77142 -0.40587002 0.15303093
1.76599 -0.393049 0.15665795
1.77219 -0.40757099 0.14247894
1.7777699 -0.396918 0.14291595
1.77294 -0.40422902 0.13408394
1.7715801 -0.39353198 0.13659798
1.7816 -0.40807202 0.12120292
1.77623 -0.39509499 0.126623
1.7692 -0.398004 0.20189796
1.7697099 -0.39835399 0.19387993
1.7688299 -0.39853501 0.18484597
1.77025 -0.40866798 0.17124893
1.7695301 -0.39806703 0.17523995
1.7721001 -0.39871398 0.16494194
1.7745301 -0.399692 0.15370995
1.7703999 -0.396155 0.14643699
1.77845 -0.39982602 0.13475594
1.78317 -0.40265399 0.12289299
1.75578 -0.39680198 0.26868293
1.81101 -0.34965697 0.26016396
1.82082 -0.342527 0.25851592
1.8230799 -0.33179599 0.25968498
1.8164001 -0.356363 0.25136596
1.8220199 -0.34328702 0.25134096
1.8268601 -0.333271 0.25162897
1.75615 -0.39382899 0.25172096
1.81388 -0.36810797 0.24297898
1.81706 -0.352422 0.24416596
1.8233099 -0.34148499 0.24416794
1.82696 -0.33240199 0.24396797
1.7622099 -0.39697701 0.241652
1.82607 -0.35759398 0.23473397
1.8276401 -0.34410301 0.23601295
1.83667 -0.33681598 0.23417199
1.76503 -0.39838699 0.22026497
1.76239 -0.396413 0.21228699
1.7675301 -0.39900902 0.20202294
1.7756701 -0.39105901 0.19922295
1.77043 -0.39968899 0.19157898
1.77923 -0.39225799 0.18827896
1.77354 -0.400913 0.18100998
1.77949 -0.39165297 0.17871094
1.7746899 -0.40165299 0.16969399
1.77869 -0.390816 0.17026596
1.76871 -0.397443 0.16291496
1.7798599 -0.39161301 0.16069894
1.77556 -0.401207 0.15154594
1.77999 -0.39163199 0.15005195
1.7744501 -0.40068802 0.14155899
1.78488 -0.39304501 0.13825493
1.7753 -0.413203 0.12895797
1.77633 -0.39890099 0.13231598
1.7861 -0.39297199 0.12845398
1.78202 -0.40264598 0.12074798
1.7934899 -0.36348498 0.27364999
1.81286 -0.34457198 0.26696998
1.82026 -0.330549 0.26336899
1.79553 -0.362508 0.26674393
1.8120301 -0.34297901 0.26065797
1.82312 -0.32889703 0.25589898
1.7828 -0.377332 0.26249695
1.7922301 -0.360387 0.260075
1.81647 -0.34033799 0.25215295
1.82858 -0.32579398 0.24834694
1.77069 -0.384247 0.25666696
1.7817199 -0.36564898 0.254049
1.82198 -0.33670899 0.24520195
1.76967 -0.384664 0.24815094
1.7655799 -0.37221 0.24885994
1.7584701 -0.36370301 0.25137994
1.77154 -0.381053 0.24065994
1.77105 -0.36815602 0.23843895
1.75802 -0.36271098 0.24299996
1.77266 -0.37920102 0.23375298
1.7764599 -0.363904 0.229105
1.7564101 -0.35997102 0.23403496
1.7552299 -0.357041 0.22563599
1.75858 -0.34795702 0.22443695
1.75431 -0.35531399 0.21659394
1.7541901 -0.34800398 0.21775597
1.7576801 -0.35343498 0.20878197
1.75099 -0.34782901 0.21110398
1.75825 -0.35407001 0.20338494
1.75843 -0.41754299 0.19870597
1.8055099 -0.36301202 0.27124596
1.81678 -0.347747 0.26763099
1.8197099 -0.33727902 0.26622993
1.79313 -0.36779299 0.26816696
1.8105299 -0.35050598 0.26381195
1.81841 -0.337823 0.260616
1.78914 -0.36691502 0.26094696
1.80519 -0.35091901 0.25775397
1.8205701 -0.33702001 0.25304696
1.77505 -0.37223399 0.25667298
1.7971801 -0.354523 0.25174996
1.81306 -0.33921701 0.24875098
1.7745199 -0.38263598 0.24932793
1.76833 -0.37251899 0.25084901
1.77162 -0.361646 0.24944298
1.7728701 -0.38423902 0.24251899
1.76595 -0.371382 0.24373497
1.76668 -0.35999098 0.24143395
1.7756101 -0.36775601 0.23292495
1.76923 -0.35794398 0.23327598
1.7721001 -0.34824699 0.23172599
1.7644299 -0.35708699 0.22629799
1.76223 -0.34972399 0.22753395
1.75515 -0.35774398 0.21966499
1.7564 -0.35012999 0.22080795
1.7478399 -0.35855702 0.21539497
1.75482 -0.34963101 0.213526
1.7508 -0.358666 0.20932899
1.76041 -0.38778001 0.29297897
1.7642701 -0.386251 0.28468797
1.77844 -0.37190801 0.27961197
1.80267 -0.35187501 0.27099898
1.82657 -0.333781 0.26427796
1.8249201 -0.32398102 0.265057
1.75045 -0.39920503 0.28268096
1.76659 -0.38400599 0.27667198
1.7869099 -0.36722302 0.26996094
1.7974601 -0.35268298 0.26614997
1.8239501 -0.33555198 0.25848496
1.8264999 -0.32429999 0.25883597
1.77408 -0.38027802 0.26626694
1.7889301 -0.36431703 0.26177797
1.79956 -0.34998798 0.25891
1.82739 -0.33441201 0.24981797
1.8271401 -0.324788 0.25148401
1.76437 -0.384516 0.26163301
1.7766701 -0.36915901 0.25669098
1.7963901 -0.35190299 0.25229195
1.8293899 -0.33423698 0.24324699
1.82183 -0.32551602 0.24610695
1.7740899 -0.380723 0.25036094
1.76623 -0.37036097 0.25196692
1.77205 -0.36005402 0.24994195
1.7816499 -0.37941301 0.23906495
1.76596 -0.37025902 0.24488097
1.76642 -0.36042598 0.24264695
1.78039 -0.37946498 0.23396698
1.76686 -0.36970299 0.23727295
1.7628999 -0.36022598 0.23718795
1.7626801 -0.359963 0.23223694
1.75793 -0.38446498 0.30723596
1.7616099 -0.383073 0.29788497
1.76431 -0.38125598 0.28855294
1.7682899 -0.37955898 0.27992997
1.78606 -0.36583599 0.27434999
1.8070101 -0.34865397 0.26748496
1.81709 -0.334672 0.26477599
1.8257201 -0.32226199 0.26207396
1.8394901 -0.31026199 0.25726593
1.77353 -0.375833 0.27102998
1.7948899 -0.36075297 0.26491296
1.80757 -0.347891 0.26162598
1.81463 -0.335042 0.25971198
1.83383 -0.320108 0.25331795
1.84218 -0.30931801 0.25002
1.75616 -0.394124 0.26778299
1.76998 -0.37950099 0.26402694
1.7847999 -0.364066 0.25975999
1.8028301 -0.34874699 0.25639299
1.82135 -0.33295101 0.25039893
1.83764 -0.31841099 0.24529999
1.76177 -0.39222801 0.25830597
1.7759199 -0.37684798 0.25484198
1.7784599 -0.364043 0.25477698
1.7975301 -0.351457 0.25051299
1.8438901 -0.32665101 0.237827
1.84181 -0.31737602 0.23848695
1.7723 -0.36416301 0.251737
1.77668 -0.40682 0.14668594
1.7917501 -0.36284697 0.27348793
1.8111 -0.34391898 0.26678795
1.81849 -0.329889 0.26318398
1.77644 -0.38167998 0.27128592
1.7937801 -0.36186501 0.26657999
1.8102601 -0.34232101 0.26047897
1.82133 -0.32823002 0.25571001
1.78105 -0.37669301 0.26234597
1.7904601 -0.35973999 0.25991797
1.81468 -0.339672 0.25196692
1.8267701 -0.32511902 0.24814995
1.76894 -0.38361099 0.256531
1.7799499 -0.36500499 0.25390694
1.8201801 -0.33603501 0.24500893
1.76789 -0.38402301 0.24801697
1.7638099 -0.37157199 0.248741
1.75669 -0.36307201 0.25127998
1.7697501 -0.38040501 0.24052598
1.76925 -0.36750802 0.23831397
1.75622 -0.36207297 0.242902
1.77086 -0.37854803 0.23361793
1.7746401 -0.36324501 0.228974
1.7546 -0.359328 0.23394196
1.7534 -0.35639301 0.22554596
1.75674 -0.34730598 0.224347
1.7524699 -0.35466 0.21650696
1.7523599 -0.347352 0.21767396
1.7558299 -0.35277402 0.20869094
1.74914 -0.34717301 0.211027
1.7563901 -0.35340598 0.20329194
1.7566 -0.41687402 0.19856896
1.8043801 -0.36123902 0.27081993
1.8156199 -0.34594899 0.26720199
1.8185201 -0.33547297 0.26580298
1.7919999 -0.366045 0.26774797
1.8093801 -0.34871799 0.26338699
1.81722 -0.33601701 0.26018998
1.7758099 -0.383315 0.26500893
1.78801 -0.365172 0.26053298
1.8040199 -0.34914002 0.25733399
1.81936 -0.335206 0.25261992
1.7709199 -0.385052 0.25739098
1.7739199 -0.370518 0.25626901
1.79602 -0.35275799 0.25133401
1.8118601 -0.33741701 0.24832992
1.77342 -0.38091901 0.248918
1.7672 -0.37081501 0.25044999
1.77047 -0.35993499 0.24904594
1.77176 -0.38252103 0.24211098
1.76482 -0.36967999 0.24333793
1.76551 -0.35828701 0.24104194
1.77446 -0.36602798 0.23252197
1.76805 -0.35623002 0.23288299
1.7709 -0.34652698 0.23133498
1.76325 -0.35537997 0.22590996
1.7610401 -0.348023 0.22715096
1.75397 -0.35605401 0.21928398
1.7552 -0.34843799 0.22042999
1.74665 -0.35688001 0.21501999
1.7536099 -0.347938 0.21314995
1.7496201 -0.35698003 0.20895195
1.7617199 -0.38654 0.29372695
1.76557 -0.38499802 0.28543496
1.7797 -0.37061402 0.28035995
1.80387 -0.35051 0.27174699
1.8277299 -0.33234701 0.26502693
1.82604 -0.322552 0.26580894
1.76789 -0.38274398 0.27741995
1.78816 -0.36590198 0.27070999
1.7986599 -0.35133201 0.26689896
1.82511 -0.33412498 0.25923392
1.8276199 -0.32286599 0.25958693
1.77537 -0.378993 0.26701501
1.79017 -0.36298901 0.26252693
1.80075 -0.348629 0.25965995
1.8285401 -0.33297297 0.25056595
1.8282601 -0.323351 0.25223497
1.7656701 -0.383257 0.26238197
1.7779201 -0.36786401 0.25744095
1.7975999 -0.35055101 0.25304198
1.8305401 -0.33278999 0.24399498
1.82295 -0.32409099 0.24685799
1.77537 -0.37943298 0.25110793
1.76748 -0.36909401 0.25271797
1.77328 -0.35876998 0.25069398
1.7829201 -0.37810001 0.23981094
1.7672099 -0.36899102 0.24563293
1.76765 -0.35915601 0.24340096
1.78166 -0.378153 0.23471299
1.76811 -0.36842999 0.23802398
1.76412 -0.35896501 0.23794296
1.7639101 -0.358702 0.23299195
1.7584399 -0.38499999 0.30686295
1.76213 -0.38361198 0.29751396
1.7648399 -0.38179797 0.28818399
1.76882 -0.38010702 0.27956498
1.78661 -0.3664 0.27399498
1.80758 -0.34923699 0.26714194
1.81768 -0.33526599 0.26443794
1.8263099 -0.322864 0.26174095
1.8400999 -0.310877 0.25693992
1.77407 -0.37638599 0.27066696
1.79545 -0.36132598 0.26456299
1.8081501 -0.34847599 0.26128295
1.81521 -0.33563501 0.25937194
1.83444 -0.320719 0.25298995
1.8428 -0.30993602 0.24969597
1.75669 -0.39466098 0.26740897
1.77053 -0.380052 0.26366293
1.78536 -0.364631 0.25940299
1.8034101 -0.34932899 0.25604698
1.8219501 -0.33355099 0.25006393
1.8382499 -0.31902701 0.24497399
1.76231 -0.39277199 0.25793692
1.77648 -0.37740502 0.25448096
1.77902 -0.364602 0.25441697
1.79811 -0.352034 0.25016496
1.8444999 -0.32727298 0.23750596
1.84243 -0.317996 0.23816299
1.7728599 -0.36471698 0.25137198
1.76737 -0.374318 0.24135193
1.79021 -0.370913 0.24388695
1.78714 -0.37936798 0.24428199
1.7872701 -0.37974203 0.23762894
1.77325 -0.38797501 0.23070793
1.75659 -0.396525 0.22262695
1.7480701 -0.38534999 0.20939995
1.75166 -0.40439302 0.21268898
1.7522 -0.39144599 0.24594894
1.79242 -0.36422101 0.24207397
1.7978101 -0.37578201 0.24645492
1.7789999 -0.382388 0.24037994
1.7668401 -0.390724 0.23562294
1.7995399 -0.377085 0.240998
1.7786701 -0.38224497 0.23167793
1.76246 -0.39040297 0.22530594
1.7954299 -0.37701401 0.23145492
1.7768401 -0.38252398 0.22327293
1.74922 -0.38573003 0.21196197
1.76117 -0.40035498 0.21992798
1.7886599 -0.37529999 0.22143593
1.75524 -0.37023601 0.23793595
1.766 -0.38885102 0.24530098
1.7976401 -0.34474 0.24074097
1.79784 -0.35598201 0.24235298
1.7917 -0.36683601 0.24277695
1.7786599 -0.379049 0.24100098
1.81124 -0.35203201 0.24153893
1.8006301 -0.35898498 0.23841599
1.7944299 -0.37138402 0.23821297
1.77724 -0.37826598 0.23176995
1.79656 -0.37393001 0.23153892
1.7779601 -0.37920898 0.22329094
1.79261 -0.37461799 0.22208695
1.76677 -0.37477797 0.21116599
1.78237 -0.35233399 0.24176498
1.78957 -0.370689 0.24786597
1.7794701 -0.38227201 0.24784394
1.80274 -0.34845698 0.24029098
1.80267 -0.361687 0.243489
1.79417 -0.37092701 0.24192993
1.81081 -0.35322201 0.23689896
1.8029801 -0.36102 0.23492996
1.7936301 -0.37201402 0.23316093
1.7807201 -0.38254601 0.22960494
1.80685 -0.35111302 0.22636497
1.7988601 -0.35903999 0.22412995
1.7918899 -0.371647 0.22394897
1.77073 -0.37874699 0.21631798
1.80841 -0.35234299 0.21954896
1.7927499 -0.35559601 0.21431495
1.7633001 -0.37186798 0.24017495
1.77267 -0.38491902 0.24563393
1.7861199 -0.36840197 0.24268097
1.7830901 -0.37686598 0.24307999
1.77233 -0.385203 0.23887695
1.7832 -0.37723899 0.23642692
1.7691901 -0.38550898 0.22952293
1.75255 -0.39410302 0.22146195
1.7887199 -0.37903702 0.23285599
1.7439901 -0.38294998 0.20824699
1.74763 -0.40198398 0.21153
1.74793 -0.38931501 0.24566597
1.77276 -0.38309601 0.24705398
1.76413 -0.39239398 0.24544396
1.78808 -0.36199501 0.24177796
1.7934899 -0.37354198 0.24616195
1.7747 -0.38019401 0.24009193
1.76256 -0.38856202 0.23533897
1.7566099 -0.399286 0.23489395
1.7952299 -0.374841 0.24070495
1.77437 -0.38005501 0.23139
1.75819 -0.388255 0.22502297
1.75971 -0.39923999 0.22793999
1.7911201 -0.37478402 0.23116393
1.7725501 -0.38034099 0.22298393
1.7449299 -0.383618 0.211679
1.75692 -0.39821202 0.21964699
1.7843499 -0.37308899 0.22114395
1.75002 -0.36868 0.23804298
1.7608501 -0.38726699 0.24539299
1.7923599 -0.343061 0.24082795
1.79259 -0.35430402 0.24243499
1.78649 -0.36517501 0.24285996
1.77347 -0.377426 0.24108696
1.8059801 -0.35031301 0.24161194
1.79538 -0.35729697 0.23849495
1.78922 -0.36971298 0.23829094
1.7720599 -0.376643 0.23185799
1.7682201 -0.38990003 0.23135796
1.7913499 -0.372251 0.23161499
1.7727699 -0.377581 0.22337899
1.7874 -0.37294602 0.22216499
1.7615601 -0.37317798 0.21126297
1.7801601 -0.35045397 0.24263397
1.78739 -0.36879799 0.24873596
1.77731 -0.38039798 0.24871193
1.8005201 -0.346544 0.241166
1.8004601 -0.35977298 0.24436195
1.79198 -0.36902699 0.24280098
1.7811999 -0.38228101 0.24251297
1.8085999 -0.35129398 0.23777497
1.80079 -0.35910499 0.23580399
1.79145 -0.37011501 0.23403198
1.77856 -0.38067001 0.23047295
1.8046401 -0.34919202 0.22724
1.7966701 -0.35713199 0.22500297
1.7897201 -0.36974999 0.22481994
1.76858 -0.37688598 0.21718299
1.8061999 -0.35041901 0.22042595
1.79054 -0.35369802 0.215187
