# .PCD v0.7 - Point Cloud Data file format
VERSION 0.7
FIELDS x y z
SIZE 4 4 4
TYPE F F F
COUNT 1 1 1
WIDTH 94
HEIGHT 1
VIEWPOINT 0 0 0 1 0 0 0
POINTS 94
DATA ascii
1.29097 -0.53000599 2.3644691
1.2938 -0.52804399 2.354239
1.29927 -0.52651501 2.3439789
1.3109 -0.52483296 2.3330889
1.3241 -0.52213597 2.3222489
1.3256 -0.520859 2.3127689
1.3273101 -0.532417 2.3147488
1.3289701 -0.54113996 2.378099
1.3366001 -0.535254 2.380759
1.3488801 -0.53289199 2.3851991
1.3263699 -0.55212897 2.3729389
1.31366 -0.53704298 2.3673389
1.31444 -0.52701497 2.367059
1.32846 -0.52448201 2.372539
1.3234 -0.54980701 2.366529
1.30925 -0.53401399 2.359679
1.30934 -0.52427799 2.3590789
1.3233099 -0.52215999 2.3638489
1.3079801 -0.54188997 2.3538089
1.31161 -0.53518301 2.3543789
1.31221 -0.52528799 2.3535388
1.32213 -0.52071702 2.3566089
1.3077201 -0.53295797 2.3467989
1.3103399 -0.52405101 2.3452189
1.32515 -0.52192199 2.351099
1.30424 -0.53080398 2.3382292
1.30811 -0.52225399 2.3382189
1.32504 -0.52153403 2.3436289
1.31177 -0.52334201 2.333389
1.3244001 -0.52041602 2.336879
1.3060299 -0.52071398 2.3241589
1.3205299 -0.518067 2.329179
1.30316 -0.51850498 2.316139
1.32221 -0.51741099 2.3220291
1.3056301 -0.51831901 2.3102992
1.3186799 -0.51438498 2.313899
1.3398801 -0.51547998 2.3202689
1.33506 -0.51291102 2.3118789
1.3290601 -0.55259603 2.3787689
1.31296 -0.53293902 2.371289
1.32162 -0.527242 2.3734789
1.31093 -0.54223996 2.3664689
1.30654 -0.52939498 2.363869
1.3140401 -0.52285302 2.365669
1.33433 -0.524809 2.3722689
1.3229201 -0.55812401 2.3660791
1.31821 -0.54685599 2.363049
1.30445 -0.52963901 2.3576789
1.31427 -0.52346802 2.3596489
1.3273801 -0.52026403 2.363219
1.3186001 -0.54588503 2.3571389
1.3083701 -0.52965903 2.3521187
1.3187699 -0.52314001 2.3539889
1.3354601 -0.52310801 2.358839
1.3177201 -0.53440201 2.3478892
1.31543 -0.52229601 2.3464191
1.33718 -0.52425599 2.3524489
1.3223399 -0.53724599 2.3414788
1.3193401 -0.52416301 2.339839
1.33571 -0.52326399 2.3446188
1.3197999 -0.53376502 2.3337188
1.31128 -0.51876903 2.329819
1.33424 -0.52211398 2.3369589
1.3157001 -0.53100497 2.3254888
1.31398 -0.52002102 2.323859
1.3323101 -0.520688 2.3291488
1.30861 -0.52543902 2.316479
1.3081501 -0.51601899 2.314959
1.32438 -0.51604098 2.3193891
1.32775 -0.51749903 2.3134491
1.3309 -0.52419102 2.377459
1.3455 -0.52459502 2.3819189
1.3208901 -0.52685398 2.369549
1.3221899 -0.51904398 2.368989
1.3284199 -0.51401001 2.3704691
1.31531 -0.52612799 2.3613291
1.31995 -0.517851 2.362839
1.33584 -0.51960897 2.3675189
1.32548 -0.54910201 2.3594887
1.31458 -0.52968299 2.3541191
1.3183299 -0.51939702 2.3557792
1.32785 -0.56034398 2.3557489
1.3222901 -0.54642504 2.3516889
1.31339 -0.52942801 2.347069
1.31427 -0.54032999 2.341749
1.3147099 -0.53074402 2.339169
1.3065699 -0.52256602 2.328279
1.31722 -0.52828097 2.325279
1.3153501 -0.51534998 2.3225589
1.32315 -0.53263497 2.3204489
1.32252 -0.51929998 2.3181589
1.32552 -0.510773 2.3184891
1.31545 -0.52543801 2.3104389
1.32915 -0.51196301 2.3129089
