# .PCD v0.7 - Point Cloud Data file format
VERSION 0.7
FIELDS x y z
SIZE 4 4 4
TYPE F F F
COUNT 1 1 1
WIDTH 1538
HEIGHT 1
VIEWPOINT 0 0 0 1 0 0 0
POINTS 1538
DATA ascii
1.7110499 -0.460922 0.92493063
1.72082 -0.47311401 0.92581093
1.7228501 -0.48712701 0.92553282
1.72615 -0.499596 0.92420846
1.68248 -0.36622298 0.91414362
1.66877 -0.38112801 0.91319764
1.66917 -0.39497897 0.91325277
1.6735201 -0.406762 0.91352773
1.70181 -0.41758201 0.91542518
1.70225 -0.43335399 0.91575134
1.69253 -0.45025298 0.91646647
1.7093401 -0.460545 0.91569716
1.71749 -0.474181 0.91797709
1.7197 -0.48898801 0.91591626
1.7277299 -0.499459 0.91767102
1.71286 -0.51519501 0.91469109
1.70429 -0.36133599 0.909275
1.6971699 -0.373115 0.90920645
1.6978799 -0.38731802 0.90935159
1.6965699 -0.402614 0.90965998
1.7153701 -0.412099 0.90969253
1.71189 -0.42736199 0.90926301
1.69807 -0.44705501 0.90798736
1.71206 -0.45906201 0.90763205
1.7163299 -0.47461301 0.90835935
1.7206199 -0.48948002 0.90792114
1.7171899 -0.50414002 0.90824264
1.72295 -0.51378101 0.908108
1.71155 -0.36003101 0.90415376
1.70627 -0.37012199 0.90353698
1.7020199 -0.38423401 0.90294874
1.70538 -0.40134999 0.90287697
1.7192799 -0.41398603 0.90343559
1.7097701 -0.43090001 0.90135789
1.69893 -0.44918799 0.89875531
1.71613 -0.461124 0.9003067
1.73097 -0.472074 0.90129489
1.72826 -0.48518798 0.90193522
1.7321601 -0.498485 0.9015075
1.72261 -0.36725497 0.90000552
1.6824601 -0.39318001 0.89518934
1.69804 -0.421828 0.89360392
1.70664 -0.43437001 0.89264399
1.6986099 -0.44844899 0.89121222
1.70915 -0.45869401 0.89185518
1.7302201 -0.46922699 0.89296132
1.73446 -0.48459801 0.89420134
1.72177 -0.50416803 0.89275986
1.71771 -0.43129799 0.88581038
1.71065 -0.445373 0.88542885
1.72035 -0.457286 0.88486743
1.72867 -0.46900201 0.884498
1.73692 -0.48039001 0.885683
1.73825 -0.49422401 0.88532221
1.72823 -0.42986098 0.87848055
1.72304 -0.44282398 0.87754595
1.7259599 -0.457425 0.87783319
1.7332001 -0.469295 0.87749422
1.7382201 -0.48258901 0.87740111
1.74508 -0.49479699 0.87623817
1.7213401 -0.43165198 0.86983865
1.7127299 -0.44410402 0.86699754
1.72786 -0.45535198 0.86958808
1.7339901 -0.470456 0.86909294
1.74326 -0.483372 0.87031144
1.74257 -0.497511 0.86821854
1.73015 -0.515145 0.86625373
1.72084 -0.52950501 0.86434036
1.7333 -0.38290501 0.85875475
1.7049699 -0.43464002 0.85845166
1.7178301 -0.44439301 0.85939193
1.7294501 -0.45668399 0.86158133
1.7324001 -0.468133 0.86051255
1.74308 -0.481213 0.86278582
1.7418699 -0.49972698 0.86130172
1.7377601 -0.51283097 0.86065793
1.72563 -0.52748001 0.85828263
1.74018 -0.38187 0.85480082
1.7397 -0.39211398 0.85359812
1.69066 -0.42565799 0.84879738
1.71621 -0.431021 0.85132027
1.70955 -0.44559601 0.85071355
1.72997 -0.454175 0.85349727
1.7458701 -0.46322799 0.85451323
1.7274699 -0.51851201 0.85098243
1.7435001 -0.38213101 0.84917307
1.74963 -0.392102 0.84780306
1.72077 -0.41382 0.8447516
1.7169299 -0.42971 0.84338987
1.71767 -0.44332999 0.84463179
1.73901 -0.45169103 0.84603763
1.7588 -0.457706 0.84687197
1.73164 -0.51936102 0.84286207
1.74503 -0.383975 0.84136182
1.7696 -0.38861698 0.84291893
1.75008 -0.40558997 0.84099448
1.7256199 -0.42535302 0.83815897
1.73201 -0.43907902 0.83854926
1.7660699 -0.44490701 0.84140295
1.79131 -0.44901001 0.84322637
1.7778101 -0.38740897 0.8367511
1.7725501 -0.398709 0.83564967
1.7270199 -0.42748699 0.83241701
1.75349 -0.436474 0.834638
1.79047 -0.43909901 0.83618355
1.79436 -0.44839001 0.8364895
1.7841201 -0.38720903 0.82870895
1.7898101 -0.395913 0.83024794
1.7829201 -0.40990201 0.82859397
1.8076401 -0.42037103 0.83101797
1.80988 -0.43283501 0.83073896
1.79882 -0.44673902 0.82926095
1.7791499 -0.38913 0.82051396
1.79445 -0.39496601 0.82348496
1.7977201 -0.408003 0.82334101
1.80916 -0.420937 0.824844
1.78948 -0.43873599 0.82044297
1.78233 -0.45120898 0.81971097
1.7677499 -0.39234 0.81279695
1.7932899 -0.39774501 0.81559592
1.7934899 -0.40930501 0.81495595
1.79978 -0.42030999 0.81654799
1.75836 -0.44765598 0.80644697
1.7896299 -0.44903198 0.81423998
1.7483799 -0.51598597 0.80154592
1.79843 -0.399885 0.80775797
1.7833501 -0.41415402 0.80522096
1.75326 -0.43718898 0.797885
1.74471 -0.45040199 0.79540998
1.75186 -0.51489401 0.79504395
1.7434 -0.526851 0.79254591
1.72323 -0.54286897 0.78905296
1.79159 -0.412269 0.79788995
1.7649001 -0.431615 0.79331696
1.7396801 -0.45112097 0.78872192
1.75901 -0.456155 0.790923
1.7503999 -0.51553601 0.787314
1.7485499 -0.52640402 0.78490996
1.7232699 -0.546597 0.77955091
1.7837501 -0.414799 0.78831398
1.78407 -0.42323399 0.78801894
1.73795 -0.452364 0.78274894
1.76272 -0.45598701 0.78620499
1.7467301 -0.517223 0.77762598
1.7422999 -0.53044105 0.77580094
1.7208 -0.55108899 0.77048403
1.71269 -0.56682599 0.76775694
1.69927 -0.58382398 0.76349592
1.78338 -0.41643399 0.78007197
1.7880701 -0.42296001 0.78057498
1.78326 -0.451478 0.77392393
1.75475 -0.51400602 0.77069497
1.7516299 -0.525172 0.76974493
1.72463 -0.54703999 0.76386595
1.71523 -0.56545198 0.76091093
1.7039 -0.58376002 0.75716192
1.78605 -0.42716703 0.77219892
1.7641799 -0.44602403 0.76617098
1.79347 -0.448001 0.77013594
1.75255 -0.51533103 0.76204193
1.7463601 -0.528795 0.76083696
1.72446 -0.55038702 0.75472593
1.70856 -0.571675 0.75135797
1.70416 -0.58643401 0.74950999
1.79002 -0.42706501 0.76635993
1.78742 -0.43926799 0.76443893
1.81081 -0.44325697 0.76630396
1.7583299 -0.51379502 0.75457901
1.74928 -0.52823198 0.75214297
1.7248501 -0.55022001 0.74621892
1.7194501 -0.565736 0.745731
1.7080001 -0.58501798 0.74242997
1.7817799 -0.431927 0.758183
1.8141999 -0.43467602 0.76170194
1.8332801 -0.43930098 0.76288396
1.78649 -0.49122199 0.74830991
1.74863 -0.52773601 0.74333298
1.73605 -0.54409802 0.74129593
1.71661 -0.56650198 0.73730302
1.8401101 -0.43031397 0.75861496
1.7861301 -0.49080798 0.74281693
1.7647301 -0.50785899 0.73886198
1.75536 -0.523323 0.73766595
1.74769 -0.53827399 0.73535699
1.70415 -0.57566202 0.72892898
1.7650701 -0.507119 0.73095894
1.76235 -0.52053905 0.73044693
1.74657 -0.53765601 0.72507995
1.8111099 -0.362506 0.73526692
1.7247701 -0.428195 0.71448898
1.78765 -0.49141103 0.72663599
1.76515 -0.509646 0.72246695
1.75734 -0.52481198 0.72024399
1.74821 -0.53761697 0.71761698
1.7940601 -0.37978899 0.72496498
1.76123 -0.404549 0.71642703
1.7491499 -0.42113999 0.71396697
1.7334801 -0.43464699 0.71070892
1.79105 -0.488749 0.71920198
1.7720599 -0.50527799 0.71541899
1.76449 -0.520585 0.71352494
1.74971 -0.53642297 0.71053696
1.8022701 -0.37565801 0.72162598
1.7687199 -0.40069902 0.71196997
1.7624699 -0.41578498 0.71016097
1.74791 -0.42974499 0.707605
1.8552699 -0.427075 0.73266691
1.7920101 -0.48745602 0.71351898
1.7808599 -0.50088799 0.7101109
1.7664599 -0.51787901 0.70564795
1.75843 -0.53204703 0.70298094
1.7937801 -0.367412 0.71512598
1.7525301 -0.39751998 0.70271796
1.7480999 -0.40930098 0.70015496
1.75862 -0.41621101 0.70209998
1.75459 -0.42875001 0.700059
1.7992901 -0.48495302 0.71000397
1.7672701 -0.509175 0.69879699
1.76465 -0.52146196 0.69644296
1.75003 -0.53630698 0.69143295
1.73071 -0.42676997 0.68674797
1.73401 -0.43797001 0.68532997
1.76623 -0.51191801 0.68881196
1.75968 -0.52456701 0.68674392
1.75589 -0.53518504 0.68525195
1.71687 -0.43047297 0.67280996
1.75524 -0.446107 0.68055099
1.77316 -0.50602502 0.68017
1.76503 -0.521321 0.67957795
1.76138 -0.532947 0.67938095
1.75664 -0.380303 0.67406392
1.74998 -0.393163 0.67267495
1.72146 -0.41485801 0.66649091
1.72716 -0.42616799 0.66798192
1.7667199 -0.45773202 0.67428595
1.79116 -0.485376 0.677724
1.78259 -0.50012404 0.67473197
1.7762399 -0.516092 0.67291296
1.76693 -0.53031301 0.67191797
1.75714 -0.37966099 0.66820198
1.75845 -0.388473 0.6691609
1.7508701 -0.40301999 0.66660601
1.72576 -0.42507303 0.66000092
1.78225 -0.47106603 0.67018294
1.7835699 -0.48632199 0.66904199
1.78039 -0.50250101 0.66660899
1.77879 -0.516487 0.66587293
1.7792599 -0.527574 0.66463697
1.75655 -0.38114202 0.66143602
1.75866 -0.389754 0.66234595
1.7510099 -0.40588 0.65805894
1.72364 -0.42833599 0.65063494
1.7748101 -0.47425202 0.66021699
1.77757 -0.489283 0.659666
1.7855099 -0.500287 0.65915698
1.78248 -0.51531297 0.65937394
1.7904899 -0.52523601 0.65879798
1.79892 -0.53340101 0.65921491
1.75653 -0.39324799 0.653853
1.7457401 -0.40687197 0.64904892
1.7350399 -0.42198399 0.64514297
1.7776401 -0.47112301 0.65257096
1.78325 -0.485699 0.65241295
1.7879801 -0.498759 0.65238798
1.7929801 -0.51134402 0.65328401
1.80114 -0.52345198 0.65325296
1.80899 -0.53226602 0.65345299
1.7415299 -0.409641 0.64078796
1.73103 -0.42566299 0.63494295
1.7785699 -0.47122601 0.64355695
1.79011 -0.48319 0.64589292
1.7936 -0.49624902 0.64628392
1.80617 -0.50876302 0.64759499
1.81004 -0.52217001 0.64669198
1.8130299 -0.53161597 0.64697194
1.73118 -0.41413298 0.62844098
1.72878 -0.42505002 0.62529695
1.77511 -0.45823801 0.63505596
1.7792799 -0.471147 0.63465095
1.7910899 -0.48270199 0.63800597
1.79979 -0.49625501 0.63881499
1.81286 -0.50814301 0.64028794
1.82278 -0.51791197 0.64256293
1.81945 -0.52891803 0.64081496
1.72206 -0.40237999 0.61424494
1.7274699 -0.41363299 0.61735398
1.7278199 -0.42736802 0.61678892
1.78291 -0.47289601 0.62763298
1.79612 -0.48434103 0.63045794
1.8092301 -0.494957 0.63312596
1.80987 -0.50743699 0.63072199
1.8207 -0.51778001 0.63464391
1.82206 -0.52721697 0.63269395
1.6944901 -0.59666002 0.59147096
1.72948 -0.39900798 0.60958797
1.72694 -0.410027 0.60875195
1.73045 -0.42321801 0.609191
1.79348 -0.48047501 0.62139994
1.80151 -0.49433601 0.62259996
1.80392 -0.50801998 0.62101293
1.81612 -0.51804399 0.62456197
1.80296 -0.53262597 0.61952996
1.6939999 -0.596394 0.58513194
1.7314399 -0.38648999 0.60128397
1.7308099 -0.39827302 0.60195595
1.7296801 -0.41229498 0.60111994
1.7262801 -0.427984 0.59937495
1.78861 -0.46839699 0.61247498
1.79602 -0.48200199 0.61340994
1.79935 -0.497013 0.61268693
1.81296 -0.50757498 0.61668998
1.8019099 -0.521833 0.61214495
1.73265 -0.568187 0.58546793
1.69916 -0.59397501 0.57887399
1.7377299 -0.38425702 0.59745395
1.73558 -0.39564499 0.59577799
1.73646 -0.40869901 0.59497195
1.73648 -0.42389098 0.59431696
1.7879201 -0.47084799 0.60305095
1.79325 -0.484696 0.60429692
1.7950901 -0.49739701 0.60243696
1.8045 -0.508627 0.60617095
1.79721 -0.52113199 0.60130996
1.7273899 -0.56923801 0.57778996
1.71638 -0.58509302 0.57489997
1.69113 -0.609496 0.56844395
1.80396 -0.332789 0.60527796
1.81382 -0.34670103 0.60674697
1.80275 -0.365459 0.60308295
1.7903 -0.38264599 0.59930593
1.76833 -0.40046901 0.59478897
1.74101 -0.42049998 0.58875895
1.79274 -0.46888402 0.59638995
1.79053 -0.48420298 0.59478796
1.79861 -0.49584201 0.59616899
1.7954601 -0.509848 0.59457195
1.78499 -0.52435702 0.58866996
1.7114 -0.57391101 0.56647396
1.7270799 -0.57994097 0.56941098
1.71594 -0.59676802 0.56589895
1.8238499 -0.344188 0.60368192
1.81393 -0.36019501 0.60002995
1.80995 -0.37539399 0.59900796
1.7980701 -0.392508 0.59393597
1.79948 -0.40741402 0.59296793
1.78925 -0.42635399 0.58845496
1.78982 -0.45469898 0.58700395
1.79251 -0.48470199 0.58658296
1.7912601 -0.49835399 0.58694798
1.79193 -0.51163399 0.58464694
1.7772501 -0.52701801 0.57760298
1.71711 -0.57216501 0.55975497
1.72777 -0.58002102 0.55996096
1.73043 -0.59190899 0.56078398
1.71049 -0.60985804 0.55423194
1.82156 -0.33415699 0.59665996
1.8219501 -0.34676602 0.59651297
1.8204601 -0.35924998 0.59416598
1.8113201 -0.37575698 0.59117496
1.8031 -0.391675 0.58777696
1.79976 -0.40631801 0.58528095
1.8024001 -0.42046601 0.58600497
1.79116 -0.439098 0.58113694
1.79767 -0.45276099 0.58084196
1.7973 -0.467067 0.58052194
1.79521 -0.48283401 0.57938296
1.78513 -0.51447898 0.573735
1.77439 -0.53012598 0.56813699
1.7314301 -0.56614703 0.55406296
1.72838 -0.57905799 0.55237597
1.73404 -0.589643 0.55319095
1.7207 -0.60657501 0.54794198
1.82345 -0.34598598 0.58870101
1.81315 -0.36322102 0.58439493
1.81569 -0.37522599 0.58463997
1.80379 -0.391202 0.58053499
1.78983 -0.40983701 0.57327998
1.79733 -0.42350498 0.57607198
1.7923801 -0.43861303 0.57346994
1.79514 -0.45070499 0.57302999
1.80164 -0.46441501 0.57309294
1.80062 -0.480019 0.57239896
1.75631 -0.541462 0.55462897
1.7412801 -0.560242 0.54916692
1.73534 -0.57579601 0.54674596
1.72905 -0.593413 0.54284495
1.72588 -0.60688299 0.53956896
1.83007 -0.34080502 0.58221596
1.81285 -0.35886502 0.57653195
1.81304 -0.37443101 0.57709998
1.78966 -0.39651698 0.56892598
1.76712 -0.4152 0.55825496
1.77465 -0.42772597 0.55949998
1.79386 -0.43919 0.56592393
1.8024899 -0.45164299 0.56735194
1.7979201 -0.46662799 0.56287998
1.80398 -0.47773102 0.56540895
1.79944 -0.49348599 0.56260294
1.76403 -0.53541601 0.54879594
1.7460099 -0.55711198 0.54272699
1.7277299 -0.57979798 0.536075
1.71453 -0.60092604 0.53060496
1.7184199 -0.61024302 0.53046596
1.81619 -0.34539601 0.57037795
1.79768 -0.36220601 0.56512094
1.74695 -0.40046102 0.54303098
1.7512 -0.42103299 0.54582292
1.79948 -0.45204499 0.55836195
1.80058 -0.46622199 0.555022
1.80304 -0.48024699 0.55625296
1.7611301 -0.53948003 0.53917295
1.74968 -0.55620998 0.53570294
1.7109101 -0.61338001 0.52247196
1.7949899 -0.350517 0.55794698
1.7997999 -0.46676299 0.54667097
1.8035899 -0.47810501 0.54820597
1.80301 -0.49247003 0.54630297
1.79256 -0.51252604 0.54053098
1.7787601 -0.53160703 0.53592294
1.7613699 -0.54886299 0.53071898
1.7956101 -0.51310802 0.53256899
1.7883201 -0.52763903 0.53011793
1.77633 -0.54228199 0.52654094
1.67633 -0.63392603 0.48652595
1.80639 -0.49543703 0.52870494
1.79801 -0.51141798 0.52556896
1.7939 -0.52533799 0.52415097
1.7853 -0.53868198 0.52002895
1.67453 -0.63310796 0.47662598
1.8083999 -0.47743303 0.522928
1.8073801 -0.506531 0.51991999
1.7963699 -0.52424002 0.516882
1.78939 -0.53660798 0.51269293
1.8099 -0.49112099 0.51435095
1.81153 -0.50493199 0.51244795
1.8011 -0.52060395 0.50902694
1.81178 -0.49290198 0.50646996
1.80795 -0.50646001 0.50327092
1.79677 -0.52021903 0.49845794
1.69741 -0.632976 0.45687094
1.8173801 -0.476026 0.50065595
1.81224 -0.50367701 0.49601796
1.6895399 -0.62393302 0.44768897
1.81516 -0.477299 0.49180397
1.8148599 -0.491447 0.49025497
1.7318699 -0.41408798 0.46086198
1.73787 -0.413046 0.45385396
1.74195 -0.41252202 0.44541797
1.82075 -0.47484699 0.46688199
1.8209599 -0.48663399 0.46647495
1.7402201 -0.41271302 0.43470898
1.73883 -0.41284302 0.42481896
1.64547 -0.34259102 0.98935509
1.64694 -0.351908 0.98979867
1.65622 -0.45182899 0.98929906
1.6651601 -0.460637 0.9898932
1.64439 -0.34252203 0.98253304
1.64928 -0.35036701 0.98256415
1.6644901 -0.45080003 0.98172158
1.67994 -0.45976698 0.98314422
1.6861501 -0.47276101 0.98195463
1.6991 -0.484575 0.98295045
1.69628 -0.49939498 0.98299444
1.70304 -0.51253104 0.98182482
1.69559 -0.52827299 0.98199892
1.6498599 -0.34071898 0.97622484
1.66333 -0.45102 0.97324228
1.6801699 -0.459095 0.9744758
1.6887699 -0.47056499 0.97379011
1.69564 -0.484451 0.97496879
1.6988699 -0.50089598 0.9737584
1.67384 -0.449339 0.96555078
1.68533 -0.45971403 0.96614045
1.69304 -0.47237098 0.96701539
1.70259 -0.48554799 0.96607995
1.7082801 -0.49961799 0.96587157
1.6661 -0.44976002 0.95694679
1.67864 -0.45792598 0.95752877
1.6976601 -0.47026902 0.95825547
1.7029099 -0.485448 0.95768267
1.70673 -0.49839601 0.95842934
1.70997 -0.51174402 0.95875436
1.64417 -0.37649301 0.94316918
1.6666901 -0.449893 0.94961667
1.68448 -0.45797902 0.94963801
1.70388 -0.46858001 0.94919908
1.70876 -0.482831 0.95054787
1.70819 -0.49764597 0.95082474
1.7119701 -0.50944102 0.95175475
1.7063099 -0.52274299 0.95035064
1.69054 -0.35727799 0.93869513
1.64582 -0.37588298 0.9380452
1.65768 -0.384022 0.93840545
1.6653199 -0.39343497 0.93769026
1.67642 -0.44882199 0.94190305
1.6894299 -0.45769101 0.94125742
1.7035401 -0.46862099 0.94099152
1.7112601 -0.481484 0.94241607
1.70916 -0.49725398 0.94285905
1.71022 -0.51056498 0.94388217
1.7111 -0.52117997 0.94158423
1.68901 -0.356637 0.93253142
1.6730901 -0.37135899 0.93335187
1.6686 -0.38432202 0.93306303
1.67038 -0.39509401 0.93128228
1.6796601 -0.44636199 0.93189073
1.69722 -0.45755199 0.93385786
1.7066499 -0.46802601 0.93466985
1.7092 -0.47978401 0.93456686
1.7162499 -0.494351 0.9344573
1.71339 -0.51008302 0.93555719
1.69388 -0.354837 0.92625135
1.6851401 -0.36834201 0.92603803
1.6759801 -0.38459301 0.92579681
1.67215 -0.39849201 0.92380303
1.6637399 -0.43292198 0.92204916
1.67597 -0.44325101 0.92303431
1.6809399 -0.45714 0.92389655
1.70239 -0.46901101 0.92748541
1.72084 -0.47998402 0.92774737
1.7241299 -0.49296397 0.92675507
1.71463 -0.50994998 0.92603087
1.69576 -0.354397 0.9202463
1.7006301 -0.36508098 0.91913414
1.69291 -0.380914 0.91871673
1.6889399 -0.39686403 0.91811514
1.6927 -0.41177899 0.91854048
1.6880499 -0.42811599 0.91695809
1.67405 -0.44483602 0.91611892
1.7130001 -0.46956298 0.91991675
1.7218 -0.48143002 0.92033327
1.71798 -0.49541801 0.91865027
1.72039 -0.50974101 0.91710401
1.70144 -0.35557202 0.91274154
1.71252 -0.36551997 0.91161668
1.71071 -0.37717399 0.91269577
1.7162801 -0.39138401 0.91227281
1.7053 -0.40875098 0.91173816
1.71752 -0.41857898 0.91219115
1.66343 -0.44723302 0.90694147
1.71724 -0.46942198 0.91153085
1.71909 -0.48052502 0.91184145
1.7226501 -0.49460098 0.91063118
1.7286301 -0.50838399 0.90966904
1.72034 -0.52281499 0.90990347
1.7011501 -0.357528 0.90448397
1.72109 -0.365134 0.90483689
1.72194 -0.37766102 0.90576065
1.72831 -0.39001998 0.90602094
1.72001 -0.40385699 0.9049437
1.71183 -0.41840401 0.9035846
1.6617501 -0.44859901 0.89806944
1.71582 -0.468768 0.90309805
1.7202901 -0.48085099 0.90304464
1.7290699 -0.49432001 0.90260935
1.73303 -0.50794297 0.90273279
1.7363901 -0.51907003 0.90422446
1.7272501 -0.53129202 0.90280187
1.7259599 -0.364436 0.89890838
1.7238699 -0.37551898 0.8979485
1.7284199 -0.38956001 0.89938575
1.70532 -0.41062698 0.89568621
1.69864 -0.42621499 0.89326286
1.67542 -0.44594601 0.8908537
1.7148499 -0.46883401 0.89553106
1.7217101 -0.48107898 0.89452684
1.73481 -0.49198699 0.89581817
1.73066 -0.50574297 0.89533406
1.7375101 -0.51833498 0.89642996
1.72009 -0.53256303 0.89374137
1.7123801 -0.37840098 0.88937616
1.6612601 -0.42401099 0.87996751
1.68634 -0.42897201 0.88420874
1.69043 -0.44028199 0.88503104
1.7136799 -0.46676299 0.88757873
1.72474 -0.477972 0.88658923
1.7325599 -0.49278301 0.88755685
1.7309101 -0.50836396 0.88819116
1.7390801 -0.51804501 0.88816857
1.72855 -0.375505 0.88180983
1.6761501 -0.43232 0.87558067
1.69464 -0.44100299 0.87758315
1.71808 -0.464421 0.87918532
1.7321899 -0.47849399 0.87911958
1.7374201 -0.492441 0.87934548
1.73195 -0.50735599 0.87972075
1.7411 -0.37413397 0.87509561
1.71926 -0.38564098 0.87277794
1.70139 -0.43985099 0.87074071
1.70832 -0.45194301 0.87060869
1.7292199 -0.46487001 0.87140161
1.7336 -0.47768298 0.87184519
1.7392399 -0.48926601 0.87220854
1.7384501 -0.50350499 0.87195706
1.73834 -0.36710498 0.86703193
1.7478399 -0.374486 0.86822647
1.7287101 -0.385575 0.86647874
1.70689 -0.43995997 0.86226547
1.7157 -0.45150903 0.86321318
1.73509 -0.465379 0.86372828
1.73715 -0.47821999 0.86466676
1.73321 -0.494582 0.86367667
1.72892 -0.50808799 0.86317366
1.7449001 -0.37699902 0.86062986
1.7385899 -0.38777301 0.85883349
1.6894701 -0.43090197 0.85204256
1.7168601 -0.436129 0.85618764
1.7600501 -0.46323699 0.85954154
1.7419299 -0.476926 0.85683805
1.73829 -0.49187198 0.85601258
1.7319 -0.507581 0.85535967
1.7443299 -0.39021099 0.8511641
1.72718 -0.404551 0.84813827
1.7165401 -0.42162499 0.84819013
1.7416999 -0.477947 0.84949756
1.7452999 -0.48927298 0.84824651
1.74149 -0.50391102 0.84808612
1.73374 -0.51677901 0.84786832
1.7525101 -0.39150399 0.84445143
1.75579 -0.40033299 0.84440947
1.73068 -0.414372 0.84238046
1.7476801 -0.47961798 0.84141737
1.73871 -0.49170399 0.83974236
1.74577 -0.50212896 0.83995092
1.73685 -0.515248 0.84010243
1.7536501 -0.39303398 0.83732343
1.7719799 -0.398779 0.83868605
1.73909 -0.412184 0.83645612
1.75166 -0.47982702 0.83293402
1.7407899 -0.49203202 0.83277893
1.74949 -0.50222403 0.83174598
1.74432 -0.51341301 0.83240998
1.7865199 -0.39765099 0.83383924
1.7864599 -0.405864 0.83188599
1.7564399 -0.47868001 0.82496798
1.7477601 -0.49149701 0.82505494
1.7489901 -0.503075 0.82442695
1.74878 -0.51295698 0.82416499
1.79527 -0.39796901 0.82624197
1.80274 -0.40453601 0.82703996
1.76074 -0.476641 0.81768996
1.75125 -0.48928502 0.81698996
1.75018 -0.50262499 0.81718993
1.74543 -0.514054 0.81562394
1.7965699 -0.399997 0.81770897
1.80647 -0.40581101 0.81985992
1.76177 -0.47614899 0.81071496
1.7552299 -0.48701 0.80952191
1.75508 -0.49974999 0.809322
1.7496099 -0.51347899 0.80781198
1.7972 -0.40081102 0.81055796
1.7980901 -0.40838799 0.81081599
1.8200799 -0.412406 0.81449598
1.7600101 -0.47746602 0.80260599
1.75515 -0.48980302 0.80158895
1.75078 -0.50434798 0.79998094
1.7476699 -0.51658899 0.79814196
1.79387 -0.41044199 0.80330396
1.8067 -0.415452 0.80574799
1.76472 -0.47595403 0.79469597
1.76129 -0.48637599 0.79516393
1.75723 -0.49963298 0.79343498
1.7489101 -0.51568598 0.79050797
1.7353901 -0.52933902 0.78811997
1.78019 -0.41309899 0.79520994
1.80585 -0.41686198 0.79968995
1.7766099 -0.47342399 0.789518
1.7518201 -0.488121 0.78538597
1.75345 -0.5018 0.78421801
1.7543499 -0.51500803 0.78320199
1.7433299 -0.52765596 0.78165698
1.7730701 -0.47448003 0.78204799
1.75395 -0.48908198 0.77717894
1.7549499 -0.50296396 0.77578092
1.75229 -0.51681101 0.77602696
1.7402999 -0.52868003 0.77324599
1.68129 -0.58005297 0.75694001
1.6961 -0.59049398 0.75903201
1.7652699 -0.47652099 0.77264893
1.7575999 -0.488242 0.76944298
1.76048 -0.49961898 0.768453
1.75207 -0.51594102 0.76697803
1.68554 -0.56634104 0.75218499
1.6974499 -0.576473 0.75399894
1.7005401 -0.58902001 0.75452304
1.76229 -0.47724801 0.76370096
1.75862 -0.488195 0.76151693
1.7547001 -0.502276 0.75975692
1.75141 -0.51791501 0.757231
1.70435 -0.56008399 0.74898499
1.70555 -0.573125 0.74857795
1.69996 -0.58850104 0.74707794
1.76429 -0.47775599 0.75509697
1.7527901 -0.49075401 0.75281096
1.7553999 -0.50336099 0.75125396
1.7604899 -0.51663101 0.75098395
1.72103 -0.552809 0.74488997
1.70895 -0.57143903 0.74178797
1.76834 -0.47750801 0.74742895
1.75862 -0.489869 0.74560493
1.7605901 -0.501131 0.74494493
1.7605001 -0.51382101 0.74413598
1.74668 -0.53158998 0.74035192
1.7308201 -0.55098099 0.73891902
1.69829 -0.57729197 0.73217797
1.7933501 -0.46911299 0.74020195
1.7582 -0.48874298 0.73690695
1.76052 -0.50173301 0.73741996
1.75683 -0.51686502 0.73594797
1.7542599 -0.529172 0.73345894
1.7422 -0.54355001 0.73093897
1.8063699 -0.36741501 0.73922998
1.7885499 -0.38077 0.734927
1.78311 -0.421763 0.73148596
1.79713 -0.46900001 0.735587
1.77692 -0.48265401 0.73171097
1.7692399 -0.49736401 0.73042893
1.7592701 -0.515288 0.72814298
1.74777 -0.53198004 0.72436494
1.74606 -0.542916 0.72248197
1.8165401 -0.36311501 0.73560494
1.8041701 -0.37730899 0.73332399
1.80436 -0.38966203 0.73137397
1.7708501 -0.414875 0.72404891
1.786 -0.42038301 0.72656602
1.7951801 -0.47059 0.72857594
1.7769799 -0.48514998 0.72426695
1.7652 -0.50203604 0.72100997
1.7592 -0.51858801 0.71940595
1.74588 -0.53399301 0.71632993
1.7426699 -0.54356599 0.71378595
1.8088499 -0.37649301 0.72695595
1.8000101 -0.39169899 0.72344893
1.7858599 -0.40897098 0.72029197
1.7947301 -0.418401 0.72182101
1.79849 -0.47101399 0.72148597
1.77987 -0.483311 0.71757799
1.7728101 -0.49712601 0.71470696
1.76442 -0.513978 0.71175796
1.74965 -0.53126901 0.70956695
1.73874 -0.54299402 0.70573699
1.8135201 -0.36383802 0.72078598
1.80671 -0.37878501 0.71860296
1.79439 -0.394205 0.71488798
1.7859 -0.408191 0.71206892
1.78236 -0.420634 0.71151793
1.7769501 -0.48632598 0.70848495
1.76608 -0.50171798 0.704871
1.7682899 -0.51353002 0.704647
1.7569001 -0.52711499 0.70240194
1.80964 -0.36635 0.71358091
1.7947301 -0.38115102 0.70796496
1.78859 -0.39503601 0.70580792
1.77956 -0.40999499 0.70409197
1.7678701 -0.424072 0.70233399
1.7876199 -0.429759 0.70664895
1.7730299 -0.48875302 0.69779694
1.7742599 -0.49840802 0.69923896
1.76674 -0.51346999 0.69631898
1.7555499 -0.52675498 0.69355094
1.7565401 -0.36620602 0.69043899
1.7623801 -0.37484902 0.69255394
1.76987 -0.38457501 0.69413596
1.7724099 -0.39672798 0.69391394
1.72246 -0.42552298 0.67806196
1.7728599 -0.48884299 0.68900597
1.77493 -0.49971199 0.69042593
1.76736 -0.51413399 0.687549
1.76243 -0.52482897 0.68731397
1.76328 -0.37507802 0.68576401
1.7530701 -0.38838002 0.68124598
1.74194 -0.40278098 0.67777997
1.70235 -0.42749199 0.66806102
1.7239599 -0.43366599 0.67217302
1.7733901 -0.48733798 0.68169194
1.77319 -0.497933 0.68081194
1.77853 -0.51069301 0.68213999
1.7580099 -0.52605999 0.67792594
1.7510201 -0.37820202 0.67372894
1.75396 -0.38839599 0.67291594
1.75261 -0.401389 0.67259896
1.72589 -0.42088902 0.66667694
1.7246001 -0.43382999 0.6654669
1.7734599 -0.48533198 0.67379999
1.77429 -0.496261 0.67266798
1.77993 -0.50953996 0.67333895
1.76882 -0.52477199 0.67108995
1.73728 -0.38099602 0.66272599
1.7613901 -0.38630903 0.66823596
1.75357 -0.39980701 0.66465098
1.73649 -0.41752398 0.66053301
1.77487 -0.48334399 0.66619599
1.7837399 -0.495415 0.66722089
1.78956 -0.50858599 0.66677797
1.7743499 -0.52467602 0.66376299
1.7603199 -0.53794897 0.659971
1.7542399 -0.38990799 0.65928102
1.7536501 -0.40094399 0.65734792
1.74902 -0.413535 0.65522093
1.73008 -0.43282399 0.64967501
1.77985 -0.48257402 0.65916795
1.78907 -0.49532101 0.66036898
1.7914 -0.50873202 0.65905792
1.7910401 -0.52096295 0.66016096
1.7893 -0.53202897 0.65901494
1.7528501 -0.40344799 0.650235
1.7416 -0.41776901 0.64514595
1.7358099 -0.43083301 0.64204699
1.78262 -0.48400101 0.65175599
1.79347 -0.49544498 0.65388089
1.7904401 -0.50896704 0.65052295
1.7924299 -0.52206099 0.65223694
1.7931 -0.53227597 0.65189391
1.74579 -0.40777001 0.63955599
1.73771 -0.41964802 0.63622892
1.77912 -0.48140299 0.64325392
1.79153 -0.493274 0.645401
1.7961999 -0.50685501 0.64354491
1.79644 -0.52057201 0.64444596
1.7976601 -0.53105402 0.64567792
1.7146201 -0.40970403 0.61955994
1.7248801 -0.420389 0.62389493
1.78338 -0.480084 0.63608992
1.7922901 -0.49349603 0.63652593
1.80759 -0.50397199 0.63869196
1.8105 -0.51654702 0.63927293
1.8103399 -0.52708697 0.64050192
1.7338201 -0.394943 0.61626399
1.72884 -0.40673402 0.61588997
1.7243401 -0.421121 0.61397696
1.78617 -0.48143199 0.62774897
1.79908 -0.49380198 0.62941694
1.81199 -0.50592101 0.63259196
1.81696 -0.516352 0.63363194
1.81127 -0.52674401 0.63151193
1.7334399 -0.39473 0.60937595
1.729 -0.40727001 0.60798895
1.7226199 -0.420531 0.60551798
1.79216 -0.48188701 0.62085396
1.8021899 -0.49238098 0.62251896
1.80381 -0.50503397 0.62208998
1.8169701 -0.51581198 0.62643695
1.8000901 -0.52945 0.61920595
1.7176199 -0.57335603 0.59214693
1.70959 -0.58536899 0.58904195
1.7357299 -0.393462 0.60289294
1.7339301 -0.40396199 0.60162699
1.7264301 -0.41970599 0.59840196
1.7892101 -0.47927102 0.61265296
1.79737 -0.49263802 0.61334592
1.7996401 -0.5061 0.61338097
1.8058901 -0.51735997 0.61458397
1.78539 -0.53395402 0.60636795
1.71895 -0.57104802 0.58647698
1.7138699 -0.58399099 0.58385998
1.6895599 -0.60492802 0.57703596
1.79027 -0.354249 0.60494995
1.73627 -0.39448798 0.59665293
1.73708 -0.40670699 0.59447098
1.73276 -0.42026401 0.59131694
1.7908299 -0.47857702 0.60429996
1.7908599 -0.494537 0.60185796
1.79822 -0.50691897 0.60563493
1.78624 -0.52366197 0.60042095
1.75793 -0.54480898 0.59126794
1.72238 -0.56926203 0.57994592
1.70916 -0.58819801 0.57431597
1.69042 -0.60921401 0.56893098
1.80827 -0.33586201 0.60518998
1.81099 -0.349222 0.60560495
1.80861 -0.36210799 0.604168
1.8044901 -0.37720501 0.60152996
1.79028 -0.39532799 0.59677297
1.7634101 -0.414022 0.59165293
1.79041 -0.480755 0.59447598
1.79138 -0.49489602 0.59369594
1.7909199 -0.50926101 0.59449792
1.77563 -0.527246 0.58983696
1.75451 -0.54392898 0.58316594
1.70986 -0.57707298 0.56724095
1.71277 -0.58682501 0.56743097
1.7126199 -0.59919 0.56593496
1.67854 -0.62661099 0.55761296
1.6842901 -0.63424802 0.55744898
1.8119701 -0.335935 0.59968096
1.8155299 -0.35033599 0.600945
1.80668 -0.365453 0.59657097
1.80145 -0.38125402 0.59434199
1.7972 -0.395208 0.59218997
1.79377 -0.40823799 0.59181899
1.7749699 -0.42541099 0.58730495
1.78505 -0.436506 0.58759296
1.79619 -0.47860402 0.58844995
1.79194 -0.50609297 0.58610094
1.7835499 -0.52151299 0.58367598
1.7207201 -0.574431 0.56082398
1.7151899 -0.58655703 0.56026399
1.71995 -0.59818804 0.55874693
1.70741 -0.61443001 0.55676496
1.8166499 -0.33457199 0.59265798
1.81313 -0.34999901 0.59144896
1.81415 -0.36417401 0.59073597
1.8122799 -0.37677699 0.59085196
1.8029801 -0.39156201 0.58655298
1.79896 -0.40581599 0.58593297
1.78953 -0.421763 0.58246797
1.7808501 -0.43884999 0.57830298
1.78633 -0.45309299 0.57847297
1.7908599 -0.46596801 0.57931596
1.7944901 -0.49497798 0.57915896
1.7890401 -0.50909102 0.57751393
1.7805499 -0.52161902 0.57276797
1.73657 -0.55298102 0.55490196
1.7238001 -0.57066602 0.55247897
1.72095 -0.58541 0.55262899
1.72767 -0.59626502 0.55308294
1.7182201 -0.60929602 0.54948497
1.81942 -0.33611301 0.58544099
1.8223801 -0.34803298 0.58644396
1.81951 -0.360636 0.58540994
1.81252 -0.376396 0.58313197
1.8052901 -0.39124599 0.57947898
1.8000301 -0.40639499 0.57788694
1.7862601 -0.42529598 0.57177699
1.78364 -0.44005901 0.57114798
1.78719 -0.45162401 0.57030493
1.7982001 -0.49168301 0.57142597
1.7923599 -0.508003 0.57028699
1.73875 -0.55133802 0.54926896
1.7287101 -0.56722802 0.54630494
1.7248199 -0.58174402 0.54565793
1.7257401 -0.59576601 0.54468596
1.7225101 -0.60785002 0.541192
1.8282601 -0.334169 0.58071297
1.8168601 -0.34787899 0.57815295
1.81274 -0.364737 0.57755297
1.80138 -0.38117698 0.57343495
1.80256 -0.39513803 0.57259494
1.7709199 -0.41549098 0.55971897
1.7717799 -0.428377 0.55843395
1.7852401 -0.43968299 0.56303096
1.79843 -0.46453801 0.56542498
1.79917 -0.47800401 0.56446296
1.79989 -0.49187601 0.56394994
1.79673 -0.50663698 0.56243396
1.75019 -0.54630101 0.54575998
1.7372 -0.56305301 0.54187495
1.72857 -0.581222 0.53883195
1.7230901 -0.59808499 0.53577495
1.7252699 -0.60737002 0.53527594
1.80005 -0.49281299 0.55574793
1.76078 -0.542283 0.54145694
1.74239 -0.55971998 0.53625894
1.7131101 -0.59994799 0.52694494
1.8092799 -0.33067903 0.55937594
1.80584 -0.488994 0.54850894
1.8017501 -0.50510299 0.54605395
1.76932 -0.53938597 0.53653497
1.80407 -0.47866401 0.54043394
1.8056101 -0.49304402 0.53999299
1.80401 -0.50545198 0.53875494
1.80081 -0.51777899 0.53690892
1.78459 -0.53355402 0.53119093
1.80884 -0.48938701 0.53226197
1.8060499 -0.50566101 0.53150898
1.8001801 -0.52053297 0.52809596
1.7904899 -0.53274798 0.52410096
1.8085699 -0.47522801 0.52501798
1.80864 -0.48933399 0.52290297
1.8125399 -0.50143701 0.52538198
1.80444 -0.51667303 0.52138597
1.7951801 -0.53035998 0.51712298
1.80967 -0.47611099 0.51681995
1.8111501 -0.48826501 0.51584494
1.81172 -0.50193805 0.51629794
1.80185 -0.51784301 0.51167399
1.7931501 -0.52982599 0.50788695
1.81139 -0.47676498 0.50985694
1.8147 -0.48850602 0.50950098
1.7390199 -0.42146701 0.46351796
1.74212 -0.42175302 0.45477295
1.74134 -0.42081001 0.44542396
1.8257401 -0.469684 0.47376698
1.8200799 -0.45848998 0.46563798
1.63862 -0.44610801 0.98948717
1.6473801 -0.456072 0.98887706
1.67285 -0.46688598 0.98978233
1.64073 -0.44585201 0.98044896
1.65342 -0.45596299 0.98155451
1.67558 -0.466185 0.98193145
1.68827 -0.47944 0.98207879
1.69401 -0.49237901 0.98186868
1.69656 -0.50621599 0.98261118
1.6339101 -0.44549999 0.97171158
1.6532401 -0.45442501 0.97317123
1.67939 -0.46589199 0.97387677
1.6948301 -0.48001599 0.97413141
1.69621 -0.494432 0.97541982
1.7000799 -0.52251703 0.97334403
1.6647501 -0.37410301 0.96080309
1.6366099 -0.44533297 0.96442705
1.66422 -0.45383599 0.96513504
1.68827 -0.46549302 0.9660235
1.69768 -0.47900701 0.96570295
1.69986 -0.493635 0.96803939
1.7059 -0.50780398 0.96645319
1.69381 -0.36161098 0.95913184
1.6664 -0.375664 0.95484543
1.6423801 -0.445757 0.95617425
1.67433 -0.453821 0.95703596
1.6950999 -0.46560502 0.95892286
1.70518 -0.47791302 0.9579789
1.7052499 -0.49243599 0.96002191
1.70955 -0.505678 0.95877004
1.68704 -0.353044 0.9527269
1.66388 -0.37806198 0.94790542
1.6424 -0.38895303 0.94629347
1.6650101 -0.44278598 0.94848418
1.6730701 -0.452474 0.94911855
1.69548 -0.46334499 0.95080107
1.70769 -0.47709802 0.94985467
1.70638 -0.49284199 0.95138687
1.70476 -0.52036399 0.95011991
1.68116 -0.36325002 0.94134659
1.66693 -0.37676603 0.94130546
1.66556 -0.38927799 0.94010383
1.66453 -0.43946499 0.93913162
1.67037 -0.45215598 0.94095987
1.7052901 -0.46403301 0.94262183
1.7087801 -0.47682899 0.94285119
1.71213 -0.48937598 0.9434253
1.70935 -0.50592703 0.94319242
1.69179 -0.351174 0.93588507
1.6931599 -0.361166 0.93466461
1.6709801 -0.37757802 0.9332763
1.6761301 -0.390654 0.93336076
1.6760601 -0.40335202 0.93243307
1.6893699 -0.42176998 0.93336517
1.67117 -0.43973202 0.93237358
1.6833999 -0.45336601 0.93337899
1.69998 -0.46460301 0.93465865
1.71058 -0.47692698 0.93556494
1.7109599 -0.49225798 0.93584287
1.7129401 -0.50468802 0.93415397
1.71213 -0.51601499 0.93608528
1.69609 -0.350923 0.92893386
1.6992301 -0.36226398 0.92736304
1.65599 -0.381908 0.92597252
1.67744 -0.39099899 0.92638665
1.69839 -0.40331101 0.92707855
1.7425301 -0.41070202 0.92669404
1.6657001 -0.43928701 0.92444348
1.66817 -0.451877 0.92345065
1.6981 -0.464513 0.92693412
1.7171 -0.47586 0.92834753
1.7140499 -0.49022099 0.92771041
1.71813 -0.50413203 0.92617303
1.71592 -0.51453 0.92800355
1.7032001 -0.35224399 0.921368
1.7071201 -0.36290199 0.91957927
1.69366 -0.37622899 0.91982859
1.70302 -0.39009899 0.92013258
1.7212601 -0.40257901 0.92041808
1.7348199 -0.412229 0.92049825
1.6722 -0.44079798 0.91629416
1.65862 -0.45123401 0.91463745
1.6995 -0.46152601 0.91861719
1.7102499 -0.47574401 0.91984993
1.7204 -0.49061501 0.9190774
1.72575 -0.50363201 0.91920912
1.72114 -0.51395398 0.9202981
1.70927 -0.35357702 0.91343093
1.72044 -0.36319402 0.91338801
1.7182001 -0.37530801 0.9146111
1.7321299 -0.38946602 0.91430646
1.72931 -0.40342 0.91395652
1.7347 -0.41247898 0.91416085
1.6687399 -0.44115102 0.90769869
1.67601 -0.450867 0.90857643
1.70364 -0.46291697 0.91072714
1.7177299 -0.476349 0.91181558
1.7214 -0.48881999 0.9110983
1.72791 -0.50117296 0.91207856
1.7242399 -0.513044 0.91181737
1.72989 -0.36291599 0.90710068
1.72772 -0.37473899 0.90751594
1.73169 -0.387977 0.90578997
1.73746 -0.40079898 0.90765977
1.72394 -0.413717 0.90578705
1.67977 -0.43895698 0.90040243
1.68022 -0.45210999 0.89972466
1.7129899 -0.46414798 0.9035818
1.72177 -0.47709203 0.90479338
1.72905 -0.48960301 0.90419114
1.7288001 -0.50315899 0.90489507
1.7371401 -0.51196498 0.90430284
1.72457 -0.364034 0.89827257
1.73001 -0.373961 0.89926285
1.7295101 -0.38667598 0.89871567
1.72567 -0.40366 0.89890999
1.7048 -0.42200401 0.89535469
1.68464 -0.43879199 0.89270669
1.6779 -0.45111999 0.89177436
1.70781 -0.461088 0.89495277
1.72416 -0.47518003 0.89686674
1.73651 -0.48741901 0.89684457
1.7379601 -0.50143301 0.89723814
1.72807 -0.51332098 0.89606667
1.72588 -0.36453602 0.89037669
1.73338 -0.373615 0.89191169
1.7114799 -0.421186 0.88797957
1.69444 -0.43500501 0.88588256
1.68396 -0.44941199 0.88489908
1.7219701 -0.46399799 0.88837057
1.73149 -0.47679001 0.88919073
1.74123 -0.48910999 0.89033616
1.73694 -0.50169599 0.88822317
1.74025 -0.51129001 0.89032096
1.7059101 -0.42381099 0.87847298
1.70407 -0.43273103 0.87948006
1.6906301 -0.44644001 0.87727457
1.71187 -0.45937198 0.87918437
1.7308099 -0.47272998 0.88094443
1.73877 -0.487914 0.88143975
1.7394201 -0.50141996 0.88061315
1.7394099 -0.51125002 0.88200134
1.7489101 -0.37292701 0.87612826
1.7307 -0.381944 0.87435359
1.68398 -0.42729101 0.86873984
1.69813 -0.43514702 0.87128454
1.69813 -0.44812801 0.86996466
1.71786 -0.46055499 0.87154609
1.73508 -0.474406 0.87290186
1.7324699 -0.48812401 0.87307662
1.7452999 -0.49835399 0.87432265
1.7376199 -0.51071298 0.87286568
1.7253799 -0.365518 0.86802077
1.74841 -0.37341201 0.86921644
1.75009 -0.381387 0.8697471
1.6945 -0.437567 0.86311221
1.7135299 -0.44812801 0.86356473
1.7250199 -0.461124 0.86400586
1.73798 -0.47416198 0.86468035
1.7359599 -0.48777699 0.86651182
1.74324 -0.49974999 0.86620665
1.7371299 -0.511114 0.86364627
1.75868 -0.37446401 0.86220342
1.75334 -0.38245097 0.86159265
1.70847 -0.438402 0.85590208
1.71701 -0.44909099 0.85500616
1.7341701 -0.461997 0.8569572
1.74185 -0.474996 0.85756028
1.7461901 -0.48711899 0.85986215
1.7341901 -0.50199199 0.85665125
1.73364 -0.513246 0.85481447
1.7547901 -0.37595201 0.85391104
1.7530299 -0.382994 0.85369772
1.71683 -0.43868598 0.84777915
1.71839 -0.447909 0.84746051
1.7276601 -0.45983899 0.84792113
1.74035 -0.473391 0.85004538
1.74271 -0.48831201 0.85072714
1.73674 -0.50406396 0.84853762
1.7413499 -0.515306 0.84769666
1.7304801 -0.37751302 0.84400678
1.74621 -0.384179 0.84644133
1.73994 -0.43716499 0.84289271
1.72492 -0.44827202 0.84087378
1.7276801 -0.46066397 0.83985597
1.7376 -0.47252202 0.84163207
1.74184 -0.48549899 0.84285635
1.7457401 -0.49958697 0.84174585
1.737 -0.51600301 0.84000087
1.7310699 -0.38500702 0.83874762
1.7372099 -0.44720501 0.83444136
1.73166 -0.45820901 0.83389944
1.73367 -0.47095403 0.83322448
1.74561 -0.484842 0.83484721
1.74788 -0.498853 0.83367288
1.74675 -0.51249802 0.83373809
1.74717 -0.44755 0.82762396
1.73146 -0.45931199 0.82566696
1.7421401 -0.47250703 0.82628995
1.74868 -0.48757401 0.82616591
1.75238 -0.501158 0.82763791
1.74198 -0.516119 0.824983
1.7305701 -0.450955 0.81697297
1.73805 -0.461245 0.81863195
1.7484801 -0.473259 0.81845695
1.75115 -0.48694599 0.81819695
1.74707 -0.50197601 0.81861395
1.7405499 -0.51805502 0.81644094
1.7433701 -0.46076 0.81100494
1.75362 -0.47141302 0.81197095
1.75211 -0.48389301 0.81115198
1.75598 -0.49752101 0.81151396
1.7546201 -0.51218599 0.81104797
1.7322501 -0.52955401 0.806831
1.7372501 -0.45961201 0.80139893
1.7458099 -0.472765 0.80306101
1.7553799 -0.486996 0.80380797
1.75591 -0.50122702 0.80352896
1.74674 -0.51668596 0.80149299
1.72155 -0.54323399 0.796673
1.739 -0.47016498 0.79345995
1.74642 -0.485569 0.79378098
1.75895 -0.49785802 0.79688096
1.74868 -0.51268297 0.79407394
1.7372999 -0.528503 0.79151797
1.7284801 -0.45994598 0.78413194
1.7422999 -0.472985 0.78499395
1.74428 -0.487275 0.78500003
1.75569 -0.49884498 0.78853697
1.7461901 -0.51546401 0.78501201
1.72657 -0.54219502 0.78016591
1.7494 -0.471811 0.77903396
1.7469001 -0.48418 0.77806902
1.7508999 -0.49933201 0.77876997
1.7494701 -0.51438498 0.77663696
1.73778 -0.530074 0.77598691
1.7428 -0.472431 0.77101701
1.7502 -0.48644799 0.77048093
1.75212 -0.50093496 0.77106094
1.75306 -0.51265097 0.76970094
1.74117 -0.528642 0.76764494
1.7053599 -0.56228602 0.75793099
1.6869 -0.576343 0.75351596
1.7459199 -0.47217998 0.763322
1.75503 -0.485396 0.76236296
1.75343 -0.49974498 0.76359099
1.7526699 -0.51420397 0.76207596
1.7042799 -0.56427801 0.75146502
1.7000799 -0.57417899 0.74992895
1.74774 -0.47196999 0.75474197
1.75563 -0.49894199 0.75483495
1.75577 -0.51580602 0.75404096
1.70312 -0.56359601 0.74456793
1.6916901 -0.57463199 0.74138796
1.73264 -0.450647 0.74496895
1.75502 -0.483695 0.74753195
1.7587601 -0.49734798 0.74656796
1.7596 -0.51135701 0.74687195
1.74878 -0.52784002 0.74399996
1.7275599 -0.54417402 0.74087691
1.72088 -0.55762202 0.740367
1.75428 -0.471205 0.73959494
1.76115 -0.48499298 0.73940694
1.76402 -0.49972698 0.74010897
1.75578 -0.51510102 0.73808497
1.7535001 -0.52761197 0.73739195
1.74332 -0.53981996 0.73591399
1.80541 -0.35911301 0.7402609
1.78901 -0.37075901 0.736449
1.7531301 -0.461438 0.73273695
1.76082 -0.47150299 0.73223799
1.7657601 -0.48409402 0.73147798
1.76493 -0.49688399 0.7328999
1.76091 -0.51111197 0.73154199
1.75603 -0.525608 0.73055494
1.74507 -0.53722799 0.72777295
1.81415 -0.367383 0.73628592
1.80574 -0.38203898 0.73398298
1.79759 -0.39532501 0.73144096
1.7974899 -0.405314 0.73057395
1.75982 -0.461606 0.72538996
1.77847 -0.470092 0.72702998
1.77951 -0.48319697 0.72662997
1.76354 -0.4984 0.72460198
1.7611799 -0.51275003 0.72431695
1.80704 -0.38060901 0.72708893
1.80213 -0.395399 0.72658491
1.80987 -0.40462503 0.72778296
1.7758701 -0.46013901 0.71952599
1.7855201 -0.46836299 0.7211659
1.77924 -0.48148 0.71896601
1.7709 -0.49565801 0.71826994
1.76819 -0.50889099 0.71767294
1.81519 -0.36712897 0.72189897
1.80899 -0.38036302 0.71941495
1.8001699 -0.394005 0.71787202
1.7988601 -0.40485001 0.71908194
1.77397 -0.45961201 0.71010596
1.7806799 -0.46940398 0.71243799
1.78332 -0.48243302 0.71167696
1.77119 -0.49662602 0.70986795
1.7725999 -0.507339 0.70939392
1.8050599 -0.36923501 0.711869
1.79681 -0.38327098 0.70931697
1.80319 -0.393998 0.7114079
1.7935699 -0.403568 0.71020293
1.7859199 -0.45787603 0.704611
1.7761199 -0.46807203 0.70379198
1.7775301 -0.48057097 0.7027989
1.78093 -0.49383599 0.70395601
1.7684399 -0.50849801 0.69934297
1.79547 -0.35881302 0.70342499
1.77589 -0.37291899 0.69754595
1.77914 -0.383706 0.69811296
1.77907 -0.39393002 0.69931394
1.7888299 -0.45733699 0.69738799
1.77716 -0.468288 0.69622993
1.77446 -0.48051202 0.69365901
1.7765801 -0.49461499 0.69443893
1.76946 -0.51057899 0.690413
1.7692399 -0.37259302 0.68892294
1.76457 -0.384269 0.68650192
1.79653 -0.45633203 0.69172591
1.7722701 -0.46902001 0.68646193
1.77349 -0.483107 0.68531901
1.7685601 -0.51032197 0.68276495
1.7614999 -0.52430499 0.680628
1.7616099 -0.37588403 0.67834198
1.7573199 -0.38693401 0.67561996
1.74805 -0.39839298 0.67279696
1.7067701 -0.42034 0.65911996
1.77317 -0.45943999 0.67830199
1.77142 -0.47065899 0.67825294
1.7757699 -0.48178902 0.67748201
1.7724099 -0.49703202 0.67674601
1.77051 -0.51172602 0.67620993
1.7623801 -0.52475101 0.67265791
1.7628701 -0.376385 0.67229295
1.75922 -0.38689399 0.66999698
1.7535001 -0.39937302 0.66695803
1.73131 -0.41543201 0.66020799
1.72916 -0.42917198 0.65859395
1.76925 -0.47079799 0.66911197
1.7802401 -0.48389301 0.67100692
1.7721801 -0.49743697 0.66869193
1.77483 -0.51101798 0.66863692
1.7582099 -0.39982301 0.66127497
1.74578 -0.41328603 0.656142
1.72657 -0.42941001 0.65131998
1.77716 -0.48170298 0.66228294
1.78493 -0.49574101 0.66393995
1.78588 -0.50947601 0.66248399
1.7768899 -0.52317101 0.66051793
1.77509 -0.534078 0.66063994
1.75217 -0.40385699 0.65125495
1.74712 -0.41412202 0.64816397
1.73686 -0.42693099 0.64543796
1.79031 -0.49154299 0.65689498
1.79418 -0.505108 0.65729898
1.7947301 -0.518345 0.65681791
1.7928799 -0.52979201 0.656681
1.74397 -0.40637699 0.64089197
1.7417101 -0.416502 0.639516
1.73024 -0.430713 0.63497895
1.78131 -0.48236001 0.64615196
1.7929801 -0.494571 0.64995193
1.79677 -0.50680697 0.65014595
1.81495 -0.516532 0.65521097
1.81862 -0.52625597 0.65674698
1.70952 -0.40838701 0.62019193
1.7272999 -0.41765499 0.62652397
1.73537 -0.42956403 0.62822199
1.7787801 -0.469708 0.63800097
1.78513 -0.48197898 0.63859499
1.79477 -0.49403 0.64207
1.80142 -0.50570202 0.6440289
1.72946 -0.40705699 0.61851394
1.72448 -0.417193 0.61759698
1.72991 -0.42992198 0.61838895
1.7845 -0.47896099 0.63099796
1.7950799 -0.49110198 0.63339096
1.80102 -0.502056 0.63485199
1.7225599 -0.40650299 0.60782999
1.7306501 -0.416982 0.61113894
1.7358 -0.42891702 0.61176795
1.7844501 -0.46815899 0.62326998
1.7943201 -0.48136002 0.62543195
1.80528 -0.492286 0.62801093
1.8054401 -0.50152898 0.62753397
1.7369599 -0.40467799 0.60382396
1.72532 -0.41527998 0.60087895
1.7283701 -0.42859 0.60165399
1.79444 -0.47917199 0.61676896
1.7969501 -0.49171799 0.618276
1.80397 -0.50130099 0.61923194
1.7388999 -0.405339 0.59636599
1.7318801 -0.41716 0.59491497
1.78922 -0.46792498 0.60778797
1.7875999 -0.48110199 0.60623896
1.80171 -0.491202 0.61118299
1.8019501 -0.501127 0.61071497
1.81541 -0.34017101 0.60746098
1.81815 -0.35519299 0.60827595
1.81458 -0.36891499 0.60706294
1.80414 -0.38332 0.60372496
1.77711 -0.400004 0.597395
1.7423301 -0.41660598 0.58879298
1.7912601 -0.47774398 0.59968495
1.7915601 -0.490839 0.59977698
1.80548 -0.499576 0.60442293
1.8084301 -0.32712501 0.59961295
1.8163201 -0.34049702 0.60145593
1.82102 -0.35296798 0.60331994
1.81839 -0.365659 0.60305095
1.81425 -0.378636 0.60089594
1.79612 -0.39485601 0.59476995
1.77914 -0.41096902 0.59046197
1.7652401 -0.42673501 0.58607095
1.78891 -0.46660197 0.59104395
1.79155 -0.480389 0.59181899
1.79334 -0.49101898 0.59296495
1.81559 -0.33759299 0.59433293
1.8229899 -0.35089502 0.59644896
1.82024 -0.36522201 0.59615195
1.81205 -0.38029203 0.59235996
1.8028101 -0.394954 0.588175
1.80207 -0.40740299 0.58953798
1.79344 -0.422537 0.58550394
1.7747 -0.43943501 0.58045095
1.7932 -0.46532601 0.58347595
1.7952 -0.47754201 0.58517194
1.7982001 -0.487764 0.58554596
1.81505 -0.32536 0.58678794
1.82261 -0.340076 0.58814394
1.8219099 -0.35401499 0.58900797
1.81969 -0.36689299 0.58742696
1.80599 -0.38134 0.58209199
1.7980599 -0.39541501 0.57839197
1.80128 -0.40879902 0.58121598
1.79187 -0.42365602 0.57597399
1.7870599 -0.43762699 0.57540095
1.78905 -0.45173499 0.57659799
1.7983501 -0.47659901 0.578273
1.80633 -0.48476601 0.57978594
1.8153 -0.33989602 0.57759398
1.8211099 -0.35350701 0.58109796
1.8162199 -0.36728001 0.57870495
1.80467 -0.38173199 0.57420695
1.7895399 -0.39576301 0.56852996
1.79063 -0.41042197 0.56909394
1.78256 -0.42592499 0.56519997
1.79233 -0.43650299 0.56912297
1.7875 -0.45096001 0.56733495
1.8006599 -0.474455 0.56991994
1.8109399 -0.35361901 0.57109195
1.79019 -0.37066102 0.56469393
1.7807699 -0.38549998 0.56081897
1.76388 -0.40138301 0.55359292
1.7441901 -0.41603002 0.54434699
1.7627699 -0.42685902 0.55105096
1.80045 -0.46346101 0.56176394
1.80179 -0.47296399 0.56074095
1.79983 -0.46288601 0.55380994
1.8108701 -0.47123599 0.55668795
1.8073399 -0.32107103 0.55176294
1.8069099 -0.46164399 0.55019999
1.75209 -0.41587898 0.46406499
1.7556599 -0.41525599 0.45928997
1.82244 -0.49065399 0.45410195
1.57839 -0.492984 0.98835492
1.58959 -0.48123902 0.98979861
1.57455 -0.50434399 0.9820987
1.5822301 -0.49254102 0.98224717
1.58284 -0.48160899 0.9828493
1.5919501 -0.47111598 0.98365068
1.60957 -0.46115398 0.98463845
1.61939 -0.44940603 0.98675764
1.6203799 -0.43893 0.98601389
1.6304699 -0.43146801 0.98751748
1.58701 -0.480106 0.97692108
1.5977401 -0.470938 0.97662294
1.61174 -0.462686 0.97704989
1.6170599 -0.449525 0.97862756
1.61842 -0.437195 0.97951126
1.6354699 -0.43192798 0.98030335
1.65843 -0.35937199 0.98237944
1.65219 -0.34806901 0.98276114
1.5881 -0.47745299 0.96954077
1.61303 -0.46101502 0.97027588
1.62147 -0.45056 0.97194362
1.62166 -0.43831003 0.97218466
1.63475 -0.43137699 0.97365409
1.65657 -0.35934299 0.97667664
1.65465 -0.34998199 0.97684389
1.64654 -0.33784699 0.97612387
1.59254 -0.47784099 0.96218699
1.6225799 -0.45122397 0.96515065
1.62006 -0.43775299 0.96372008
1.6322999 -0.43099099 0.96672684
1.66391 -0.36177298 0.97088259
1.65794 -0.35038102 0.97022414
1.6475 -0.33723098 0.96952665
1.61782 -0.462237 0.95794028
1.62459 -0.44987801 0.95725882
1.6204201 -0.43687001 0.95728582
1.63116 -0.43044603 0.95877451
1.6615199 -0.373 0.96077311
1.65868 -0.36202899 0.96287376
1.6645799 -0.35195598 0.96241927
1.65504 -0.33766401 0.96343666
1.6298399 -0.45148799 0.94960696
1.62774 -0.438218 0.95131379
1.6344 -0.43033201 0.95223051
1.67028 -0.37609199 0.95535231
1.66118 -0.36415601 0.95557398
1.6683201 -0.35269797 0.95521659
1.66311 -0.339607 0.9562971
1.63774 -0.45307598 0.94384027
1.62409 -0.43835399 0.94300562
1.6339 -0.43048698 0.94534063
1.6771801 -0.38940799 0.94696641
1.6686 -0.37720001 0.94807416
1.66679 -0.36428797 0.94910455
1.68204 -0.35485899 0.94918227
1.6264501 -0.449332 0.93649185
1.62392 -0.43731099 0.93648946
1.62954 -0.42979699 0.93695527
1.6716 -0.40121898 0.93845117
1.6721201 -0.38993099 0.94050318
1.6697301 -0.378831 0.94142801
1.6706101 -0.36661899 0.94204199
1.69312 -0.35654998 0.94329536
1.6286 -0.45012102 0.9291755
1.62402 -0.437141 0.93030572
1.6344299 -0.42970902 0.92927277
1.68393 -0.40540799 0.9337883
1.6719 -0.39349201 0.93352097
1.67504 -0.381264 0.93510854
1.68269 -0.36854598 0.93631828
1.6974601 -0.35694501 0.93843859
1.70035 -0.34525901 0.93979746
1.6287601 -0.45069999 0.92182207
1.63235 -0.438667 0.92340249
1.63289 -0.42702302 0.92118406
1.68012 -0.416401 0.92431968
1.67202 -0.40362498 0.92643392
1.6716 -0.39267102 0.92689478
1.6717501 -0.38060001 0.92806226
1.6392701 -0.45467499 0.91510445
1.62985 -0.43796003 0.91536641
1.63992 -0.42740899 0.91495478
1.6498599 -0.41544899 0.91604686
1.67817 -0.40565899 0.91950548
1.69085 -0.395327 0.92094398
