# .PCD v0.7 - Point Cloud Data file format
VERSION 0.7
FIELDS x y z
SIZE 4 4 4
TYPE F F F
COUNT 1 1 1
WIDTH 853
HEIGHT 1
VIEWPOINT 0 0 0 1 0 0 0
POINTS 853
DATA ascii
1.51823 -0.44737801 1.1282159
1.54188 -0.38889301 1.142429
1.53459 -0.42890301 1.131307
1.5432401 -0.43761399 1.1344589
1.5367799 -0.42492402 1.124295
1.5391201 -0.43779498 1.12485
1.5403 -0.39693901 1.149326
1.5492799 -0.39484403 1.145003
1.5946699 -0.46801603 1.266724
1.58758 -0.45871201 1.255855
1.59296 -0.46748298 1.257745
1.59856 -0.45381001 1.19769
1.59338 -0.439603 1.1645
1.5779401 -0.44316003 1.147364
1.5912399 -0.45051998 1.154142
1.5984 -0.44978499 1.1475339
1.60218 -0.45166197 1.1364599
1.61334 -0.46192101 1.140103
1.6013499 -0.45117599 1.1237179
1.61368 -0.45906898 1.1308939
1.61026 -0.448966 1.118832
1.6112399 -0.45995098 1.1178509
1.5810001 -0.44726101 1.315882
1.57821 -0.44680801 1.3049769
1.58173 -0.455906 1.306141
1.56867 -0.44719601 1.2906309
1.57962 -0.45686799 1.2956768
1.58336 -0.45499402 1.288287
1.5872 -0.45788699 1.2794499
1.5863401 -0.46024799 1.267548
1.5896699 -0.45887101 1.258878
1.5933701 -0.45851699 1.250752
1.55337 -0.56700599 1.147082
1.5899899 -0.459645 1.2753
1.5896201 -0.460343 1.266188
1.58904 -0.46149799 1.254452
1.59454 -0.45983398 1.2469659
1.54041 -0.397609 1.1576459
1.53905 -0.409841 1.156148
1.5549999 -0.39531699 1.156095
1.5569501 -0.41090301 1.1550059
1.55654 -0.42434502 1.155413
1.56479 -0.441791 1.1577489
1.56952 -0.41128501 1.1508949
1.5615801 -0.42639101 1.1488349
1.5715899 -0.44217601 1.1515089
1.5683999 -0.41193902 1.1411099
1.5724601 -0.42618999 1.144303
1.57392 -0.44135502 1.1421889
1.56935 -0.42621899 1.1336789
1.56947 -0.44306099 1.131578
1.5029401 -0.48226398 1.154671
1.50111 -0.47234699 1.157557
1.50334 -0.47297201 1.149856
1.48362 -0.473914 1.152191
1.5651699 -0.44750899 1.321713
1.5707401 -0.44740799 1.304605
1.5700301 -0.44693401 1.296299
1.5731399 -0.44632703 1.285828
1.57358 -0.445108 1.27821
1.5886 -0.44089901 1.2739
1.5745101 -0.44369099 1.270404
1.59073 -0.44030997 1.266251
1.57856 -0.44545501 1.2605339
1.5843201 -0.437233 1.2606729
1.5804601 -0.44504601 1.2520239
1.58556 -0.43715301 1.2521329
1.57559 -0.44303799 1.245623
1.58539 -0.43664399 1.243802
1.57844 -0.44228598 1.237074
1.58386 -0.43527499 1.236455
1.5741401 -0.44147 1.2310449
1.5837801 -0.43613499 1.228158
1.58429 -0.446049 1.2178819
1.5701801 -0.43158299 1.2252229
1.57733 -0.44436198 1.2116899
1.56248 -0.44034901 1.2091399
1.52449 -0.5575 1.169367
1.56585 -0.43966702 1.1731299
1.5784199 -0.442817 1.1595769
1.57152 -0.43909499 1.154523
1.5624601 -0.42464298 1.160152
1.5217301 -0.56631899 1.1372559
1.52388 -0.55374002 1.138793
1.55935 -0.443279 1.1499429
1.56076 -0.43131301 1.15169
1.56498 -0.42378899 1.1514629
1.53025 -0.558029 1.129534
1.55574 -0.44506001 1.14218
1.5551699 -0.43070203 1.1454359
1.55685 -0.41940898 1.147135
1.55013 -0.43878898 1.1363499
1.54465 -0.42240798 1.14263
1.5376199 -0.407902 1.147746
1.54737 -0.43684399 1.1289819
1.5498599 -0.425098 1.131156
1.55269 -0.44131699 1.1187379
1.5529 -0.427607 1.1202279
1.5162101 -0.45955503 1.110159
1.484 -0.490098 1.147645
1.489 -0.49333501 1.137376
1.50511 -0.4912 1.1308379
1.5517399 -0.44743198 1.1258149
1.4955701 -0.49659002 1.125378
1.55173 -0.44611698 1.1161599
1.4994999 -0.49903402 1.114316
1.4647701 -0.46432799 1.116729
1.47807 -0.461597 1.1134019
1.4264599 -0.45321998 1.125973
1.44078 -0.45248401 1.121588
1.4543201 -0.45172402 1.116833
1.4444001 -0.45437101 1.11298
1.5812601 -0.44598401 1.1786879
1.5828 -0.44532299 1.1724689
1.59426 -0.44328099 1.1689509
1.5804 -0.44305697 1.166103
1.59137 -0.441046 1.1631399
1.5758799 -0.43858102 1.158788
1.58612 -0.43524897 1.1572529
1.48812 -0.52597803 1.155075
1.56144 -0.430006 1.156682
1.57231 -0.42659801 1.155391
1.57249 -0.41348702 1.157023
1.55653 -0.426759 1.151271
1.55664 -0.41595 1.154304
1.5580601 -0.40123999 1.1563259
1.5497 -0.42195401 1.1464059
1.54819 -0.40841597 1.1491389
1.55202 -0.39535901 1.151992
1.5041701 -0.50818503 1.129127
1.5433 -0.41867 1.138464
1.54453 -0.39254501 1.146127
1.52179 -0.460592 1.1247729
1.54553 -0.43597001 1.1224409
1.5522 -0.42504299 1.124498
1.5054699 -0.49589297 1.1136179
1.51925 -0.47187999 1.1136279
1.55812 -0.432423 1.1111729
1.4600301 -0.47740501 1.114207
1.4642501 -0.46784499 1.115765
1.48211 -0.465103 1.112661
1.40891 -0.466791 1.125441
1.42391 -0.46592498 1.121761
1.43707 -0.46256 1.119348
1.44464 -0.45626998 1.117847
1.4126101 -0.45854101 1.1214299
1.4343201 -0.46175203 1.11334
1.4457401 -0.45612702 1.1104649
1.5891299 -0.460244 1.249355
1.5986099 -0.455452 1.240419
1.59509 -0.45767897 1.232715
1.59996 -0.45685399 1.212018
1.6026601 -0.45494998 1.202531
1.5988001 -0.45552799 1.1948919
1.5985299 -0.45658502 1.187084
1.55538 -0.40333 1.1626079
1.55768 -0.40210497 1.156394
1.5574001 -0.41475898 1.1565169
1.5593201 -0.43008202 1.1560159
1.5615699 -0.41163799 1.1500989
1.5669 -0.42562401 1.1489549
1.56476 -0.410768 1.141142
1.55156 -0.43114603 1.1401279
1.5690401 -0.44327998 1.1414429
1.55242 -0.417505 1.132365
1.55075 -0.43526402 1.1315269
1.57732 -0.44401601 1.1324919
1.5990199 -0.452658 1.130674
1.52525 -0.42877498 1.125198
1.5268201 -0.43970299 1.1245669
1.57893 -0.444765 1.1232089
1.60653 -0.44829601 1.122142
1.50104 -0.44791198 1.118953
1.58132 -0.445654 1.1141139
1.60308 -0.44983399 1.113865
1.59286 -0.45189098 1.189919
1.60291 -0.45932099 1.189502
1.58936 -0.45239201 1.181464
1.59253 -0.45122001 1.1720569
1.6069701 -0.459528 1.1714619
1.60421 -0.458619 1.16371
1.54564 -0.391325 1.155273
1.5519501 -0.406304 1.154106
1.56085 -0.42170799 1.1534539
1.5652299 -0.43845502 1.1532379
1.55696 -0.40461102 1.145636
1.55731 -0.42232701 1.147099
1.56727 -0.436342 1.14499
1.55875 -0.42169702 1.138201
1.55187 -0.44127399 1.1360459
1.60594 -0.45942101 1.136091
1.54185 -0.42708802 1.128786
1.5423199 -0.44451499 1.1279249
1.5160699 -0.435038 1.122491
1.52596 -0.44723201 1.1220239
1.58547 -0.46641499 1.3096299
1.5916901 -0.465864 1.290493
1.59315 -0.46425202 1.2815
1.59293 -0.463992 1.273712
1.59061 -0.46549702 1.2653729
1.59893 -0.46376801 1.2280869
1.6065601 -0.46086702 1.219106
1.6030099 -0.46115398 1.211964
1.60303 -0.462194 1.204196
1.6115601 -0.459544 1.1854349
1.6073599 -0.46124598 1.17659
1.6135499 -0.45668098 1.1659039
1.61584 -0.454355 1.158813
1.5527699 -0.400929 1.1503969
1.5554401 -0.41812 1.150052
1.5735899 -0.43119597 1.1498899
1.6146201 -0.45541999 1.1523269
1.5645399 -0.41535401 1.142975
1.56253 -0.43338403 1.1424379
1.60401 -0.45670199 1.143597
1.56161 -0.41827402 1.1349959
1.55799 -0.43518102 1.133778
1.60843 -0.45832101 1.1342369
1.5509599 -0.42278302 1.1278239
1.53923 -0.43978402 1.124754
1.54765 -0.44796601 1.126529
1.61326 -0.45831403 1.125016
1.5097799 -0.43639198 1.1178479
1.51414 -0.44547799 1.117937
1.54476 -0.44835603 1.1187099
1.61562 -0.45938599 1.116344
1.48752 -0.45154598 1.112286
1.53386 -0.45131302 1.112548
1.59007 -0.46477601 1.278146
1.58964 -0.46404898 1.270054
1.60104 -0.46213698 1.2089009
1.5514901 -0.39798099 1.157264
1.5466901 -0.41580001 1.155452
1.5519 -0.40316501 1.149838
1.56392 -0.41554502 1.1492341
1.55773 -0.43087199 1.1480269
1.5505099 -0.41786802 1.142651
1.5608701 -0.432116 1.140178
1.55853 -0.41766399 1.1335649
1.5602499 -0.43329102 1.132167
1.5351601 -0.42022702 1.1275049
1.53922 -0.43424401 1.1268089
1.54545 -0.445997 1.1265379
1.52213 -0.44808701 1.1210359
1.6128 -0.460466 1.114218
1.6043299 -0.46245602 1.231048
1.59592 -0.46378899 1.2239439
1.5956501 -0.45250499 1.215361
1.5982699 -0.46340698 1.2153139
1.5919299 -0.45120499 1.206322
1.60334 -0.46181703 1.206813
1.5903599 -0.45094299 1.198509
1.6042399 -0.46047401 1.197577
1.5995599 -0.45023799 1.1900719
1.60841 -0.45986402 1.189484
1.60078 -0.44989201 1.1820569
1.60478 -0.460186 1.18178
1.60377 -0.44973901 1.1743549
1.60277 -0.46087399 1.172876
1.55916 -0.39798301 1.1640719
1.6002201 -0.44952598 1.165681
1.6062801 -0.459057 1.163868
1.5603999 -0.40109599 1.15658
1.56329 -0.41492298 1.155371
1.5656101 -0.43185601 1.1551909
1.5894001 -0.44679099 1.1555179
1.6132699 -0.45834202 1.1545759
1.56581 -0.416096 1.148314
1.56785 -0.43131301 1.148313
1.58407 -0.44635701 1.1466379
1.6055299 -0.45824 1.14756
1.56384 -0.41685399 1.1399789
1.57468 -0.43385398 1.139469
1.5808901 -0.44736499 1.139227
1.5557201 -0.41761601 1.132202
1.56422 -0.43173301 1.1312759
1.60807 -0.46128398 1.130172
1.54154 -0.42061198 1.126143
1.53403 -0.43507499 1.1249419
1.55864 -0.44399202 1.124722
1.6095799 -0.46138 1.122208
1.5599099 -0.443371 1.118777
1.57899 -0.44816399 1.264519
1.49757 -0.52251399 1.16685
1.53579 -0.56806397 1.161407
1.59472 -0.43893701 1.11698
1.58673 -0.444444 1.110451
1.59584 -0.43984002 1.112775
1.5681701 -0.43770999 1.1577259
1.5569999 -0.44385397 1.1503789
1.55901 -0.43221402 1.1497589
1.54562 -0.41577399 1.145712
1.55753 -0.44143298 1.143567
1.55295 -0.42703998 1.141889
1.4968699 -0.46417701 1.120845
1.5562301 -0.44353297 1.136586
1.5583099 -0.43162 1.136362
1.48375 -0.467197 1.1132989
1.50351 -0.463424 1.1182029
1.54024 -0.45211497 1.125544
1.55638 -0.44309503 1.1287069
1.5532899 -0.42681199 1.12815
1.50625 -0.48494801 1.11148
1.5092599 -0.475494 1.113308
1.5084599 -0.463938 1.11368
1.5590401 -0.444437 1.121434
1.5632001 -0.43297198 1.1225519
1.56555 -0.41899699 1.123981
1.5862801 -0.41164798 1.128026
1.5697099 -0.44638902 1.1166409
1.5814999 -0.436921 1.118035
1.6058201 -0.435527 1.1211189
1.57781 -0.44724801 1.110341
1.58612 -0.438218 1.1119549
1.5906199 -0.43054599 1.112429
1.48603 -0.49161702 1.1605289
1.48386 -0.481195 1.159951
1.48558 -0.51255697 1.155628
1.4980299 -0.508219 1.158013
1.4998599 -0.51988101 1.1540459
1.4965301 -0.49207699 1.1440469
1.50095 -0.48070201 1.143546
1.42571 -0.484492 1.119486
1.4384599 -0.47850701 1.122327
1.46084 -0.47567001 1.128032
1.4769599 -0.47095403 1.131745
1.5042399 -0.46959901 1.137018
1.40377 -0.48477298 1.1100689
1.4074899 -0.47710499 1.1112299
1.4213699 -0.47349 1.1137459
1.4485 -0.473079 1.1189419
1.46158 -0.46588403 1.121511
1.48558 -0.465074 1.125922
1.5343499 -0.44335702 1.133057
1.46018 -0.475072 1.114236
1.46867 -0.465942 1.116122
1.4944201 -0.46539199 1.119146
1.5419501 -0.44587201 1.128736
1.5489999 -0.436867 1.127679
1.4928399 -0.49008399 1.112564
1.49414 -0.476713 1.1136329
1.50569 -0.46798 1.1144589
1.5354401 -0.45415798 1.120393
1.54322 -0.44496199 1.1216359
1.56145 -0.439805 1.1233479
1.5680499 -0.43259999 1.1235429
1.52144 -0.46302602 1.1102049
1.5365801 -0.453576 1.113582
1.57573 -0.443685 1.1191609
1.58533 -0.43712002 1.119795
1.58167 -0.44452399 1.112816
1.58845 -0.43745098 1.1136299
1.59698 -0.46079201 1.303087
1.59258 -0.46869901 1.275735
1.59549 -0.45567 1.246897
1.58641 -0.44993499 1.237237
1.58666 -0.44903001 1.229419
1.57995 -0.44487599 1.219225
1.58555 -0.447763 1.21227
1.5807 -0.44553199 1.202924
1.5821099 -0.44606999 1.1944299
1.58541 -0.446511 1.1865849
1.5675701 -0.43471 1.1739609
1.54485 -0.40540501 1.166245
1.56461 -0.43162 1.1662359
1.5367399 -0.39924899 1.157428
1.56348 -0.44212899 1.1606349
1.55138 -0.42208999 1.1559269
1.5352499 -0.39984402 1.150048
1.4267501 -0.51442003 1.1269699
1.55871 -0.43698397 1.1527569
1.5438901 -0.416594 1.14746
1.54145 -0.40301701 1.144679
1.54258 -0.38928699 1.1440549
1.4124299 -0.505018 1.1193639
1.42462 -0.50271702 1.1210129
1.4240899 -0.48841801 1.119018
1.4263699 -0.47428 1.118307
1.4577 -0.47862998 1.1235969
1.4511501 -0.46272999 1.1212869
1.40394 -0.490219 1.111186
1.42785 -0.47577098 1.1137249
1.45915 -0.47868198 1.118714
1.4763401 -0.47419301 1.1206239
1.5016701 -0.473616 1.123255
1.43896 -0.47880298 1.110709
1.4730901 -0.482402 1.1154389
1.48631 -0.47772598 1.116653
1.49932 -0.47251302 1.1177449
1.49806 -0.51246297 1.110315
1.50528 -0.48674703 1.1128219
1.5158 -0.47693297 1.113631
1.5916901 -0.44841599 1.218407
1.5834801 -0.44354197 1.210258
1.5749401 -0.44591901 1.1985049
1.5840199 -0.44278499 1.201852
1.57929 -0.43900201 1.191525
1.5777099 -0.446343 1.184731
1.58386 -0.440662 1.184301
1.60341 -0.443602 1.189741
1.57716 -0.445701 1.1763569
1.56155 -0.42489299 1.170259
1.54261 -0.396083 1.1635779
1.5610299 -0.43840501 1.1639869
1.55144 -0.417799 1.160356
1.5430599 -0.39796501 1.157198
1.54931 -0.43232498 1.153227
1.54153 -0.41044998 1.150169
1.5458901 -0.39727798 1.151364
1.5541701 -0.43318 1.145574
1.54819 -0.399268 1.143971
1.41537 -0.49998501 1.117582
1.4182401 -0.49159199 1.1169679
1.4199001 -0.481558 1.11558
1.5510499 -0.44577399 1.138752
1.5556799 -0.43372899 1.137731
1.5489999 -0.41379601 1.13664
1.44109 -0.48090699 1.112494
1.5495399 -0.44476199 1.1320779
1.55548 -0.43566799 1.1315839
1.5679699 -0.42779499 1.131757
1.45552 -0.48812199 1.110122
1.4864501 -0.49480498 1.11271
1.5667999 -0.43979001 1.126214
1.57947 -0.43346101 1.1256039
1.58883 -0.42515901 1.1271809
1.58152 -0.44382098 1.1190979
1.58523 -0.434304 1.11909
1.59948 -0.431986 1.121498
1.5886799 -0.43655998 1.1120909
1.59987 -0.43292901 1.114396
1.5414701 -0.56873602 1.1554101
1.51236 -0.54051703 1.1354649
1.51414 -0.54043597 1.1279819
1.50402 -0.48368302 1.131336
1.5669999 -0.57081902 1.1289459
1.5638601 -0.57268399 1.1210769
1.58644 -0.43214598 1.217181
1.58599 -0.43106499 1.2112939
1.59604 -0.41862702 1.215905
1.57447 -0.436463 1.199917
1.60238 -0.416069 1.212903
1.53327 -0.56094801 1.172317
1.57558 -0.44529498 1.192289
1.58623 -0.43318599 1.1960109
1.5845599 -0.434385 1.188836
1.5045799 -0.54243898 1.1430069
1.48668 -0.53733301 1.138759
1.5671201 -0.44136602 1.168613
1.53991 -0.56826001 1.145182
1.51088 -0.54102302 1.1379369
1.49877 -0.53424197 1.136474
1.52873 -0.558676 1.136209
1.5111901 -0.53948802 1.131436
1.50095 -0.52242202 1.1226729
1.5104201 -0.52786702 1.118552
1.5098701 -0.52444398 1.111259
1.5635099 -0.44175202 1.3069139
1.56327 -0.44273201 1.2992179
1.56861 -0.44076902 1.2926849
1.57433 -0.43890098 1.2879519
1.57101 -0.43984199 1.2801371
1.57772 -0.43910098 1.273682
1.57964 -0.437749 1.265801
1.58355 -0.43638697 1.2604089
1.57933 -0.43775201 1.252491
1.57743 -0.43860501 1.2441009
1.57383 -0.43893799 1.234686
1.5806 -0.436746 1.229198
1.57963 -0.43705601 1.2213809
1.5845101 -0.43562698 1.215307
1.58204 -0.43673098 1.207266
1.58306 -0.43631402 1.19925
1.4956599 -0.521164 1.16423
1.5782499 -0.44505799 1.19048
1.58427 -0.43549198 1.192789
1.49134 -0.54130101 1.155075
1.5036099 -0.53109199 1.1588249
1.58306 -0.43582499 1.186361
1.4995199 -0.53043097 1.151636
1.49757 -0.51010203 1.151909
1.5788901 -0.44550401 1.1785799
1.57235 -0.43884 1.1778569
1.50138 -0.519319 1.146026
1.50211 -0.51670599 1.139236
1.4991701 -0.50870901 1.1374609
1.50003 -0.515728 1.131858
1.5041001 -0.49693 1.132216
1.50315 -0.488372 1.1333939
1.51957 -0.56305301 1.1215839
1.50121 -0.51419801 1.1254719
1.4862399 -0.49190602 1.122579
1.52499 -0.55514401 1.1187739
1.50292 -0.50562102 1.119619
1.501 -0.49785197 1.119077
1.49769 -0.50532901 1.111362
1.54073 -0.41832101 1.1274689
1.5716799 -0.44480401 1.2630249
1.56876 -0.44440401 1.2389439
1.5887399 -0.43180302 1.230348
1.5702001 -0.44101897 1.218184
1.5934501 -0.43012297 1.2251669
1.5974201 -0.43031299 1.219134
1.57295 -0.44204497 1.2045239
1.5938499 -0.43138599 1.2106689
1.57743 -0.44241798 1.1990319
1.5014701 -0.52983397 1.1667789
1.5370899 -0.56507599 1.1668559
1.50192 -0.48633099 1.15026
1.53397 -0.404807 1.153286
1.52899 -0.55961901 1.1386739
1.49422 -0.50846601 1.1318949
1.53591 -0.417142 1.138505
1.4698 -0.45788503 1.1124279
1.49052 -0.44772398 1.117741
1.51677 -0.43296799 1.1255929
1.53429 -0.41881099 1.1310669
1.51565 -0.54663301 1.1158769
1.49793 -0.45460603 1.114597
1.52047 -0.44383702 1.119882
1.53838 -0.43002102 1.12532
1.5433 -0.41691601 1.1281199
1.51034 -0.45313001 1.111668
1.52499 -0.44439098 1.1142259
1.55793 -0.424977 1.12615
1.55188 -0.440723 1.3507119
1.5533 -0.44027001 1.3440689
1.5555201 -0.440299 1.32906
1.55639 -0.44015399 1.3216721
1.55715 -0.44023103 1.314925
1.5595399 -0.44022202 1.308962
1.5564599 -0.44054601 1.300476
1.55756 -0.439432 1.286124
1.55839 -0.43972901 1.2788579
1.55959 -0.44011199 1.2716559
1.55951 -0.439055 1.255206
1.5625701 -0.438288 1.2497519
1.5658001 -0.43868899 1.2443969
1.5650901 -0.43912202 1.2366699
1.5679201 -0.43889001 1.229316
1.56666 -0.43858102 1.2218879
1.5647701 -0.43952 1.2147499
1.50121 -0.48600498 1.1559809
1.50158 -0.515347 1.1469569
1.49228 -0.505907 1.14504
1.4682801 -0.44360802 1.136724
1.48435 -0.43687302 1.140924
1.55779 -0.41747501 1.1614599
1.54898 -0.40953201 1.1593289
1.4596699 -0.44295299 1.1302819
1.47965 -0.437058 1.1350069
1.5538499 -0.41726798 1.155121
1.53961 -0.40837002 1.151103
1.50201 -0.52071303 1.1330889
1.46207 -0.44372299 1.12528
1.4909301 -0.436308 1.1310059
1.5414 -0.41815603 1.1439589
1.4935499 -0.44358003 1.1253129
1.5150501 -0.43249598 1.130091
1.54084 -0.42062402 1.1371109
1.5032401 -0.53175902 1.119413
1.50928 -0.46548697 1.1191189
1.49254 -0.45456901 1.1177659
1.51643 -0.44435799 1.1239079
1.52703 -0.43387601 1.1259849
1.53271 -0.42187899 1.128677
1.5226101 -0.46681198 1.116599
1.5096699 -0.45596299 1.1159279
1.5209399 -0.44471699 1.1183469
1.53974 -0.432823 1.122641
1.5562601 -0.41971198 1.127589
1.51596 -0.45624697 1.110943
1.5362601 -0.44435397 1.115013
1.55042 -0.43369302 1.1178969
1.5855701 -0.41592398 1.130235
1.5479 -0.44453299 1.110474
1.56414 -0.43549302 1.1129199
1.5394299 -0.56665999 1.155923
1.51017 -0.53851801 1.1360739
1.51193 -0.538432 1.128585
1.50166 -0.48170799 1.131981
1.56488 -0.56866699 1.1293789
1.56172 -0.57054001 1.1215199
1.5102699 -0.52566701 1.116215
1.58639 -0.43226799 1.217333
1.58593 -0.43118301 1.211447
1.59598 -0.418742 1.216049
1.5744001 -0.43658102 1.200087
1.6023101 -0.416179 1.213038
1.53321 -0.56107199 1.172473
1.5755 -0.445407 1.1924499
1.5861501 -0.433294 1.1961639
1.58446 -0.43449003 1.188991
1.5044701 -0.54255998 1.1432281
1.4865601 -0.53746104 1.139014
1.5669999 -0.44146702 1.168793
1.53982 -0.56835997 1.1453229
1.5107601 -0.54113603 1.138147
1.4986399 -0.534361 1.1367099
1.52862 -0.55877703 1.1363759
1.51106 -0.53959596 1.131647
1.50079 -0.52252996 1.122913
1.51026 -0.52796698 1.118772
1.5097001 -0.52454001 1.1114819
1.56344 -0.44097501 1.306659
1.5632001 -0.44195098 1.298962
1.5685201 -0.43997502 1.2924249
1.57424 -0.43809301 1.287688
1.57091 -0.43903702 1.279876
1.57761 -0.43827802 1.273415
1.57953 -0.43691799 1.265533
1.5834301 -0.435545 1.2601379
1.5792 -0.43691599 1.252224
1.5773 -0.43776903 1.243835
1.5736799 -0.43810502 1.234423
1.5804601 -0.43589601 1.22893
1.57947 -0.436205 1.221113
1.58435 -0.434762 1.2150359
1.58187 -0.43586898 1.2069969
1.5828799 -0.43544498 1.1989789
1.49563 -0.520464 1.163995
1.5780799 -0.44419497 1.19021
1.5841 -0.434618 1.192518
1.49134 -0.54060602 1.154835
1.50359 -0.53037298 1.158579
1.58287 -0.43494901 1.1860909
1.4994999 -0.52971804 1.151394
1.4975101 -0.50939399 1.151678
1.5787101 -0.44463402 1.178309
1.57216 -0.43798402 1.1775939
1.5013299 -0.51859903 1.145788
1.50205 -0.51598203 1.1389979
1.4991001 -0.50799102 1.137229
1.49997 -0.51500499 1.131622
1.5039999 -0.49619901 1.1319859
1.5030299 -0.487643 1.1331689
1.51959 -0.56228298 1.12131
1.50114 -0.51346898 1.125236
1.48611 -0.491207 1.1223669
1.52499 -0.55436099 1.118499
1.50282 -0.50488496 1.1193849
1.50089 -0.49712101 1.1188489
1.4975901 -0.50459999 1.111133
1.5404601 -0.41750899 1.1272429
1.5733399 -0.444334 1.263795
1.56821 -0.44468102 1.25545
1.57042 -0.443937 1.239715
1.59035 -0.43127701 1.231118
1.57184 -0.440543 1.218954
1.59507 -0.429584 1.225937
1.56824 -0.44306499 1.210654
1.5990199 -0.42976001 1.2199019
1.57459 -0.44155702 1.205294
1.5954601 -0.43083999 1.2114379
1.57907 -0.44191501 1.199801
1.5390601 -0.56467897 1.167603
1.5355 -0.40441599 1.154073
1.5309399 -0.55923802 1.139423
1.49603 -0.50818098 1.132664
1.53746 -0.41674197 1.139287
1.47146 -0.45766601 1.113215
1.4921601 -0.447447 1.118526
1.51837 -0.43261799 1.126377
1.53585 -0.41841301 1.13185
1.51757 -0.54628396 1.116632
1.49959 -0.45430699 1.1153779
1.52211 -0.44347599 1.120663
1.5399699 -0.42960998 1.1261001
1.54485 -0.41649202 1.128901
1.512 -0.45279598 1.112448
1.52662 -0.44401601 1.1150039
1.55951 -0.42451301 1.1269269
1.55162 -0.440947 1.350204
1.5530601 -0.44049498 1.343562
1.5552901 -0.44052801 1.328555
1.55616 -0.44038501 1.3211679
1.5569201 -0.44046399 1.3144209
1.55931 -0.44045699 1.3084599
1.55625 -0.44077998 1.2999719
1.55735 -0.43966901 1.285621
1.55818 -0.43996701 1.278355
1.5594001 -0.44035199 1.2711549
1.55933 -0.43929699 1.254704
1.5624001 -0.43853298 1.249252
1.5656199 -0.43893701 1.2438989
1.5649201 -0.43937099 1.236171
1.56775 -0.439143 1.228819
1.5664901 -0.438833 1.221391
1.56461 -0.439771 1.214252
1.50105 -0.48620498 1.1554439
1.5014 -0.51554799 1.146423
1.49211 -0.5061 1.1445
1.46817 -0.44377899 1.13616
1.4842399 -0.43705899 1.1403699
1.55769 -0.41772598 1.160955
1.54888 -0.40977401 1.1588159
1.4595701 -0.44311699 1.129712
1.47954 -0.43724 1.13445
1.55375 -0.41751498 1.1546119
1.5395199 -0.40860501 1.1505829
1.5018401 -0.52091497 1.132556
1.4619701 -0.44389001 1.124712
1.49084 -0.436501 1.130457
1.54131 -0.418394 1.1434419
1.49345 -0.44377601 1.1247659
1.5149601 -0.43271101 1.129557
1.54075 -0.42086101 1.1365939
1.50306 -0.531964 1.118883
1.50916 -0.465698 1.1185859
1.49244 -0.45476502 1.11722
1.51633 -0.44457501 1.123378
1.52693 -0.43410301 1.12546
1.53262 -0.42210999 1.128155
1.5225 -0.46703601 1.116074
1.50956 -0.456175 1.115393
1.5208501 -0.44493902 1.117819
1.53965 -0.433061 1.122124
1.55618 -0.41996497 1.127082
1.51586 -0.45646501 1.110413
1.53617 -0.44459 1.1144949
1.55033 -0.43394199 1.1173869
1.58549 -0.41620401 1.1297479
1.56405 -0.435756 1.11242
1.57336 -0.440808 1.1743809
1.58369 -0.44320598 1.168398
1.58604 -0.44443801 1.161981
1.58836 -0.44510299 1.1529269
1.58832 -0.44310501 1.1428599
1.5539999 -0.41810298 1.1350549
1.57795 -0.43829799 1.135175
1.52808 -0.573448 1.1361369
1.55225 -0.41549599 1.127504
1.57056 -0.43492198 1.1273599
1.5355201 -0.57618099 1.128904
1.55585 -0.41766602 1.119946
1.5719701 -0.438045 1.118318
1.52529 -0.575544 1.123583
1.5620799 -0.42153999 1.112384
1.57485 -0.43859601 1.111179
1.5253 -0.56305999 1.1716809
1.53782 -0.569556 1.1448159
1.54124 -0.42212799 1.1349609
1.53365 -0.57324797 1.136037
1.56125 -0.43284199 1.1285579
1.5427999 -0.571823 1.128414
1.5527099 -0.42769501 1.12173
1.5523599 -0.57380998 1.119902
1.54537 -0.42210302 1.114038
1.55767 -0.57315999 1.110943
1.53966 -0.56490302 1.1546799
1.5426199 -0.56756502 1.1455619
1.5490601 -0.56905103 1.136579
1.52774 -0.57910597 1.137724
1.55707 -0.419649 1.129629
1.56713 -0.43848097 1.1290269
1.5564799 -0.56899399 1.1274019
1.52789 -0.58005798 1.128248
1.5519099 -0.418982 1.1222819
1.5769099 -0.44437099 1.1200399
1.5497099 -0.57052898 1.119629
1.52914 -0.58024502 1.1194569
1.56032 -0.42281502 1.1123179
1.57732 -0.44708499 1.1109569
1.56748 -0.57243598 1.1108999
1.5507201 -0.417285 1.139074
1.5364701 -0.57527101 1.140209
1.5557001 -0.41947499 1.1322169
1.5353199 -0.57693404 1.131096
1.5516601 -0.41812 1.1242349
1.57481 -0.57035804 1.1196809
1.5423801 -0.57627398 1.1221999
1.56743 -0.430527 1.1143661
1.5760499 -0.57191199 1.110582
1.5459399 -0.57770902 1.112906
1.56121 -0.56977797 1.159652
1.5897 -0.44972098 1.1529729
1.5637801 -0.57176602 1.1498189
1.5591 -0.41509101 1.1417559
1.5590601 -0.57190299 1.1407779
1.54134 -0.58087599 1.141457
1.56209 -0.42012501 1.134071
1.56485 -0.57158798 1.1330349
1.54844 -0.58154303 1.132425
1.57376 -0.43251801 1.1252209
1.5711999 -0.574669 1.1229969
1.5369 -0.58138901 1.12378
1.5721201 -0.42963699 1.1171299
1.57346 -0.57521898 1.112842
1.5455201 -0.58097196 1.1142049
1.5706199 -0.43891299 1.1734411
1.5809599 -0.441284 1.167444
1.58329 -0.442509 1.161024
1.58561 -0.443167 1.151967
1.58555 -0.44116902 1.141902
1.5511501 -0.41625801 1.1341399
1.57516 -0.436389 1.1342289
1.52565 -0.57167196 1.1352479
1.56775 -0.43303299 1.126424
1.53308 -0.57438499 1.128004
1.5529801 -0.415815 1.1190289
1.56915 -0.436151 1.11738
1.52284 -0.57377303 1.1226959
1.55922 -0.41967201 1.111459
1.5720301 -0.43669498 1.110237
1.53716 -0.420232 1.134715
1.5299201 -0.57136899 1.135839
1.55718 -0.43090001 1.1283129
1.53907 -0.56992501 1.128214
1.5486301 -0.42577597 1.1214839
1.54864 -0.57189101 1.1197009
1.54127 -0.42020303 1.113791
1.55393 -0.57123101 1.110742
1.5368299 -0.56348097 1.155494
1.5397999 -0.56612802 1.146374
1.54624 -0.56758803 1.137388
1.5249499 -0.57770801 1.138531
1.5538001 -0.41815701 1.13054
1.56391 -0.436959 1.1299219
1.55365 -0.56750196 1.1282089
1.5251 -0.57865399 1.1290549
1.5486301 -0.417501 1.123194
1.5737 -0.442812 1.120929
1.5468899 -0.56905198 1.1204369
1.5263499 -0.57883096 1.120263
1.5570599 -0.42130101 1.1132259
1.5741299 -0.445519 1.1118439
1.5646601 -0.570898 1.111702
1.5463201 -0.41669998 1.1393139
1.53254 -0.57472801 1.140394
1.5513 -0.418872 1.132453
1.5313801 -0.57638901 1.131281
1.5472599 -0.41752499 1.1244739
1.57084 -0.56969202 1.119839
1.53843 -0.57570398 1.122381
1.5630499 -0.42988202 1.114589
1.5720799 -0.57123899 1.110739
1.54199 -0.57712501 1.113083
1.55913 -0.56830901 1.1604539
1.58742 -0.448203 1.153788
1.5617 -0.570292 1.150623
1.55676 -0.41362599 1.1425639
1.55699 -0.570436 1.14158
1.53929 -0.57944 1.142254
1.55976 -0.41865399 1.134879
1.5627699 -0.57011199 1.1338379
1.54638 -0.58009499 1.1332229
1.57144 -0.43102601 1.1260309
1.5691299 -0.57318199 1.1238019
1.53484 -0.579961 1.124576
1.5697999 -0.428148 1.117939
1.57139 -0.57372797 1.1136479
1.5434599 -0.57952803 1.115003
1.56655 -0.42246699 1.1103179
