# .PCD v0.7 - Point Cloud Data file format
VERSION 0.7
FIELDS x y z
SIZE 4 4 4
TYPE F F F
COUNT 1 1 1
WIDTH 291
HEIGHT 1
VIEWPOINT 0 0 0 1 0 0 0
POINTS 291
DATA ascii
1.3408501 -0.57289904 2.179189
1.3407 -0.57246399 2.168489
1.3357 -0.57362497 2.1599689
1.33847 -0.57657099 2.199949
1.34601 -0.57452703 2.1898088
1.3607601 -0.560036 2.178839
1.34995 -0.57332003 2.178879
1.3584 -0.55923498 2.1702189
1.34332 -0.57466501 2.168319
1.32926 -0.577034 2.1593189
1.35331 -0.56132704 2.2048388
1.3543899 -0.561185 2.195349
1.34206 -0.57530802 2.194339
1.35341 -0.56295401 2.186039
1.3363401 -0.57659197 2.185689
1.22031 -0.54135203 2.3068688
1.21717 -0.53281504 2.3054991
1.22374 -0.53452897 2.3022189
1.22156 -0.54015201 2.2941689
1.22461 -0.53417498 2.296119
1.2251999 -0.53420699 2.2894189
1.22484 -0.54081798 2.284219
1.23206 -0.52473497 2.2656791
1.24209 -0.51688898 2.256779
1.24955 -0.497017 2.2272089
1.24874 -0.52389199 2.2035389
1.2505001 -0.52252001 2.1992788
1.26692 -0.49087602 2.2010088
1.30344 -0.58300501 2.188689
1.3064599 -0.58371603 2.1833591
1.3268601 -0.59149396 2.1825891
1.3195599 -0.58213001 2.1806889
1.32684 -0.59211802 2.178189
1.34276 -0.59143901 2.181659
1.22779 -0.53074098 2.2942591
1.22104 -0.55098498 2.2877991
1.22928 -0.52052504 2.287539
1.24359 -0.54343599 2.2184789
1.2475801 -0.52457803 2.216249
1.24806 -0.53387499 2.212049
1.24445 -0.52245802 2.2098589
1.25139 -0.51464999 2.2110789
1.24796 -0.52337503 2.2050087
1.2492601 -0.51382804 2.204509
1.25535 -0.50646502 2.205409
1.25103 -0.53395802 2.1993389
1.2368901 -0.51290798 2.274039
1.23746 -0.513129 2.2681189
1.2429299 -0.51465201 2.249069
1.24263 -0.514561 2.242779
1.24587 -0.51577097 2.231499
1.25401 -0.50687599 2.218359
1.24386 -0.51179004 2.2110391
1.2466201 -0.50261003 2.2109089
1.2436299 -0.51160401 2.2048388
1.25384 -0.50663102 2.207479
1.26085 -0.49920201 2.2068491
1.25501 -0.51580101 2.2001791
1.25492 -0.50622797 2.200989
1.23052 -0.52633399 2.3029389
1.2231899 -0.546202 2.2898691
1.23447 -0.52864498 2.2637987
1.25158 -0.50740504 2.2221189
1.24972 -0.518803 2.2164688
1.25314 -0.506926 2.2161388
1.24607 -0.52942502 2.210669
1.24471 -0.51519501 2.2084391
1.2550499 -0.50944501 2.2105091
1.2609 -0.50037497 2.211689
1.24891 -0.53281599 2.2051489
1.2457299 -0.51814604 2.2035291
1.2549601 -0.51142299 2.2042191
1.2703099 -0.49098203 2.2049589
1.27433 -0.48482299 2.192409
1.26937 -0.49262199 2.1850491
1.26702 -0.49321201 2.178149
1.26162 -0.50097102 2.172009
1.2190599 -0.54053599 2.304549
1.2098401 -0.52219599 2.2997391
1.2124 -0.53596002 2.2961688
1.21849 -0.54488897 2.2919691
1.2445201 -0.51724899 2.241189
1.25043 -0.51271302 2.2206891
1.2514499 -0.52496201 2.201369
1.25375 -0.52473199 2.1952288
1.34179 -0.57782799 2.2112391
1.3470199 -0.57561797 2.194479
1.3444999 -0.57722098 2.182179
1.3382601 -0.58080202 2.1726692
1.33472 -0.58279002 2.1635489
1.34346 -0.57880598 2.1487091
1.2607 -0.58305001 2.2266989
1.2578399 -0.57352602 2.219209
1.30779 -0.58567601 2.188509
1.3152699 -0.59799701 2.1856289
1.3085201 -0.58570802 2.1772189
1.32142 -0.60088402 2.181649
1.31996 -0.591609 2.177439
1.3039999 -0.57440203 2.160279
1.3248301 -0.60106498 2.1746092
1.32827 -0.59338701 2.1742489
1.31055 -0.57613701 2.155129
1.3333501 -0.59428799 2.169569
1.3153999 -0.57731605 2.1482589
1.3202699 -0.57803297 2.140439
1.28702 -0.57429796 2.177319
1.29494 -0.57748199 2.1723189
1.30968 -0.58426398 2.175159
1.32155 -0.59005904 2.1761389
1.32853 -0.592565 2.173419
1.3140301 -0.577079 2.156239
1.31646 -0.57583499 2.147239
1.3178 -0.57326901 2.134459
1.2528 -0.50756401 2.211319
1.24038 -0.53102201 2.1899688
1.25983 -0.56914902 2.1991389
1.2715499 -0.57580602 2.191849
1.2779 -0.57907397 2.1849389
1.29213 -0.58767503 2.187819
1.29879 -0.591609 2.1828589
1.29661 -0.57972097 2.1780992
1.31265 -0.59951097 2.185679
1.31156 -0.58980501 2.1820889
1.32022 -0.60249102 2.1828089
1.31883 -0.59230101 2.1775689
1.3238699 -0.59435004 2.1734688
1.3177699 -0.578816 2.1619189
1.34022 -0.59433901 2.1781089
1.24421 -0.54311699 2.208389
1.24674 -0.556297 2.207679
1.26498 -0.58363998 2.2209492
1.26819 -0.58550704 2.2147489
1.2611099 -0.56860697 2.2025189
1.27315 -0.58917898 2.2084188
1.26693 -0.57314801 2.196219
1.2686 -0.58508998 2.1910291
1.27482 -0.57935202 2.1929789
1.27937 -0.59284997 2.1910789
1.27739 -0.579772 2.183279
1.28196 -0.59390599 2.1819389
1.2942599 -0.591106 2.186919
1.2996601 -0.60619998 2.187429
1.3071699 -0.59992999 2.188839
1.29188 -0.57459801 2.167779
1.3184301 -0.611947 2.194309
1.29961 -0.57718897 2.1626289
1.3085099 -0.580746 2.1585488
1.3239501 -0.59159601 2.165519
1.31099 -0.570683 2.146399
1.32345 -0.591456 2.1346788
1.24638 -0.56342798 2.1993589
1.26412 -0.57835698 2.2103791
1.2697001 -0.583534 2.206809
1.27403 -0.58608401 2.1999891
1.26709 -0.56623101 2.183269
1.26337 -0.57473898 2.1747789
1.2739 -0.57109797 2.176929
1.2736 -0.58265996 2.172739
1.28204 -0.57695502 2.173749
1.2766401 -0.58512199 2.1670589
1.2874401 -0.58122998 2.1702688
1.31804 -0.61708701 2.1892691
1.31988 -0.60764599 2.1861789
1.29865 -0.574462 2.161459
1.3158799 -0.60207498 2.1736991
1.31361 -0.58819598 2.1663589
1.3138901 -0.58310801 2.1540589
1.22684 -0.52903801 2.2939091
1.2349299 -0.52483702 2.280679
1.32961 -0.58535701 2.2191391
1.32962 -0.58590299 2.2093689
1.31041 -0.583664 2.190979
1.3430099 -0.59214401 2.2034891
1.32038 -0.59053397 2.1850491
1.26367 -0.49911499 2.1685488
1.33369 -0.59436297 2.1836691
1.32919 -0.586312 2.1828988
1.31319 -0.58018297 2.170049
1.34772 -0.58920598 2.187619
1.33419 -0.58564097 2.1759689
1.32533 -0.57776797 2.1705289
1.34372 -0.58134997 2.1761789
1.33163 -0.57650602 2.1661389
1.3373899 -0.57197303 2.1619389
1.33339 -0.57091802 2.1455991
1.3350799 -0.56909597 2.1355991
1.31424 -0.58454603 2.195329
1.3373801 -0.59406602 2.199769
1.3248301 -0.58626997 2.1914191
1.3475101 -0.59832597 2.1994791
1.3358099 -0.59274602 2.1903188
1.32847 -0.58382601 2.1843591
1.34834 -0.59703803 2.1898191
1.3454499 -0.58948302 2.189429
1.32926 -0.58404398 2.173569
1.3570399 -0.58628297 2.1912088
1.33857 -0.58064002 2.1733189
1.35464 -0.57707804 2.1812789
1.25183 -0.50528002 2.206629
1.3328199 -0.59041303 2.1990991
1.32447 -0.58354998 2.1924391
1.33302 -0.59028798 2.1901488
1.32974 -0.58359098 2.186619
1.3395599 -0.588687 2.1853089
1.3323801 -0.58124 2.179019
1.35331 -0.58614999 2.188659
1.34442 -0.58023298 2.1809587
1.3425599 -0.57837796 2.1685889
1.32987 -0.58858198 2.2233992
1.3225101 -0.59424502 2.206929
1.31953 -0.58656698 2.204819
1.32181 -0.59267896 2.1972089
1.32047 -0.585594 2.1952288
1.32453 -0.58531302 2.186399
1.3438699 -0.59264201 2.1938989
1.3347099 -0.58621198 2.183919
1.3393899 -0.59226799 2.1782191
1.33444 -0.58478701 2.1736591
1.33336 -0.57500499 2.1716189
1.33952 -0.591932 2.169229
1.3427901 -0.58350897 2.172179
1.33964 -0.57487899 2.1673989
1.3405099 -0.5733 2.1582389
1.3303101 -0.57021201 2.1339591
1.3248199 -0.58714998 2.1949689
1.3285899 -0.587291 2.186389
1.33787 -0.58820999 2.1828392
1.3342301 -0.58048499 2.1801691
1.34289 -0.58924299 2.179039
1.34023 -0.581227 2.1757889
1.3592399 -0.58419901 2.188369
1.22824 -0.52802801 2.295409
1.33093 -0.58404803 2.2203088
1.33092 -0.58459204 2.2105289
1.3442999 -0.59079498 2.2046189
1.32161 -0.58924502 2.1862588
1.2646 -0.49798098 2.1699288
1.3349299 -0.593036 2.184819
1.3304 -0.58499801 2.1840689
1.31435 -0.57891101 2.1712689
1.3489599 -0.58784097 2.188729
1.33538 -0.58431196 2.177119
1.34491 -0.57999498 2.177309
1.3327699 -0.57518297 2.1672988
1.3361 -0.56775796 2.136749
1.31599 -0.58548999 2.195859
1.33915 -0.59500003 2.2002389
1.32658 -0.58720601 2.1919188
1.3492799 -0.599253 2.199939
1.33755 -0.59367299 2.190799
1.3302001 -0.58475399 2.184859
1.35008 -0.59795797 2.1902688
1.3471899 -0.59040403 2.189889
1.33097 -0.58496398 2.1740689
1.3587899 -0.58719802 2.191659
1.3402699 -0.581554 2.173799
1.35636 -0.57798898 2.1817389
1.2526699 -0.505584 2.2066088
1.33383 -0.59053999 2.1989591
1.3254601 -0.58369201 2.1923189
1.33403 -0.59041196 2.1900189
1.33073 -0.58371902 2.1864991
1.34056 -0.58879501 2.185179
1.3333501 -0.58135897 2.1788888
1.35431 -0.58622897 2.188509
1.34539 -0.58032697 2.1808288
1.34351 -0.578471 2.1684589
1.3321201 -0.58902901 2.224179
1.3247701 -0.59470904 2.2077091
1.3217701 -0.58703798 2.2056091
1.3240601 -0.59314203 2.197989
1.3227099 -0.58605999 2.1960189
1.3267599 -0.58576602 2.1871891
1.34612 -0.59304297 2.194679
1.3369401 -0.58663601 2.1846991
1.32973 -0.57795697 2.178479
1.34164 -0.59267801 2.1789989
1.33667 -0.58520901 2.174439
1.3355701 -0.57542998 2.172399
1.3417701 -0.59233797 2.1700089
1.3450199 -0.58390701 2.1729691
1.34184 -0.57528502 2.168179
1.3427 -0.57370204 2.1590188
1.33248 -0.57063597 2.1347489
1.32386 -0.58706498 2.194319
1.32763 -0.58721197 2.1857488
1.3369099 -0.58814001 2.182199
1.3332801 -0.58041 2.1795189
1.3419299 -0.58917803 2.1783991
1.3392799 -0.58116001 2.175149
1.3582801 -0.58414698 2.1877389
