# .PCD v0.7 - Point Cloud Data file format
VERSION 0.7
FIELDS x y z
SIZE 4 4 4
TYPE F F F
COUNT 1 1 1
WIDTH 430
HEIGHT 1
VIEWPOINT 0 0 0 1 0 0 0
POINTS 430
DATA ascii
1.13062 -0.224399 2.43994
1.18365 -0.22214501 2.47505
1.14443 -0.21210301 2.4657001
1.13947 -0.225192 2.44999
1.13748 -0.226243 2.4309499
1.13943 -0.21614599 2.4697001
1.14499 -0.20888701 2.4747601
1.14586 -0.21593501 2.4642901
1.13629 -0.20641199 2.48562
1.1371399 -0.19775999 2.4820001
1.13842 -0.21059901 2.4753399
1.14135 -0.20131901 2.4763198
1.13984 -0.20876101 2.4650202
1.13387 -0.211062 2.48739
1.13227 -0.20353299 2.4748502
1.13991 -0.19753599 2.4832501
1.13203 -0.214224 2.46858
1.1364701 -0.20805299 2.46945
1.13879 -0.20065001 2.4679301
1.14336 -0.19494499 2.4688799
1.13754 -0.20870501 2.4569502
1.14406 -0.20163099 2.46105
1.13411 -0.21775401 2.4435401
1.17555 -0.18920799 2.4762399
1.1793599 -0.197199 2.47876
1.17592 -0.21255699 2.48634
1.164 -0.179601 2.4756799
1.1684899 -0.18812901 2.4716601
1.17646 -0.20006099 2.46664
1.16118 -0.183662 2.4674499
1.17238 -0.18945 2.4526701
1.17659 -0.19858101 2.44682
1.17892 -0.20841199 2.4537799
1.166 -0.186177 2.44751
1.1764801 -0.197936 2.4787202
1.16457 -0.18027201 2.4752898
1.15891 -0.183752 2.4679401
1.17602 -0.20954099 2.4531298
1.18092 -0.19071101 2.47978
1.1700801 -0.181374 2.4770501
1.17588 -0.189779 2.47456
1.1786699 -0.20287901 2.4714098
1.17879 -0.216866 2.4751999
1.15878 -0.17818899 2.4743798
1.16619 -0.181354 2.46819
1.16888 -0.19109601 2.4675
1.17721 -0.20116501 2.4558001
1.16389 -0.184083 2.4567301
1.17425 -0.203104 2.4449999
1.18056 -0.21014099 2.43611
1.1619201 -0.186637 2.4448502
1.1786901 -0.19378701 2.4739401
1.1779699 -0.20599501 2.4782598
1.17194 -0.185569 2.47189
1.1780601 -0.209319 2.4637799
1.1705 -0.187601 2.45943
1.1764801 -0.20619301 2.4465899
1.16861 -0.191292 2.4453499
1.17256 -0.19793101 2.4371302
1.17875 -0.20134 2.4744501
1.16903 -0.180199 2.4806201
1.1752 -0.191533 2.4686003
1.17865 -0.20324498 2.4594698
1.17694 -0.21600099 2.4664903
1.1695501 -0.18386 2.4655001
1.1789399 -0.202685 2.4433801
1.17527 -0.214908 2.45346
1.16257 -0.18868999 2.4372399
1.1414601 -0.19028901 2.4830801
1.14689 -0.18402599 2.4851699
1.14091 -0.19777201 2.4765301
1.14412 -0.19095899 2.4791698
1.1458499 -0.186212 2.4783802
1.15088 -0.181334 2.48176
1.14425 -0.211493 2.4737301
1.13938 -0.200588 2.4688199
1.1436599 -0.192619 2.4732502
1.1457 -0.18688601 2.4730201
1.14104 -0.20877001 2.46527
1.13966 -0.20110101 2.4639802
1.14465 -0.18907399 2.4644799
1.14352 -0.215875 2.4628701
1.1394401 -0.208977 2.4590399
1.14167 -0.202125 2.45979
1.1445099 -0.19430201 2.4597101
1.1424199 -0.21461901 2.4554901
1.14099 -0.20931299 2.4542501
1.14252 -0.20069499 2.45263
1.15429 -0.19067101 2.4570901
1.1408 -0.20879298 2.4468701
1.13925 -0.201777 2.44418
1.14592 -0.194677 2.44771
1.1378701 -0.20857701 2.43876
1.14262 -0.20118299 2.44031
1.1341701 -0.21395701 2.4315701
1.1455001 -0.200083 2.4356899
1.16031 -0.19132499 2.4428101
1.15939 -0.19177 2.43607
1.13936 -0.189778 2.4848502
1.14083 -0.183117 2.48388
1.1408 -0.18976499 2.4788299
1.141 -0.18141501 2.4795401
1.15037 -0.17820299 2.4837799
1.14334 -0.21206699 2.4781001
1.13894 -0.198919 2.4725399
1.14248 -0.19101401 2.4735601
1.14193 -0.18349001 2.4744799
1.15071 -0.182006 2.47802
1.14185 -0.209723 2.4703
1.1391001 -0.200471 2.4659302
1.14257 -0.19374201 2.46877
1.14346 -0.187163 2.4686701
1.13991 -0.20837499 2.46315
1.1399601 -0.20147499 2.4606299
1.1414399 -0.193679 2.4617002
1.1402401 -0.209979 2.4565001
1.14088 -0.19939899 2.45559
1.1417401 -0.203035 2.4498701
1.1437401 -0.223188 2.4488299
1.14224 -0.217365 2.4468799
1.13886 -0.20873 2.4425001
1.14592 -0.20141099 2.4455302
1.1381199 -0.21605401 2.4379599
1.13711 -0.20907801 2.4363
1.14403 -0.20390801 2.4385102
1.14855 -0.19703101 2.4388399
1.1361901 -0.19179001 2.47893
1.14325 -0.18691401 2.4843302
1.13972 -0.212761 2.47945
1.1373 -0.199983 2.4758201
1.13722 -0.19290899 2.4746702
1.14162 -0.18892099 2.4767001
1.1378399 -0.203888 2.46999
1.14071 -0.19523199 2.4716001
1.14589 -0.19183701 2.4712899
1.13896 -0.212883 2.46737
1.13852 -0.20352699 2.46263
1.14369 -0.19666599 2.46574
1.13986 -0.21361601 2.4617701
1.1374199 -0.203299 2.4553399
1.14265 -0.197217 2.4581001
1.1499701 -0.224407 2.4610801
1.13825 -0.21260799 2.4526701
1.13747 -0.20238501 2.4493201
1.1401401 -0.196842 2.45116
1.14248 -0.22030199 2.4511001
1.13732 -0.213212 2.4453001
1.13914 -0.20494801 2.4441202
1.14296 -0.197346 2.44664
1.1377101 -0.21876499 2.4420199
1.1322 -0.21035901 2.43608
1.1368901 -0.20304599 2.4351799
1.13438 -0.22547501 2.4316502
1.17914 -0.19871598 2.4416602
1.14785 -0.179065 2.4839902
1.13517 -0.209335 2.47967
1.1376899 -0.188325 2.4749398
1.13474 -0.216919 2.4745901
1.1308399 -0.203309 2.46944
1.13582 -0.188566 2.46788
1.13705 -0.20993701 2.4681001
1.13634 -0.198484 2.4645801
1.14099 -0.189454 2.46228
1.13121 -0.202777 2.4570401
1.13441 -0.19485399 2.4561899
1.13904 -0.18947701 2.45508
1.15933 -0.18574899 2.4614098
1.13552 -0.195595 2.4500399
1.14349 -0.21799299 2.4476101
1.13415 -0.205897 2.4418099
1.13607 -0.19852899 2.44397
1.14662 -0.19395 2.44771
1.13984 -0.21659701 2.4419601
1.13248 -0.206247 2.43504
1.14064 -0.20007601 2.43908
1.13223 -0.21419701 2.4318099
1.13775 -0.20099001 2.4312799
1.16967 -0.195815 2.4414201
1.13459 -0.195564 2.48036
1.1469799 -0.182758 2.48263
1.13494 -0.198641 2.4739499
1.13906 -0.188098 2.4735901
1.13685 -0.209471 2.4726598
1.1355001 -0.196805 2.46697
1.13702 -0.18718201 2.4660001
1.14735 -0.18613899 2.4702301
1.1378399 -0.21173701 2.4665
1.13501 -0.198018 2.4593499
1.13913 -0.18969101 2.46139
1.13538 -0.20820899 2.4574802
1.13376 -0.19871598 2.45241
1.13941 -0.19134599 2.4537799
1.13401 -0.20836599 2.44999
1.13556 -0.19768299 2.4463401
1.14285 -0.192341 2.4489901
1.13718 -0.21723899 2.4473503
1.13459 -0.20719999 2.44171
1.1341701 -0.197559 2.4396801
1.14252 -0.19455099 2.4425602
1.13429 -0.215546 2.43805
1.136 -0.20983601 2.4347401
1.13798 -0.20029199 2.4358301
1.14963 -0.19726101 2.4363501
1.15753 -0.175905 2.48121
1.15485 -0.17661899 2.4747202
1.15203 -0.178615 2.4665601
1.15644 -0.187785 2.4651101
1.1415 -0.18142401 2.4611301
1.12769 -0.182229 2.4526999
1.13024 -0.187031 2.4507
1.1441799 -0.18393201 2.4373503
1.15108 -0.178636 2.48207
1.1478 -0.17697901 2.4766202
1.1587 -0.209804 2.4500501
1.15728 -0.182092 2.48068
1.14957 -0.18149799 2.4771202
1.14649 -0.184296 2.4710102
1.14456 -0.18644801 2.4636099
1.14149 -0.187335 2.4585102
1.152 -0.17710699 2.4793501
1.15321 -0.17936701 2.4558401
1.14777 -0.183145 2.4730899
1.14539 -0.186499 2.4650602
1.15544 -0.20437402 2.4637001
1.14652 -0.212209 2.4768898
1.14739 -0.225757 2.46557
1.1445401 -0.212493 2.4682598
1.14544 -0.215537 2.4608099
1.1495301 -0.231546 2.4510603
1.14364 -0.21463199 2.4549601
1.1500599 -0.23082899 2.4435699
1.14443 -0.228534 2.44188
1.14267 -0.21623699 2.4716101
1.14159 -0.20483699 2.4753001
1.1442 -0.19069299 2.4814801
1.1446 -0.22605301 2.46345
1.14184 -0.21323299 2.46629
1.14499 -0.198827 2.4728501
1.14141 -0.205661 2.4623101
1.15061 -0.231409 2.4501102
1.14252 -0.226815 2.4458702
1.13986 -0.217272 2.4504402
1.14249 -0.207481 2.45454
1.14999 -0.230978 2.4425001
1.13791 -0.220392 2.44065
1.14477 -0.207302 2.44872
1.1406701 -0.207854 2.4769502
1.1423 -0.19547801 2.4835401
1.1420701 -0.18624501 2.48385
1.1449 -0.21648899 2.4720299
1.13963 -0.208252 2.4692099
1.14202 -0.19601801 2.4762399
1.14247 -0.18743201 2.47773
1.14308 -0.216332 2.4635801
1.14045 -0.207481 2.46419
1.14053 -0.19841801 2.4676299
1.1503501 -0.185417 2.47493
1.1450499 -0.217318 2.4564402
1.1421 -0.20682301 2.4591401
1.14273 -0.197753 2.46245
1.14457 -0.200289 2.4544699
1.14016 -0.20886801 2.4438901
1.1410199 -0.208368 2.4802499
1.1425099 -0.20472001 2.4756501
1.14352 -0.194701 2.4785502
1.1446199 -0.185559 2.4834499
1.13745 -0.21079201 2.4644699
1.14131 -0.19863899 2.4709501
1.14667 -0.18715701 2.47665
1.13789 -0.21918301 2.4567599
1.1359 -0.21104099 2.4569502
1.14122 -0.199 2.4632699
1.1458499 -0.22369801 2.45365
1.13885 -0.216269 2.45169
1.13956 -0.206864 2.4548998
1.14573 -0.19724199 2.45858
1.1440101 -0.21781999 2.4463902
1.14016 -0.20816201 2.4489999
1.16388 -0.18033899 2.4649601
1.13993 -0.219742 2.4367902
1.1654299 -0.18258499 2.4620903
1.16752 -0.177036 2.4641399
1.1452401 -0.212182 2.4795198
1.13624 -0.20498301 2.4740601
1.13827 -0.215056 2.4677
1.1328601 -0.207404 2.46594
1.13245 -0.199453 2.4667501
1.1302201 -0.217118 2.4551902
1.13252 -0.207738 2.4603798
1.13359 -0.19239201 2.4635801
1.14555 -0.227796 2.4573901
1.1304699 -0.216143 2.4491301
1.13269 -0.206673 2.4535301
1.1353 -0.196886 2.4562302
1.1441799 -0.18849899 2.4624898
1.13579 -0.22348499 2.4468398
1.13348 -0.21667601 2.4448001
1.13104 -0.20954399 2.4462302
1.13649 -0.19951099 2.4503
1.14202 -0.190826 2.4540398
1.13585 -0.22077601 2.4398103
1.1315399 -0.21621001 2.4362702
1.1345099 -0.2076 2.4422202
1.14613 -0.19427499 2.4497602
1.13091 -0.21661 2.43066
1.1331 -0.20812701 2.4333999
1.16066 -0.185496 2.4553499
1.18197 -0.199867 2.4867201
1.18004 -0.211374 2.48879
1.1841201 -0.20052201 2.4795401
1.1843801 -0.211374 2.4780002
1.18074 -0.20096399 2.4746499
1.1881601 -0.21309499 2.46944
1.1846601 -0.22329099 2.4698598
1.17668 -0.19935301 2.4683599
1.1846601 -0.212605 2.4648001
1.18573 -0.223628 2.4609601
1.15951 -0.18788201 2.47228
1.18422 -0.21375901 2.4554701
1.1777301 -0.233541 2.45874
1.1791301 -0.20624901 2.4499302
1.18513 -0.215984 2.44591
1.18785 -0.22421101 2.44628
1.18372 -0.23168699 2.44681
1.18301 -0.214064 2.43905
1.1852 -0.22441798 2.43995
1.1820301 -0.232976 2.437
1.1821901 -0.20171699 2.4855301
1.17875 -0.21070901 2.48598
1.1804 -0.20229401 2.4795699
1.1823001 -0.212962 2.4770098
1.17805 -0.20050301 2.4737601
1.17993 -0.21184099 2.4711802
1.18319 -0.22537799 2.4660602
1.1799999 -0.204529 2.46559
1.1849099 -0.2175 2.4583499
1.17872 -0.22923201 2.4607699
1.1827101 -0.208893 2.45451
1.18795 -0.217904 2.4474201
1.1823601 -0.22797 2.4505801
1.1841999 -0.209929 2.4449201
1.19039 -0.218172 2.4387901
1.18805 -0.22766501 2.4391501
1.17301 -0.24294201 2.4477201
1.18826 -0.21165399 2.4339099
1.19005 -0.22078399 2.43189
1.18417 -0.23684999 2.4333498
1.17556 -0.20052299 2.4830499
1.17431 -0.216049 2.4802999
1.1767401 -0.20535201 2.4730701
1.1795 -0.22107099 2.46842
1.17716 -0.208719 2.4646499
1.17905 -0.230444 2.4521899
1.17852 -0.211677 2.44437
1.17545 -0.21789101 2.4470501
1.1799099 -0.211355 2.43469
1.18015 -0.204642 2.4877403
1.17931 -0.19988599 2.48139
1.17782 -0.21733201 2.4793
1.17768 -0.190641 2.47664
1.18231 -0.205275 2.4711301
1.1830001 -0.220194 2.4663901
1.1792099 -0.193149 2.4681201
1.18261 -0.207794 2.46121
1.18357 -0.22118099 2.45842
1.1830699 -0.206751 2.4539499
1.18349 -0.21748699 2.4517999
1.18066 -0.22841601 2.4525602
1.17972 -0.19769698 2.4486301
1.18141 -0.206779 2.4470901
1.18223 -0.221021 2.44259
1.18143 -0.231885 2.4405499
1.1839 -0.21112199 2.4373701
1.15907 -0.175523 2.4353499
1.18696 -0.201493 2.4868798
1.18512 -0.21208701 2.4829001
1.18698 -0.20448901 2.47681
1.18492 -0.21088 2.4739199
1.1810601 -0.22193301 2.4741602
1.18689 -0.205116 2.4669399
1.18436 -0.21286501 2.4668303
1.18426 -0.22341299 2.46279
1.18296 -0.203198 2.4604402
1.18527 -0.213 2.4579902
1.18404 -0.22321101 2.4544101
1.18016 -0.23055701 2.4561701
1.18769 -0.20774598 2.4502499
1.18647 -0.21672899 2.4475698
1.18433 -0.22666201 2.4463799
1.18286 -0.233256 2.44611
1.18835 -0.215455 2.4386001
1.1819 -0.22162099 2.4396701
1.18226 -0.23279801 2.4372699
1.17769 -0.209445 2.4792502
1.17287 -0.214421 2.4586301
1.17408 -0.193425 2.4799201
1.17652 -0.233316 2.4626501
1.1827201 -0.211505 2.48967
1.1867 -0.197355 2.4721398
1.18215 -0.211393 2.4754801
1.18264 -0.20913799 2.46065
1.18372 -0.20799801 2.4412301
1.1813301 -0.20138 2.4786201
1.18049 -0.213625 2.4789701
1.18258 -0.20006399 2.4617503
1.16835 -0.223122 2.48155
1.1815699 -0.198025 2.4493999
1.17992 -0.21090901 2.44842
1.1685801 -0.16193099 2.48105
1.18064 -0.18030399 2.44874
1.1839499 -0.189853 2.43803
1.17625 -0.21494199 2.4859099
1.1812999 -0.19102101 2.4758801
1.17691 -0.206286 2.4762399
1.18542 -0.18190201 2.46035
1.1795 -0.204184 2.45736
1.186 -0.18431601 2.4453399
1.1772 -0.212571 2.44243
1.17442 -0.207798 2.4883599
1.18523 -0.196767 2.4634702
1.17549 -0.20326 2.4764001
1.17997 -0.207275 2.45262
1.17872 -0.21192101 2.4870901
1.18987 -0.199617 2.4612501
1.1871099 -0.20702299 2.4627302
1.17759 -0.213761 2.4767001
1.18795 -0.19821501 2.45509
1.18852 -0.20579901 2.4469101
1.17804 -0.21074601 2.46277
1.18804 -0.20454599 2.4335101
