# .PCD v0.7 - Point Cloud Data file format
VERSION 0.7
FIELDS x y z
SIZE 4 4 4
TYPE F F F
COUNT 1 1 1
WIDTH 1629
HEIGHT 1
VIEWPOINT 0 0 0 1 0 0 0
POINTS 1629
DATA ascii
1.2052 -0.491759 1.619629
1.2087001 -0.499055 1.6158
1.21199 -0.508605 1.613812
1.21167 -0.51976103 1.6159631
1.21271 -0.52807301 1.618299
1.2101001 -0.538068 1.6215421
1.25605 -0.46602198 1.5627371
1.2486 -0.47679502 1.5710781
1.23272 -0.494959 1.5887951
1.21652 -0.51427501 1.6070942
1.20927 -0.53059298 1.6159811
1.2087899 -0.54035997 1.617855
1.20253 -0.54933798 1.6233029
1.25833 -0.46222499 1.555202
1.25809 -0.46921501 1.5588241
1.25228 -0.48121798 1.5645889
1.24889 -0.49756101 1.567627
1.24569 -0.51547998 1.572104
1.25474 -0.46047297 1.5494541
1.25648 -0.46880201 1.5524961
1.2526001 -0.48384398 1.5563519
1.2473301 -0.50017101 1.56233
1.24447 -0.51432496 1.56767
1.26486 -0.447667 1.533989
1.2539001 -0.459768 1.543448
1.25191 -0.472653 1.5490789
1.25363 -0.48041198 1.5487092
1.24669 -0.49514198 1.5566461
1.26965 -0.421437 1.510887
1.25591 -0.44656798 1.531687
1.25579 -0.454422 1.5345089
1.2486399 -0.47176102 1.54557
1.24242 -0.48569098 1.5529761
1.25962 -0.418845 1.511988
1.26279 -0.42795101 1.513988
1.2584701 -0.44039798 1.5221951
1.2448601 -0.40441898 1.5104941
1.2444301 -0.413102 1.512781
1.25622 -0.42094898 1.5094761
1.2621399 -0.426577 1.5078712
1.25982 -0.43402901 1.510986
1.2201999 -0.40718102 1.519112
1.23463 -0.40711498 1.512151
1.2375901 -0.41244999 1.510358
1.2472399 -0.41996101 1.506192
1.2578701 -0.42699701 1.50343
1.25481 -0.43469897 1.5060321
1.2289801 -0.40951902 1.509127
1.23891 -0.41399202 1.503188
1.24582 -0.42133999 1.49939
1.25179 -0.42708901 1.4990231
1.2563601 -0.43266702 1.4968231
1.2239701 -0.41233003 1.5053371
1.22988 -0.415218 1.50274
1.23937 -0.42040101 1.4965249
1.2508399 -0.42741001 1.490569
1.25183 -0.43452099 1.491725
1.23072 -0.41637698 1.494945
1.24485 -0.42026001 1.484774
1.2514499 -0.42751899 1.4803782
1.25481 -0.432583 1.4821662
1.2180101 -0.41376498 1.4879531
1.23254 -0.41515401 1.4819461
1.2465 -0.42132199 1.475495
1.25572 -0.42596501 1.4709811
1.25308 -0.43338799 1.4737711
1.22708 -0.40816298 1.4767951
1.2273201 -0.41341999 1.4763721
1.24026 -0.418542 1.470903
1.25003 -0.42785701 1.466772
1.24914 -0.43933299 1.4678791
1.21663 -0.47406101 1.487046
1.20705 -0.48587501 1.4936011
1.20759 -0.38479599 1.4706731
1.20733 -0.394768 1.473453
1.21899 -0.406214 1.4716079
1.2292401 -0.41415402 1.4694561
1.24366 -0.419357 1.461385
1.24901 -0.428857 1.458324
1.24793 -0.439224 1.462919
1.2254699 -0.46350801 1.4772741
1.20819 -0.48317102 1.489561
1.1982701 -0.49653801 1.4946941
1.19918 -0.36475199 1.4642761
1.2002 -0.377639 1.468418
1.2025399 -0.38740003 1.4707049
1.2107199 -0.39486399 1.466911
1.21387 -0.40582401 1.465511
1.22691 -0.414332 1.4624749
1.24463 -0.42068499 1.4527191
1.25166 -0.42783797 1.4495151
1.24798 -0.438209 1.4562039
1.21374 -0.47389999 1.478979
1.20617 -0.484999 1.4846179
1.18808 -0.50467199 1.4943581
1.18436 -0.51251203 1.498126
1.18521 -0.360277 1.466293
1.19485 -0.363215 1.46189
1.1993901 -0.372192 1.462117
1.20459 -0.38404 1.4624341
1.20635 -0.39727101 1.4615289
1.20881 -0.40686101 1.461973
1.2199401 -0.412321 1.457275
1.23665 -0.41831601 1.4495181
1.2488301 -0.42502299 1.4429641
1.24902 -0.43350497 1.4465151
1.20556 -0.48062098 1.479295
1.19489 -0.49435902 1.484776
1.1846601 -0.50835603 1.4904032
1.18334 -0.51757401 1.491271
1.1832399 -0.35432202 1.462669
1.1917601 -0.35722801 1.4583099
1.19507 -0.36612901 1.4577811
1.20105 -0.37529001 1.4564661
1.2008899 -0.38765299 1.4562631
1.206 -0.39672101 1.454823
1.2070401 -0.40756598 1.455933
1.22234 -0.41549197 1.449156
1.23944 -0.419934 1.441229
1.24711 -0.42482498 1.4357431
1.25103 -0.43066001 1.4353501
1.1992 -0.484575 1.4790261
1.17883 -0.51344699 1.4862579
1.1758599 -0.52624696 1.488508
1.17601 -0.53457403 1.488981
1.17992 -0.359813 1.461622
1.19526 -0.362663 1.453271
1.1981701 -0.37642202 1.4520541
1.19856 -0.38822103 1.4510131
1.20357 -0.39803901 1.4500149
1.20331 -0.40869701 1.450842
1.21508 -0.41429198 1.445168
1.2366999 -0.41935101 1.43468
1.24807 -0.42604402 1.427865
1.24894 -0.43214598 1.4288501
1.16515 -0.51318097 1.4871811
1.17567 -0.51529199 1.479292
1.1749099 -0.52568501 1.4822299
1.17419 -0.53728098 1.4841831
1.1711 -0.54853803 1.4858569
1.20585 -0.383443 1.4434091
1.19734 -0.39735198 1.4485641
1.20824 -0.40811598 1.442281
1.2196 -0.416614 1.43585
1.24101 -0.42041001 1.424239
1.24871 -0.425607 1.420632
1.25159 -0.430466 1.419299
1.16159 -0.51418501 1.4849191
1.1784101 -0.51541901 1.4688901
1.17588 -0.524418 1.473461
1.17445 -0.53541696 1.4775422
1.1735901 -0.54699403 1.4783059
1.16873 -0.56287104 1.4817411
1.29216 -0.351053 1.375121
1.28628 -0.36200297 1.378611
1.2189499 -0.40636003 1.4313769
1.2135501 -0.41578498 1.4344471
1.23796 -0.41807702 1.418658
1.2470601 -0.42485902 1.4144341
1.25178 -0.431851 1.4093921
1.17769 -0.51498401 1.462675
1.17475 -0.523359 1.4659179
1.17039 -0.53802103 1.471804
1.16611 -0.554636 1.475494
1.1630599 -0.57047403 1.478721
1.15635 -0.58840197 1.4837821
1.2927499 -0.34741199 1.371496
1.29196 -0.35843301 1.371521
1.2881 -0.36890599 1.3742042
1.2423 -0.41484201 1.408114
1.2432599 -0.41996497 1.4090291
1.25052 -0.42572898 1.404268
1.25436 -0.43298 1.401323
1.24572 -0.44408101 1.4064951
1.1624199 -0.52178198 1.465561
1.16786 -0.53034401 1.464179
1.1647 -0.54566699 1.4685891
1.16256 -0.55911398 1.4704471
1.15678 -0.57510799 1.4747521
1.1537 -0.58837003 1.4769281
1.2932601 -0.34609902 1.3650371
1.28924 -0.36062899 1.3667761
1.28451 -0.371894 1.3712581
1.28416 -0.378245 1.3720801
1.24696 -0.42026401 1.3989981
1.2518699 -0.42760399 1.3963079
1.2485299 -0.43928599 1.398837
1.24305 -0.45042098 1.4017081
1.1577101 -0.51736802 1.4629951
1.1584899 -0.52360702 1.463603
1.1532199 -0.55298901 1.4695401
1.1518 -0.56686199 1.4707861
1.25334 -0.30168301 1.3746231
1.26533 -0.302737 1.369011
1.28864 -0.34980202 1.361958
1.28056 -0.366846 1.366689
1.2831199 -0.37348402 1.366519
1.27572 -0.38576499 1.3704431
1.24757 -0.41753501 1.3897821
1.24964 -0.42467999 1.389078
1.25249 -0.434645 1.3902371
1.24672 -0.44918999 1.3934711
1.2347 -0.46560699 1.4015291
1.23015 -0.48209202 1.403121
1.22504 -0.499066 1.4071541
1.22043 -0.51254702 1.410634
1.1650901 -0.55466199 1.459326
1.26757 -0.38491699 1.368978
1.26616 -0.39383498 1.369945
1.25328 -0.41103101 1.3784561
1.25125 -0.42335603 1.3813491
1.24947 -0.435711 1.3835471
1.24701 -0.45103401 1.3861951
1.23344 -0.46812001 1.396934
1.2322299 -0.48005903 1.397006
1.23212 -0.49190101 1.3988839
1.22767 -0.50637698 1.402866
1.22311 -0.52239799 1.4057031
1.25365 -0.39488 1.3698931
1.25718 -0.40002 1.368896
1.25188 -0.41275001 1.3716031
1.25362 -0.42222801 1.373849
1.25384 -0.432206 1.3727961
1.24973 -0.44564301 1.377479
1.2347 -0.46823397 1.3892292
1.22928 -0.48632702 1.39405
1.22631 -0.498689 1.397935
1.223 -0.51102298 1.4001139
1.21931 -0.52421397 1.4030471
1.24475 -0.406432 1.36946
1.2518001 -0.41081902 1.3659641
1.25069 -0.42332801 1.3666501
1.2523 -0.435458 1.367493
1.24893 -0.447 1.3725241
1.21747 -0.49182701 1.396099
1.2234401 -0.49981603 1.3942931
1.21913 -0.51364797 1.3979201
1.24736 -0.41623002 1.361271
1.25149 -0.42267501 1.359115
1.25167 -0.43130198 1.3591111
1.2541699 -0.439338 1.361026
1.21288 -0.50433701 1.396365
1.23877 -0.42190701 1.356546
1.24639 -0.42485601 1.3557041
1.2488301 -0.43154499 1.352921
1.2521701 -0.43775201 1.35215
1.23197 -0.424575 1.351895
1.24348 -0.42630199 1.349503
1.2490799 -0.43322301 1.345829
1.25488 -0.440153 1.341718
1.22958 -0.424963 1.3468451
1.23823 -0.42883998 1.343245
1.25029 -0.43618 1.337957
1.25365 -0.44337699 1.336567
1.24562 -0.45153001 1.3419991
1.224 -0.42740798 1.3432651
1.23737 -0.427948 1.334567
1.2435299 -0.43562001 1.333871
1.2514499 -0.44309601 1.331727
1.24983 -0.45010799 1.334651
1.22431 -0.427248 1.3348221
1.23244 -0.42909199 1.331302
1.2399299 -0.43379799 1.328318
1.2475901 -0.44219899 1.3253371
1.25207 -0.448167 1.3265671
1.2203 -0.428325 1.3286841
1.23057 -0.430107 1.3268961
1.24141 -0.43510398 1.3208261
1.21553 -0.43019903 1.323812
1.22916 -0.43075001 1.320444
1.29291 -0.36897701 1.7067981
1.28451 -0.37423301 1.7059671
1.2665 -0.46487099 1.6788651
1.26327 -0.459501 1.675397
1.2608 -0.46592 1.6794909
1.23804 -0.42678601 1.679166
1.24622 -0.43081403 1.6739981
1.25345 -0.43807203 1.6702161
1.25933 -0.45026401 1.6705819
1.2593499 -0.45751098 1.6719141
1.26043 -0.46391702 1.6730981
1.23615 -0.42654499 1.6760299
1.24436 -0.43003801 1.6706531
1.25173 -0.43673402 1.6650021
1.25545 -0.44797 1.6661991
1.25169 -0.459337 1.6710891
1.2499601 -0.46558499 1.6733279
1.2325701 -0.426265 1.6722422
1.24528 -0.42950001 1.6615621
1.2499501 -0.44036499 1.659148
1.2514701 -0.451395 1.6625
1.24718 -0.45966202 1.666045
1.21644 -0.41839099 1.668419
1.2318599 -0.42280498 1.6608661
1.24428 -0.42992699 1.652303
1.24942 -0.43964401 1.6501379
1.2481999 -0.45023498 1.6554501
1.24017 -0.45931301 1.662583
1.2006099 -0.41356 1.670086
1.21684 -0.41643399 1.661098
1.23559 -0.42101601 1.648618
1.24168 -0.42872298 1.6460941
1.2477601 -0.43581 1.6432159
1.24852 -0.44607499 1.644788
1.2434 -0.45543301 1.6514472
1.2036099 -0.41207099 1.6617661
1.21874 -0.41569301 1.6521921
1.2321 -0.42045298 1.6434342
1.24133 -0.42812002 1.63802
1.2465301 -0.43907902 1.637108
1.2474099 -0.44890597 1.63597
1.22558 -0.47266302 1.6477301
1.19789 -0.41239202 1.6585381
1.20735 -0.415411 1.652375
1.22796 -0.41970798 1.6388571
1.24159 -0.42644599 1.6281101
1.24563 -0.43869498 1.627279
1.2428601 -0.45293099 1.630217
1.23007 -0.468018 1.641071
1.2194 -0.481222 1.648484
1.19882 -0.41194499 1.652341
1.20867 -0.41635299 1.6457421
1.23383 -0.42107102 1.6269479
1.24835 -0.42682099 1.615383
1.25253 -0.43620601 1.6116699
1.2443 -0.44986001 1.621359
1.23342 -0.46541199 1.631146
1.22597 -0.47929999 1.6379431
1.2192 -0.49106702 1.6426721
1.19336 -0.41853499 1.652862
1.24533 -0.42138699 1.610464
1.25246 -0.42708999 1.602955
1.25429 -0.43668801 1.603115
1.24773 -0.44682202 1.6114089
1.2361599 -0.46098301 1.6208749
1.22579 -0.477534 1.628921
1.2248501 -0.49011698 1.6318121
1.22155 -0.50074404 1.6336761
1.2492601 -0.42068902 1.5986841
1.25595 -0.424216 1.5909091
1.2529 -0.43514401 1.59655
1.24657 -0.44805899 1.605441
1.22676 -0.466968 1.619604
1.2146701 -0.48260701 1.6282611
1.21921 -0.49070001 1.627727
1.2212 -0.50096899 1.6275461
1.21664 -0.513933 1.6293311
1.24876 -0.42027402 1.5911279
1.2554799 -0.42366001 1.5844311
1.25457 -0.43258899 1.5860001
1.24659 -0.44549099 1.5971609
1.2018 -0.48219398 1.6294219
1.20772 -0.48889402 1.6271249
1.21673 -0.49565601 1.623193
1.2142199 -0.50693804 1.6245121
1.21385 -0.51968896 1.6239481
1.20737 -0.53102404 1.630054
1.25895 -0.418219 1.578204
1.25316 -0.427771 1.58015
1.2543 -0.43452302 1.5783271
1.25041 -0.44074199 1.584455
1.1890399 -0.48619097 1.629679
1.19778 -0.48962399 1.626618
1.20636 -0.49783 1.622475
1.2097499 -0.51112998 1.61992
1.21174 -0.523018 1.619022
1.2087799 -0.53366601 1.6231711
1.2072899 -0.543217 1.6245722
1.25519 -0.435711 1.57104
1.25158 -0.44086498 1.5749459
1.18116 -0.488383 1.629795
1.19354 -0.49111998 1.6234992
1.20271 -0.50161499 1.6193939
1.20689 -0.51153398 1.6170959
1.21198 -0.52156502 1.613175
1.21251 -0.532695 1.613812
1.21322 -0.54259402 1.6151379
1.25736 -0.43682998 1.56373
1.24805 -0.44582298 1.5687031
1.18738 -0.48598999 1.622052
1.25553 -0.46700501 1.5598541
1.2617 -0.47637799 1.55715
1.26133 -0.48946801 1.559743
1.2582901 -0.500489 1.563446
1.2451301 -0.45051801 1.5618539
1.25019 -0.457248 1.558719
1.26099 -0.46564701 1.5521451
1.2648001 -0.47368199 1.5504501
1.2648101 -0.483946 1.552377
1.26127 -0.49685398 1.5568701
1.2495999 -0.51347101 1.567529
1.25078 -0.52553701 1.567926
1.26262 -0.436048 1.535683
1.24958 -0.44963402 1.5501331
1.25432 -0.45891997 1.5493311
1.25817 -0.46820599 1.548988
1.25893 -0.47741601 1.5491451
1.2604001 -0.48814601 1.549728
1.2550499 -0.50198102 1.5552521
1.2512699 -0.51721901 1.5598511
1.2807699 -0.41448399 1.5115241
1.26634 -0.429297 1.5255721
1.2586 -0.44148999 1.5359421
1.25107 -0.45480302 1.5442051
1.25392 -0.46890599 1.5456799
1.25629 -0.48064202 1.545607
1.25495 -0.49140203 1.5476661
1.25298 -0.50374001 1.5512381
1.2694 -0.40958801 1.512138
1.27285 -0.41767299 1.5131711
1.2692 -0.42736998 1.51757
1.26041 -0.43806899 1.5281219
1.2394201 -0.46354902 1.549906
1.24599 -0.48471901 1.548629
1.24497 -0.49510503 1.5507311
1.25306 -0.40482101 1.514859
1.25986 -0.41001302 1.512162
1.27026 -0.41474098 1.508495
1.26974 -0.42410198 1.509382
1.26247 -0.433815 1.517869
1.17206 -0.399685 1.5528241
1.19923 -0.40325201 1.5389431
1.22641 -0.406627 1.525365
1.2475901 -0.409614 1.512796
1.2621399 -0.417119 1.506078
1.26642 -0.42571399 1.503571
1.2639099 -0.431954 1.5085449
1.14563 -0.39528701 1.5622531
1.1528801 -0.40215302 1.5605459
1.1810501 -0.40455601 1.5461141
1.21843 -0.40733001 1.525185
1.24133 -0.41090697 1.5107431
1.2509999 -0.416805 1.5051041
1.26402 -0.423675 1.496789
1.26493 -0.43082699 1.499413
1.12542 -0.38856202 1.566401
1.13122 -0.39535901 1.5657032
1.13982 -0.40113899 1.5617031
1.15228 -0.40592498 1.557125
1.2003601 -0.407298 1.533264
1.2436299 -0.41253701 1.503914
1.24891 -0.420196 1.4988141
1.2643499 -0.423857 1.48805
1.2650399 -0.430271 1.489828
1.11155 -0.38146001 1.5662091
1.1204799 -0.386576 1.563422
1.1249501 -0.39515901 1.5625659
1.13106 -0.40252 1.560415
1.1351399 -0.40726897 1.5600369
1.24368 -0.41630501 1.4957181
1.25257 -0.420533 1.4877231
1.26369 -0.42596501 1.482013
1.26429 -0.43140098 1.4826511
1.09846 -0.37704101 1.5671701
1.10458 -0.380631 1.5637579
1.11194 -0.38770303 1.562155
1.1157 -0.39627701 1.5608929
1.12045 -0.40304902 1.559183
1.10674 -0.41158298 1.5653381
1.2415 -0.41705102 1.488605
1.24828 -0.41967601 1.482102
1.25631 -0.42537898 1.4784341
1.2649601 -0.43038699 1.474315
1.09778 -0.38117501 1.560979
1.10638 -0.38571602 1.557767
1.10798 -0.395787 1.558064
1.10847 -0.40405101 1.5582891
1.23908 -0.416302 1.481577
1.24745 -0.42028701 1.4747351
1.2587399 -0.42655602 1.469633
1.26737 -0.42959702 1.4650431
1.09016 -0.382007 1.55694
1.0970401 -0.38769099 1.554783
1.09881 -0.396083 1.554324
1.22497 -0.408234 1.4761221
1.2350299 -0.41364801 1.473639
1.24343 -0.41904899 1.469018
1.2533699 -0.42502701 1.4648941
1.25923 -0.430666 1.4619769
1.17159 -0.49703398 1.5142709
1.07947 -0.37551102 1.5509501
1.09039 -0.37983501 1.547348
1.09128 -0.38875902 1.5503191
1.09227 -0.39359102 1.549701
1.21373 -0.40177101 1.4746829
1.22665 -0.40563202 1.46884
1.2372 -0.41315898 1.4654731
1.24639 -0.419972 1.461908
1.25213 -0.426319 1.4581469
1.26133 -0.430195 1.4516369
1.1776999 -0.49599603 1.5073721
1.1774 -0.50214297 1.5074719
1.17915 -0.511621 1.5061041
1.1846601 -0.51610899 1.5037671
1.10895 -0.35408297 1.519981
1.0875599 -0.37115201 1.540728
1.09012 -0.37504101 1.5386841
1.0911599 -0.38384601 1.5419861
1.2157 -0.39967901 1.46807
1.21951 -0.405027 1.4647821
1.2292199 -0.41167802 1.4628961
1.24484 -0.418836 1.4549921
1.2551 -0.42675799 1.447989
1.2588099 -0.43147001 1.446979
1.17602 -0.49880901 1.5042691
1.1767299 -0.506446 1.5028701
1.1853 -0.51182199 1.497465
1.18169 -0.51813799 1.5014551
1.10833 -0.35368499 1.516073
1.09919 -0.36309397 1.5244571
1.09865 -0.37032798 1.526261
1.18208 -0.37216201 1.471889
1.1979699 -0.374892 1.4632181
1.19977 -0.385203 1.464715
1.21114 -0.39516699 1.4611191
1.21487 -0.40546903 1.4600461
1.2283 -0.41308603 1.4554379
1.2472 -0.42078099 1.4448551
1.2566 -0.42671201 1.43959
1.2576001 -0.431575 1.44164
1.16901 -0.510077 1.502201
1.18216 -0.51283199 1.493466
1.1831501 -0.51985002 1.493176
1.0975599 -0.35537398 1.5175121
1.0986 -0.362198 1.5188091
1.10068 -0.36650601 1.51789
1.1911399 -0.36911401 1.4621719
1.19391 -0.37450698 1.4611521
1.20012 -0.38382301 1.459646
1.20692 -0.39285901 1.4560111
1.20815 -0.40314999 1.4569931
1.2199 -0.411605 1.451409
1.23961 -0.41850701 1.4406531
1.25115 -0.42624402 1.4355029
1.25642 -0.43136299 1.434622
1.17581 -0.51737803 1.4903741
1.17751 -0.52289599 1.4901831
1.17741 -0.532538 1.4876322
1.09138 -0.35060397 1.5154281
1.09156 -0.35513198 1.5162671
1.09692 -0.35984698 1.5145841
1.17423 -0.36757198 1.4670171
1.18977 -0.36949599 1.4583451
1.19639 -0.37637502 1.455605
1.20096 -0.38619 1.4526361
1.20499 -0.39625302 1.4519991
1.20762 -0.40622002 1.449968
1.2234501 -0.41445598 1.442275
1.23904 -0.41888198 1.4341
1.24375 -0.42586699 1.43194
1.25397 -0.432473 1.426138
1.16659 -0.52476299 1.4888572
1.1737 -0.52749699 1.4856131
1.16968 -0.538903 1.484993
1.16739 -0.54900396 1.486425
1.18708 -0.36936101 1.456193
1.19221 -0.37709302 1.453356
1.1958799 -0.388973 1.450262
1.2010701 -0.39707699 1.4482269
1.20377 -0.40586102 1.445318
1.2146 -0.41346699 1.43981
1.2359101 -0.419577 1.4290991
1.2488999 -0.42852798 1.421177
1.25161 -0.43605801 1.4207989
1.24316 -0.44420898 1.4255389
1.1687 -0.53270799 1.481568
1.16882 -0.54051101 1.4792449
1.17414 -0.547189 1.476658
1.17373 -0.56071901 1.476392
1.1725 -0.57517701 1.478103
1.2885201 -0.34251598 1.37836
1.28628 -0.35225898 1.3809981
1.27766 -0.36319402 1.386467
1.1993901 -0.39953601 1.444303
1.20587 -0.40966901 1.439268
1.22303 -0.41541499 1.4286301
1.24359 -0.42074403 1.4164349
1.24988 -0.429483 1.412818
1.25021 -0.437727 1.4153931
1.24324 -0.44559398 1.419844
1.1652501 -0.53818101 1.47589
1.16905 -0.54363602 1.4735
1.16818 -0.55387199 1.4733959
1.1692801 -0.56501698 1.472543
1.17093 -0.57448101 1.4748931
1.15678 -0.59444302 1.486174
1.288 -0.334999 1.37405
1.2941099 -0.34735098 1.3725541
1.29036 -0.35847899 1.3757091
1.28736 -0.36861598 1.377002
1.2791101 -0.37810501 1.3812391
1.22009 -0.414518 1.4259491
1.23851 -0.41836798 1.4123291
1.2494 -0.425883 1.40548
1.25299 -0.436077 1.4055591
1.24438 -0.44585702 1.413049
1.1663201 -0.547786 1.467695
1.16381 -0.55858701 1.4690491
1.1633899 -0.56794 1.4705051
1.16493 -0.57770801 1.4719821
1.29257 -0.35487202 1.3686349
1.28826 -0.36714 1.371618
1.2843801 -0.37901402 1.373517
1.25096 -0.40997699 1.396067
1.24615 -0.41843602 1.4010091
1.25143 -0.42425999 1.3969591
1.25105 -0.435471 1.39782
1.24982 -0.44580799 1.4007561
1.1494401 -0.55530298 1.4700741
1.15615 -0.55988002 1.46718
1.16092 -0.56863397 1.466731
1.2937399 -0.34714198 1.3620871
1.2886701 -0.36031398 1.3646411
1.2828 -0.37372899 1.368605
1.27861 -0.385079 1.370739
1.26254 -0.40080202 1.3818941
1.24949 -0.41649503 1.3924952
1.25304 -0.42530701 1.3896691
1.25352 -0.43593299 1.388327
1.24866 -0.44815701 1.39351
1.24015 -0.46056899 1.3989191
1.2182801 -0.486045 1.408175
1.2189801 -0.51754701 1.410708
1.1612101 -0.55775297 1.459913
1.15486 -0.570535 1.465261
1.28509 -0.34126899 1.36292
1.2808299 -0.353302 1.365296
1.27512 -0.363969 1.3680191
1.2793499 -0.373418 1.3652201
1.27758 -0.383405 1.366351
1.26902 -0.39717603 1.3703961
1.25625 -0.41436401 1.380759
1.25122 -0.42752498 1.3843521
1.2554799 -0.434742 1.380756
1.25014 -0.447108 1.3849051
1.2418 -0.46139702 1.3918651
1.23291 -0.47588798 1.397595
1.2258999 -0.49149102 1.4005771
1.22716 -0.50688303 1.4018291
1.22812 -0.51753801 1.4029241
1.25243 -0.39048699 1.3702251
1.26491 -0.39038602 1.36606
1.26425 -0.40060002 1.3656509
1.2605001 -0.41164503 1.369785
1.25534 -0.42589298 1.374849
1.2532099 -0.438658 1.376503
1.25012 -0.44810799 1.379241
1.24376 -0.45872101 1.3837401
1.23068 -0.47618303 1.3926651
1.22158 -0.49256402 1.397684
1.22533 -0.503842 1.398272
1.22638 -0.51661599 1.400019
1.25085 -0.39670601 1.36696
1.26041 -0.40104598 1.361694
1.26061 -0.410777 1.3624251
1.2607599 -0.42171502 1.3636751
1.25188 -0.43680802 1.3700991
1.24958 -0.448551 1.3741031
1.23701 -0.46354902 1.381223
1.22664 -0.47911999 1.388896
1.2209899 -0.492587 1.394351
1.21998 -0.50301898 1.3970531
1.22695 -0.51272798 1.395511
1.24479 -0.407327 1.3628219
1.2565 -0.41200101 1.3576809
1.2597699 -0.42020699 1.3576801
1.25658 -0.433204 1.3590451
1.24756 -0.44897801 1.3673249
1.23334 -0.46408299 1.3771319
1.2308 -0.413831 1.361423
1.23782 -0.418313 1.3600501
1.25406 -0.42429599 1.35331
1.2552301 -0.43559897 1.352157
1.2515399 -0.44533402 1.3565271
1.24114 -0.456415 1.365009
1.2103 -0.42013401 1.364597
1.22384 -0.42211497 1.3598981
1.2449 -0.42509401 1.350354
1.25266 -0.43405497 1.346951
1.25188 -0.444359 1.3487871
1.2437201 -0.45350102 1.3557961
1.2007099 -0.42174998 1.3625051
1.21281 -0.424474 1.358403
1.23176 -0.42685798 1.350759
1.2453901 -0.43263301 1.3435651
1.25141 -0.44248101 1.340755
1.2484601 -0.450964 1.3456241
1.19399 -0.42297 1.360375
1.20381 -0.42559397 1.3558611
1.22811 -0.42835099 1.34524
1.24471 -0.435444 1.336671
1.2529 -0.442835 1.331648
1.24779 -0.45074299 1.3381461
1.19266 -0.42450401 1.355489
1.2114 -0.42599601 1.345052
1.2359201 -0.42924401 1.3346181
1.2449501 -0.43627301 1.3291451
1.25341 -0.44279099 1.323967
1.25113 -0.449494 1.3285431
1.20271 -0.422723 1.3438671
1.20006 -0.42759103 1.3444461
1.23197 -0.42968899 1.329344
1.2144101 -0.42615899 1.332121
1.23339 -0.42935601 1.3206121
1.21934 -0.42746699 1.321906
1.26016 -0.354817 1.709566
1.2573 -0.34588 1.709785
1.26097 -0.33767799 1.709197
1.17444 -0.44781101 1.7084491
1.1773 -0.443416 1.7085941
1.17251 -0.42296001 1.7091299
1.17547 -0.41481099 1.7095951
1.1799901 -0.41127101 1.709301
1.2667099 -0.347305 1.703446
1.16397 -0.45560399 1.701033
1.16556 -0.44894999 1.702345
1.17063 -0.44134101 1.7049301
1.16787 -0.43037498 1.7043381
1.1680501 -0.421933 1.7048711
1.17492 -0.41720599 1.7043561
1.17844 -0.41168597 1.703968
1.16798 -0.465426 1.6958791
1.15663 -0.454743 1.698447
1.16013 -0.44908401 1.6982431
1.16465 -0.439684 1.6990991
1.16853 -0.43125001 1.699366
1.17093 -0.42334202 1.6998711
1.17729 -0.41630402 1.698741
1.18137 -0.41176701 1.6975061
1.15572 -0.46119702 1.694268
1.15483 -0.45478699 1.6939169
1.16319 -0.448237 1.6940991
1.16996 -0.44210097 1.692131
1.16988 -0.43111402 1.6942641
1.174 -0.42108798 1.6938189
1.17917 -0.41473201 1.693372
1.18213 -0.411331 1.69315
1.143 -0.46684602 1.6877191
1.1436 -0.45996702 1.6899639
1.14929 -0.45566002 1.6892411
1.1639199 -0.45035899 1.6888299
1.1827101 -0.44691199 1.6858181
1.1735801 -0.434636 1.688462
1.17238 -0.42402801 1.6881399
1.1752 -0.415299 1.688692
1.17951 -0.41098598 1.6894369
1.14069 -0.47410899 1.6827899
1.13368 -0.46498501 1.6852051
1.14227 -0.46049801 1.6859201
1.1464601 -0.456328 1.6852701
1.1840301 -0.45407799 1.683401
1.19089 -0.45149201 1.6822479
1.17181 -0.43117902 1.6843939
1.1733999 -0.424142 1.6825
1.17071 -0.41549 1.683057
1.17537 -0.41081402 1.6845001
1.12735 -0.47002202 1.681615
1.13086 -0.46732399 1.6805749
1.13836 -0.46228802 1.6811709
1.1466401 -0.46040902 1.6800839
1.1712101 -0.427356 1.679003
1.17041 -0.42102799 1.6780151
1.16757 -0.413167 1.67804
1.1678801 -0.40743402 1.6789451
1.12858 -0.48068002 1.6734451
1.12427 -0.47233501 1.6762991
1.12994 -0.467621 1.6764771
1.13757 -0.46402699 1.676772
1.16566 -0.42484701 1.673288
1.1644 -0.41736802 1.673746
1.16238 -0.40874699 1.674322
1.16002 -0.40199003 1.6740781
1.11701 -0.47671601 1.671746
1.12025 -0.47225103 1.6723331
1.13449 -0.471423 1.671347
1.1724601 -0.43206501 1.6650831
1.16942 -0.42291099 1.6672291
1.16154 -0.410999 1.6693561
1.16056 -0.40241501 1.6697791
1.15991 -0.396947 1.669319
1.1106501 -0.48144001 1.6668781
1.1133699 -0.47659901 1.6682431
1.11682 -0.473409 1.6675071
1.17934 -0.48138198 1.6532049
1.18853 -0.47845501 1.6524731
1.18358 -0.46814099 1.654091
1.18832 -0.459959 1.654577
1.1835099 -0.44738302 1.657097
1.1704299 -0.43137699 1.660545
1.16447 -0.41857103 1.663245
1.16084 -0.407895 1.6646359
1.15956 -0.400547 1.6657201
1.15985 -0.397012 1.6652771
1.1078399 -0.49170399 1.659104
1.1051899 -0.48322701 1.6623629
1.11394 -0.48033601 1.6623551
1.1301399 -0.48078799 1.65836
1.1759601 -0.483504 1.6501989
1.18049 -0.476455 1.650715
1.18571 -0.469394 1.650914
1.18435 -0.45914599 1.6520511
1.18336 -0.44674197 1.6526831
1.17057 -0.43217799 1.6549001
1.17082 -0.424052 1.65714
1.1672 -0.41402698 1.6580991
1.1655201 -0.40505901 1.659165
1.1064299 -0.49441701 1.6549749
1.11072 -0.48839402 1.6566172
1.12909 -0.486936 1.6536691
1.16019 -0.48887402 1.647917
1.17293 -0.48298401 1.6474941
1.17931 -0.478322 1.6459689
1.18312 -0.46917099 1.646843
1.18532 -0.45717499 1.646224
1.17989 -0.44316301 1.648535
1.17022 -0.43179798 1.6510581
1.1696399 -0.42354599 1.6521111
1.1688401 -0.41313303 1.652155
1.1737 -0.40846002 1.6507621
1.10692 -0.50295299 1.649577
1.11507 -0.49967498 1.649516
1.13071 -0.49695399 1.64746
1.15011 -0.49500901 1.6443319
1.16289 -0.49158502 1.6419921
1.17303 -0.485264 1.6420441
1.1791 -0.47694501 1.641479
1.18751 -0.469576 1.6403251
1.18968 -0.45983201 1.639698
1.18244 -0.44609699 1.642826
1.1714801 -0.43201301 1.6468052
1.1712 -0.42136002 1.6456891
1.17616 -0.41348597 1.6451981
1.1806301 -0.40988299 1.6446271
1.10034 -0.50740504 1.646015
1.11005 -0.50652498 1.644667
1.1273301 -0.50540698 1.6420112
1.14948 -0.50447798 1.63805
1.16276 -0.49944302 1.637352
1.1722699 -0.49386397 1.6358161
1.1768299 -0.48449501 1.6371051
1.18566 -0.479002 1.6358811
1.19231 -0.47145998 1.6354941
1.1973799 -0.46303299 1.635224
1.1867299 -0.44824502 1.6375961
1.17225 -0.43152198 1.6408621
1.16901 -0.42133799 1.6409061
1.17483 -0.414929 1.639596
1.18285 -0.41012001 1.638923
1.1218699 -0.54037303 1.631701
1.11545 -0.53126502 1.6340522
1.1055 -0.515212 1.63932
1.11876 -0.51185602 1.637747
1.1402301 -0.51168704 1.6339309
1.15763 -0.51077902 1.630499
1.1626 -0.50239396 1.631801
1.1781 -0.49971297 1.629817
1.17967 -0.48713601 1.632833
1.19045 -0.48117697 1.6322211
1.17483 -0.432217 1.6354021
1.17083 -0.42139199 1.635516
1.17348 -0.41389701 1.635293
1.18477 -0.41010502 1.6327679
1.2023001 -0.41042599 1.6300961
1.1087101 -0.53406501 1.631248
1.1013501 -0.52328199 1.6342529
1.11192 -0.518668 1.6332339
1.12688 -0.51577497 1.6307611
1.1478601 -0.51533002 1.6269369
1.16029 -0.51120496 1.6256061
1.1723599 -0.50826198 1.6250839
1.1684201 -0.42575401 1.630018
1.1697201 -0.41920602 1.6296719
1.17374 -0.41318902 1.630875
1.1874501 -0.40893701 1.6264762
1.20154 -0.40790099 1.624738
1.08934 -0.53130603 1.6296761
1.09481 -0.52736598 1.630127
1.1079299 -0.525392 1.6288921
1.11498 -0.520356 1.627393
1.13544 -0.51968598 1.6234689
1.15443 -0.51823002 1.619758
1.16223 -0.51306802 1.620576
1.1674501 -0.42528197 1.6246639
1.16861 -0.42051399 1.6243421
1.1757901 -0.41345403 1.624375
1.1866001 -0.40765399 1.62181
1.20319 -0.40717202 1.6198159
1.2111 -0.404982 1.6175799
1.0865 -0.52741301 1.6263791
1.1018901 -0.52515799 1.624588
1.12625 -0.52583003 1.619454
1.14458 -0.52386004 1.615957
1.1525 -0.51968199 1.614295
1.16058 -0.51675999 1.6136391
1.1645501 -0.42416301 1.620072
1.16483 -0.419678 1.6203312
1.16873 -0.41450199 1.620047
1.17901 -0.40848801 1.61854
1.20162 -0.40639001 1.615503
1.21631 -0.40494701 1.6131231
1.09219 -0.53025103 1.620181
1.1122899 -0.52950001 1.616994
1.14448 -0.53329897 1.6095511
1.15047 -0.52561003 1.6103461
1.15915 -0.52236599 1.60847
1.16278 -0.51851898 1.607653
1.16429 -0.42403001 1.6149451
1.16391 -0.41880199 1.615784
1.17111 -0.41293702 1.61435
1.17704 -0.40726602 1.6136791
1.21227 -0.40678298 1.611539
1.1104599 -0.53912199 1.61035
1.14402 -0.54520696 1.6026199
1.15222 -0.53861099 1.6028301
1.1546299 -0.528732 1.605227
1.16274 -0.52429402 1.6041681
1.17625 -0.52450699 1.6015109
1.16223 -0.422683 1.609935
1.16589 -0.41728601 1.6096569
1.1717 -0.41158101 1.608896
1.17597 -0.40821701 1.608559
1.1017801 -0.54460996 1.606369
1.1375099 -0.552342 1.599048
1.1655101 -0.42471501 1.602949
1.1627899 -0.41874599 1.6052389
1.1665 -0.41305 1.603907
1.17284 -0.40883499 1.6042199
1.16548 -0.42491999 1.598367
1.1640201 -0.41943401 1.5993021
1.16501 -0.41257501 1.5982502
1.16816 -0.40788701 1.5988339
1.2299401 -0.48629501 1.570469
1.23532 -0.47864699 1.5703851
1.23537 -0.47320202 1.571156
1.16451 -0.42373401 1.594017
1.1613899 -0.41624698 1.5936279
1.1638 -0.40970799 1.5942169
1.1671801 -0.40634602 1.594172
1.22797 -0.485322 1.567682
1.22657 -0.47646701 1.5691381
1.23151 -0.47234699 1.5691391
1.16285 -0.42259103 1.5877581
1.1547199 -0.41384998 1.5893649
1.15754 -0.408411 1.5904089
1.16531 -0.40592998 1.5901531
1.22982 -0.49630001 1.5621451
1.2289 -0.48766398 1.5637939
1.22706 -0.4781 1.564463
1.2258101 -0.470586 1.5653311
1.1610501 -0.42275798 1.5826449
1.15057 -0.413899 1.58509
1.15431 -0.408106 1.58564
1.15569 -0.40339801 1.5872689
1.22866 -0.48543203 1.560021
1.2255501 -0.47446099 1.560621
1.22588 -0.469621 1.5607269
1.15386 -0.419577 1.579028
1.14763 -0.412637 1.5810671
1.14512 -0.40530801 1.582026
1.15389 -0.402982 1.5821301
1.23699 -0.479693 1.555092
1.2292199 -0.47110599 1.557144
1.15511 -0.41987202 1.5723519
1.14465 -0.410308 1.5769409
1.1396199 -0.40117002 1.5780251
1.1459 -0.399259 1.5783529
1.15509 -0.42071998 1.5666831
1.14903 -0.41328299 1.569942
1.1348701 -0.400141 1.574326
1.14027 -0.39483601 1.573544
1.1621701 -0.42391998 1.5597211
1.15558 -0.417243 1.563512
1.13537 -0.402136 1.569149
1.1278601 -0.38922402 1.5711521
1.12993 -0.38315898 1.5708591
1.14907 -0.38206601 1.563954
1.1689299 -0.42717201 1.5523901
1.1581501 -0.41904098 1.558171
1.11839 -0.389617 1.568728
1.1162 -0.383203 1.56981
1.13613 -0.38335702 1.564711
1.15838 -0.38172698 1.557092
1.18146 -0.38313702 1.5507541
1.1693801 -0.42798302 1.546488
1.1676201 -0.42427701 1.54948
1.1121601 -0.38636699 1.565773
1.1171499 -0.383349 1.565001
1.1444401 -0.38396999 1.557008
1.16655 -0.38314399 1.550585
1.1762201 -0.380997 1.548694
1.1732399 -0.42992401 1.539736
1.1679 -0.42515901 1.5433639
1.1095999 -0.38522598 1.5618951
1.11833 -0.38322103 1.558997
1.16067 -0.38644001 1.5469031
1.17717 -0.38495898 1.543394
1.1831 -0.38233602 1.5423331
1.17197 -0.429144 1.5352349
1.16809 -0.42508203 1.5369241
1.11456 -0.38680401 1.554297
1.1328501 -0.38576198 1.5496951
1.1605899 -0.38775799 1.542538
1.17144 -0.38518298 1.5399231
1.1825 -0.38325801 1.537115
1.17206 -0.42970699 1.5298761
1.16725 -0.42518601 1.531553
1.10237 -0.38399202 1.5524859
1.10683 -0.38220403 1.5512201
1.1666501 -0.38862899 1.537212
1.17851 -0.386785 1.533164
1.1875499 -0.38575199 1.530663
1.3060601 -0.38100299 1.494158
1.31725 -0.37420601 1.492624
1.3306 -0.37133998 1.489108
1.1708699 -0.42987701 1.5243131
1.1672699 -0.42538601 1.5257682
1.09741 -0.382732 1.549144
1.09369 -0.378737 1.5490052
1.17951 -0.390726 1.529297
1.18751 -0.38952401 1.5269431
1.26801 -0.402197 1.497461
1.2673401 -0.39466 1.49874
1.2809399 -0.38631698 1.4966071
1.29875 -0.381291 1.4924731
1.31285 -0.37511501 1.490501
1.32552 -0.370639 1.488103
1.33092 -0.36587399 1.485321
1.17723 -0.49170899 1.507272
1.16889 -0.48151198 1.5104691
1.171 -0.473847 1.511348
1.1718299 -0.465029 1.5117191
1.16731 -0.45121497 1.5141461
1.1725299 -0.44297299 1.514917
1.16947 -0.43205899 1.51819
1.1616 -0.42366001 1.5217661
1.09247 -0.38059503 1.5450481
1.08526 -0.37597698 1.5471771
1.18267 -0.39161301 1.5254941
1.2603 -0.40455502 1.496568
1.25841 -0.39881 1.497431
1.2666 -0.39227298 1.4960021
1.28273 -0.38628399 1.492113
1.29808 -0.381926 1.488979
1.30735 -0.37580502 1.487321
1.32775 -0.37031701 1.482319
1.33895 -0.36264703 1.476943
1.15668 -0.51531702 1.503708
1.15442 -0.507851 1.505473
1.15659 -0.498153 1.5065521
1.16176 -0.48756301 1.5083721
1.16166 -0.47942403 1.508744
1.16783 -0.47211799 1.509419
1.16459 -0.45947498 1.5105569
1.16266 -0.44837001 1.512606
1.17005 -0.44219899 1.512568
1.16254 -0.43066299 1.514544
1.1599801 -0.42228803 1.5167481
1.0947599 -0.381616 1.540676
1.08462 -0.37536499 1.5443261
1.25631 -0.40330502 1.493836
1.25892 -0.39834401 1.4923252
1.26658 -0.39126098 1.49181
1.27792 -0.38746202 1.4887201
1.2965699 -0.38211101 1.485589
1.32332 -0.37433201 1.4784011
1.3356799 -0.36666301 1.4738932
1.14887 -0.53278601 1.4979481
1.1419001 -0.522461 1.5016211
1.14635 -0.51220101 1.503328
1.14802 -0.503344 1.5051972
1.15028 -0.49623299 1.5049001
1.1579 -0.48858699 1.504292
1.15887 -0.47888499 1.505383
1.16471 -0.47086701 1.5048159
1.16224 -0.45883501 1.5067661
1.16066 -0.45015201 1.509272
1.1643801 -0.441939 1.5095849
1.16233 -0.43237099 1.5107611
1.15583 -0.42003 1.5140381
1.1445 -0.40992299 1.517652
1.0841401 -0.375303 1.5419079
1.2501 -0.401903 1.4897901
1.2516999 -0.39810398 1.4884561
1.26355 -0.39313301 1.4878561
1.28433 -0.38917598 1.484277
1.13543 -0.550735 1.4929481
1.13273 -0.53991598 1.4961489
1.13495 -0.52814096 1.4986691
1.14238 -0.52047902 1.4986459
1.1439199 -0.51137298 1.4993851
1.14947 -0.504152 1.5002911
1.1515499 -0.49517798 1.5009429
1.15678 -0.48983699 1.4992211
1.1610299 -0.48067701 1.500097
1.16566 -0.47177601 1.4992059
1.16478 -0.46271801 1.5018561
1.1620899 -0.45167598 1.5051221
1.15083 -0.43674099 1.510748
1.1361901 -0.40916303 1.517674
1.13572 -0.40488899 1.517833
1.24772 -0.40197498 1.4842169
1.25292 -0.399185 1.484046
1.11788 -0.56417501 1.490995
1.12036 -0.55284804 1.4928269
1.12489 -0.54378504 1.4941721
1.12863 -0.53521502 1.4949831
1.13219 -0.527798 1.495073
1.13578 -0.521213 1.4962091
1.14468 -0.51510501 1.4943221
1.1471701 -0.50608397 1.49589
1.1524199 -0.497821 1.49591
1.1579599 -0.48905399 1.495695
1.17169 -0.48247102 1.4932901
1.17615 -0.47569302 1.493083
1.17057 -0.46581402 1.4968209
1.24235 -0.401564 1.48132
1.24831 -0.399847 1.480406
1.11485 -0.55937499 1.489899
1.11612 -0.55184197 1.4908631
1.12297 -0.54674 1.4894531
1.12737 -0.53882402 1.4906671
1.13061 -0.53145403 1.490593
1.13621 -0.52290797 1.491495
1.1487499 -0.51680303 1.4897439
1.1546299 -0.50884897 1.490242
1.16333 -0.50186801 1.4893351
1.24401 -0.39932001 1.4784399
1.11332 -0.56147403 1.4859341
1.11631 -0.55276698 1.487064
1.12094 -0.54639304 1.485625
1.12639 -0.53911501 1.486136
1.1333001 -0.53316396 1.485937
1.12151 -0.57742399 1.4776061
1.11935 -0.56736201 1.480056
1.11745 -0.55381 1.4831061
1.1226799 -0.54443097 1.4829669
1.13291 -0.54074597 1.4812801
1.1524199 -0.41982499 1.4755841
1.1624199 -0.41724998 1.4729941
1.1625 -0.40979999 1.4745669
1.1624199 -0.40494099 1.475492
1.16522 -0.42584598 1.467505
1.16282 -0.41783297 1.4695331
1.16395 -0.411199 1.4707659
1.16335 -0.40570998 1.4724951
1.16965 -0.44185501 1.4584161
1.17019 -0.43651599 1.4595542
1.16596 -0.42822102 1.4622351
1.16435 -0.42047101 1.4649041
1.1646199 -0.41284099 1.465065
1.16466 -0.407074 1.4673071
1.17864 -0.44187099 1.4523159
1.1698899 -0.43237001 1.4557769
1.16585 -0.420737 1.4585339
1.16679 -0.41294101 1.4591161
1.16684 -0.40786898 1.4598891
1.16853 -0.44379002 1.445701
1.1746399 -0.439832 1.447377
1.16781 -0.42845002 1.4516001
1.16398 -0.419384 1.454053
1.16581 -0.41273999 1.4539371
1.1657 -0.40697497 1.4545401
1.16415 -0.44455397 1.4425
1.1700801 -0.44000703 1.4424732
1.17186 -0.431573 1.444162
1.16512 -0.42007101 1.448913
1.16892 -0.41394299 1.446468
1.1681 -0.407644 1.4477459
1.18841 -0.49825099 1.419126
1.1959 -0.49394199 1.4177819
1.18808 -0.48197103 1.421752
1.16343 -0.45454398 1.435117
1.15988 -0.44609401 1.4390851
1.16716 -0.44196099 1.4373651
1.1701599 -0.43292701 1.4383459
1.16749 -0.42092201 1.4414802
1.1687 -0.41216499 1.4413409
1.1676999 -0.40685999 1.442288
1.19245 -0.50734198 1.412545
1.18916 -0.49972901 1.415936
1.18686 -0.490145 1.418092
1.18317 -0.47791198 1.4204471
1.17434 -0.46381402 1.4261749
1.1641201 -0.44951198 1.433253
1.17184 -0.44496199 1.429845
1.17053 -0.43538702 1.4319021
1.1711299 -0.42564601 1.433374
1.17001 -0.415503 1.434726
1.16749 -0.40739 1.436362
1.1926301 -0.51381999 1.4083749
1.19163 -0.50852901 1.409068
1.18893 -0.49927101 1.4120179
1.1828901 -0.48862597 1.4153501
1.18341 -0.48060501 1.415977
1.17716 -0.46661597 1.419539
1.17123 -0.45315799 1.4252661
1.17322 -0.44262502 1.4241101
1.17044 -0.43145001 1.4276761
1.16838 -0.42153198 1.4288461
1.1658599 -0.41168702 1.4300781
1.16731 -0.40706903 1.4305301
1.20477 -0.51509398 1.4012201
1.19119 -0.50132704 1.406971
1.18444 -0.488042 1.4107159
1.17883 -0.475499 1.413682
1.18001 -0.46655101 1.4132611
1.17539 -0.454487 1.417838
1.1764901 -0.44389001 1.416507
1.16922 -0.43017799 1.422101
1.1649899 -0.41784 1.4246001
1.1681 -0.41214502 1.42391
1.16518 -0.40649602 1.4255981
1.18924 -0.49076697 1.405529
1.1817501 -0.477193 1.409134
1.17996 -0.46653098 1.410282
1.1806301 -0.45604599 1.4112201
1.17735 -0.442449 1.411566
1.1724 -0.43210399 1.414394
1.16453 -0.42066899 1.419564
1.16388 -0.41152301 1.419953
1.1662899 -0.40702701 1.4194599
1.17211 -0.43015599 1.4086701
1.16564 -0.419608 1.4131621
1.16608 -0.41207299 1.413584
1.1650901 -0.40694401 1.414112
1.16933 -0.42735001 1.404153
1.16693 -0.42076698 1.40539
1.16466 -0.41202 1.4089611
1.16625 -0.407177 1.4068631
1.16695 -0.42535198 1.3999139
1.16528 -0.41972697 1.39985
1.1653501 -0.41243899 1.401226
1.1686699 -0.407785 1.400345
1.1643599 -0.42322701 1.3946831
1.16149 -0.416879 1.3971311
1.16329 -0.41200802 1.3957971
1.16623 -0.40761003 1.3953311
1.16544 -0.423536 1.3871071
1.16206 -0.41727501 1.3915161
1.1649899 -0.41185501 1.389879
1.16746 -0.40780899 1.38843
1.16239 -0.422961 1.381909
1.1629 -0.417478 1.384678
1.16321 -0.41076699 1.3855661
1.15957 -0.405902 1.386812
1.1605 -0.42267799 1.3768342
1.1626 -0.41927102 1.3786731
1.16109 -0.41295102 1.3803619
1.16065 -0.42267299 1.370901
1.15959 -0.41821203 1.374426
1.1594 -0.41428003 1.373386
1.1606801 -0.42360401 1.3648111
1.16155 -0.41964099 1.36729
1.15418 -0.41379002 1.370049
1.16128 -0.42437401 1.359509
1.16097 -0.420948 1.360719
1.15913 -0.42391601 1.355149
1.1552501 -0.41961899 1.355553
1.1547199 -0.42271301 1.3500199
1.15222 -0.41922101 1.3511831
1.15081 -0.42125303 1.346315
1.14777 -0.41770598 1.34797
1.14162 -0.41846502 1.3465201
1.13492 -0.41318402 1.3497231
1.13116 -0.414419 1.3484939
1.2611099 -0.34429199 1.709466
1.17527 -0.45958698 1.7056091
1.16633 -0.446859 1.7088971
1.16898 -0.44043201 1.708289
1.16431 -0.427205 1.709707
1.1894699 -0.41140097 1.708588
1.26969 -0.36095902 1.707641
1.26184 -0.34352002 1.7050672
1.17282 -0.46697798 1.6999301
1.16207 -0.45444301 1.7033222
1.1664 -0.448387 1.7037201
1.16327 -0.436544 1.704226
1.16729 -0.42869201 1.703858
1.17151 -0.419983 1.7051281
1.17863 -0.41221297 1.7036591
1.18905 -0.41106799 1.7029461
1.15939 -0.460401 1.6980671
1.1621701 -0.45450297 1.6994601
1.16048 -0.445023 1.699337
1.1656801 -0.43602699 1.6983701
1.16792 -0.42583197 1.70005
1.1744599 -0.41881999 1.698524
1.17652 -0.41113299 1.698826
1.1844001 -0.40951699 1.6979311
1.15062 -0.46669701 1.690462
1.14931 -0.45941103 1.6924961
1.1587501 -0.454615 1.6946139
1.16041 -0.44554502 1.693714
1.16967 -0.43865299 1.6919769
1.17004 -0.42794898 1.6945779
1.1727201 -0.42019001 1.6930361
1.17585 -0.41173801 1.693656
1.18223 -0.40783 1.6919892
1.14103 -0.46303698 1.688334
1.14635 -0.45962501 1.688676
1.15266 -0.45428699 1.689344
1.16749 -0.44961101 1.6878891
1.1756901 -0.43967 1.6871741
1.1713099 -0.42833301 1.6891299
1.17133 -0.41714099 1.6878301
1.17492 -0.408786 1.6880881
1.18186 -0.406699 1.6874471
1.12922 -0.46984002 1.6819061
1.13116 -0.46345901 1.6835201
1.14253 -0.46001202 1.6843451
1.1519001 -0.45575699 1.6844181
1.17085 -0.42571899 1.6842121
1.1668 -0.41612899 1.68278
1.1703601 -0.40912497 1.682482
1.17614 -0.40486801 1.683814
1.12603 -0.47827703 1.676649
1.12158 -0.46799499 1.6792129
1.13234 -0.465022 1.678925
1.1437 -0.46301401 1.6780841
1.1662 -0.42078799 1.6790701
1.1654299 -0.414065 1.6778672
1.1649801 -0.40640301 1.676955
1.16873 -0.40245998 1.678979
1.1249 -0.486673 1.671301
1.11672 -0.47522202 1.6742182
1.12402 -0.470965 1.674086
1.14029 -0.46968201 1.6720821
1.16087 -0.473847 1.6691031
1.1618 -0.41794699 1.673759
1.16101 -0.41154498 1.6727819
1.15634 -0.402062 1.6733301
1.1612899 -0.39885798 1.6735519
1.1113501 -0.480014 1.6701831
1.11598 -0.47677398 1.669409
1.12231 -0.47248799 1.668504
1.1646399 -0.479348 1.6619811
1.2025499 -0.46615398 1.654181
1.1922699 -0.455006 1.6561551
1.1627899 -0.42021701 1.665905
1.159 -0.40893298 1.668081
1.15768 -0.401097 1.669409
1.16224 -0.39874402 1.667438
1.1025701 -0.48738399 1.6626489
1.10633 -0.48139098 1.664535
1.11441 -0.47750899 1.663697
1.13069 -0.479072 1.6602371
1.1720099 -0.48370099 1.653476
1.17761 -0.47887799 1.653957
1.1805 -0.46970099 1.6529021
1.18576 -0.458556 1.6537421
1.17959 -0.443391 1.655811
1.1679699 -0.42571601 1.6587812
1.16427 -0.41380501 1.661465
1.1624199 -0.40409499 1.6637092
1.16689 -0.40122399 1.66097
1.09903 -0.496535 1.6568741
1.09578 -0.486352 1.6596011
1.10842 -0.48438799 1.658667
1.13143 -0.48652899 1.6548309
1.15859 -0.48883203 1.6500591
1.1683899 -0.48338401 1.6496201
1.17372 -0.47593799 1.649533
1.18011 -0.46553001 1.64948
1.17923 -0.452663 1.6507699
1.17713 -0.44297698 1.6517401
1.1716501 -0.43167302 1.6532902
1.1679699 -0.41809699 1.654444
1.16827 -0.40790698 1.6568122
1.1736 -0.40422001 1.654084
1.0903 -0.50181597 1.6521801
1.09218 -0.495442 1.653879
1.10267 -0.49173599 1.653555
1.12054 -0.49200901 1.651011
1.15914 -0.49904799 1.643685
1.16895 -0.49495998 1.64323
1.16871 -0.48442298 1.644474
1.17146 -0.47560501 1.6449561
1.17647 -0.46894798 1.6447061
1.18121 -0.45906898 1.644664
1.17661 -0.44286799 1.646655
1.16593 -0.426 1.6500369
1.16694 -0.41754398 1.6489681
1.17119 -0.40939602 1.649267
1.17303 -0.40377399 1.649199
1.07996 -0.498117 1.6500189
1.0866101 -0.49590099 1.6496561
1.12749 -0.50193298 1.6443121
1.1471801 -0.50497198 1.640079
1.16146 -0.50350398 1.63748
1.1713901 -0.497082 1.637377
1.17083 -0.486045 1.639007
1.17352 -0.477469 1.6397781
1.17961 -0.46847302 1.6393991
1.1784201 -0.454851 1.6408881
1.17628 -0.44112501 1.64149
1.1665699 -0.42589599 1.644866
1.16848 -0.41514301 1.643455
1.17611 -0.410593 1.642994
1.1779599 -0.40550998 1.642939
1.08103 -0.509579 1.642756
1.08262 -0.50292301 1.6440649
1.0982801 -0.505615 1.6407791
1.14386 -0.51305401 1.6337219
1.15681 -0.50960702 1.632926
1.1690899 -0.50609702 1.632059
1.17477 -0.49989602 1.631107
1.17484 -0.48861399 1.634115
1.18121 -0.480726 1.6342999
1.18863 -0.471995 1.6345919
1.1891201 -0.45226899 1.6366532
1.16759 -0.423143 1.638497
1.17058 -0.41558799 1.6372631
1.17457 -0.40850103 1.6379361
1.18677 -0.40679002 1.6349781
1.07055 -0.51344502 1.63837
1.07626 -0.50917798 1.639187
1.09786 -0.512263 1.635802
1.12152 -0.51451302 1.631708
1.14002 -0.51596701 1.6280341
1.15166 -0.51239604 1.627599
1.16759 -0.50868601 1.6272391
1.18599 -0.50714403 1.625654
1.18387 -0.49533299 1.628378
1.1652501 -0.42067298 1.6322712
1.16895 -0.41707402 1.633093
1.1738501 -0.410041 1.6316251
1.18599 -0.40617198 1.6303821
1.19986 -0.40709499 1.6277601
1.07528 -0.51233298 1.6342081
1.12358 -0.52235001 1.6261051
1.1368099 -0.52249199 1.623093
1.14649 -0.51856798 1.6221061
1.1528701 -0.51379198 1.6218469
1.16878 -0.42185003 1.626398
1.16825 -0.415934 1.627465
1.1753601 -0.410272 1.6250781
1.18197 -0.405321 1.6260819
1.19569 -0.40544498 1.623256
1.0756199 -0.51749098 1.628648
1.14245 -0.53404403 1.6144141
1.14403 -0.5248 1.616418
1.14943 -0.51931399 1.616818
1.15694 -0.51902097 1.6139721
1.16725 -0.420046 1.621637
1.1681401 -0.414267 1.622381
1.1767501 -0.41158 1.6197361
1.18292 -0.40560699 1.6199552
1.19651 -0.40542999 1.616443
1.1497899 -0.531515 1.609212
1.15135 -0.522744 1.61103
1.15845 -0.52176797 1.6084399
1.16522 -0.419561 1.6154941
1.17063 -0.41613498 1.6167331
1.17434 -0.40936601 1.615428
1.18232 -0.40411201 1.614243
1.1976 -0.40583801 1.611424
1.1564 -0.528795 1.6049371
1.1635801 -0.41931 1.6109149
1.1670201 -0.41485402 1.6110981
1.17294 -0.40788898 1.6094891
1.18049 -0.40388599 1.609841
1.1634201 -0.41839299 1.606185
1.1665 -0.41292801 1.6046231
1.16829 -0.40679002 1.605252
1.1753601 -0.40457803 1.6042511
1.16159 -0.417054 1.599696
1.1656899 -0.412743 1.5989391
1.1676201 -0.40696999 1.6008791
1.17291 -0.40441599 1.5981851
1.23446 -0.49826699 1.5694062
1.2315899 -0.488024 1.570634
1.23431 -0.48196203 1.569834
1.15806 -0.41652697 1.595041
1.1618199 -0.412909 1.5940861
1.16816 -0.407781 1.5949231
1.17249 -0.40440601 1.592079
1.2305501 -0.495985 1.567256
1.2299199 -0.48465598 1.567858
1.22615 -0.476188 1.5683099
1.1550801 -0.41507801 1.590676
1.15678 -0.41054699 1.5893821
1.16478 -0.40671101 1.5892081
1.17497 -0.40518901 1.58564
1.2267801 -0.489577 1.563717
1.22419 -0.47934398 1.565135
1.2286299 -0.47642601 1.5630521
1.15116 -0.412094 1.5853469
1.1595501 -0.40934899 1.584154
1.16907 -0.406611 1.5828022
1.17495 -0.40455699 1.5801291
1.22737 -0.49266103 1.5591691
1.2277501 -0.48191601 1.559552
1.22885 -0.47689202 1.559083
1.1449701 -0.409215 1.5802121
1.15099 -0.406986 1.5809711
1.1656801 -0.40575299 1.5775321
1.18077 -0.40727299 1.574154
1.2378 -0.48862597 1.5539211
1.2325599 -0.47933602 1.555613
1.13256 -0.40310699 1.577269
1.14625 -0.40350601 1.576178
1.16273 -0.403541 1.5721761
1.1709599 -0.40258801 1.5720379
1.11695 -0.39666998 1.5757589
1.12989 -0.39713001 1.5740221
1.14521 -0.39623797 1.571159
1.16626 -0.40020698 1.567313
1.10611 -0.391911 1.574415
1.1085299 -0.388531 1.574214
1.12904 -0.39044201 1.5693481
1.15457 -0.39240897 1.5629519
1.2010701 -0.395944 1.5481131
1.10013 -0.38838199 1.571969
1.10596 -0.38540298 1.569922
1.13515 -0.389882 1.5617709
1.1626201 -0.391992 1.5551751
1.18471 -0.392452 1.550137
1.2020401 -0.39091501 1.5453711
1.22013 -0.39342201 1.541025
1.09672 -0.38575402 1.5678531
1.1084 -0.38624099 1.5638431
1.12551 -0.387528 1.5592489
1.16212 -0.39296901 1.5498691
1.17617 -0.390466 1.54822
1.19243 -0.38856098 1.543627
1.2088 -0.38889998 1.5405499
1.0982801 -0.38642201 1.561955
1.1126599 -0.389193 1.557008
1.16545 -0.398233 1.5426049
1.1662101 -0.39355099 1.54388
1.17751 -0.39112201 1.542179
1.18889 -0.38703701 1.5386059
1.20249 -0.386632 1.5360589
1.10144 -0.38777599 1.5550799
1.11789 -0.39095601 1.5490661
1.16357 -0.39911801 1.538227
1.1675299 -0.39461699 1.5386041
1.1805301 -0.39093 1.535529
1.19245 -0.38744801 1.532743
1.20399 -0.38662899 1.5299231
1.11651 -0.39042801 1.5447211
1.1509 -0.396552 1.536171
1.1687 -0.39400902 1.533335
1.1830001 -0.391839 1.5296539
1.19469 -0.38871801 1.5278281
1.21135 -0.38974398 1.524528
1.30415 -0.39368999 1.4946851
1.3132401 -0.38881502 1.49352
1.3205 -0.38157502 1.4919831
1.3316001 -0.37665799 1.4889841
1.17818 -0.485378 1.509195
1.18445 -0.48143199 1.508728
1.18345 -0.47382501 1.5096661
1.18156 -0.46374801 1.5111129
1.1578701 -0.44080299 1.5187051
1.0913401 -0.38374802 1.5451541
1.11264 -0.38915297 1.541298
1.16587 -0.40059102 1.5256341
1.1693901 -0.395596 1.527709
1.18759 -0.39642501 1.5233951
1.25819 -0.407585 1.4990021
1.27452 -0.40911302 1.4951612
1.27247 -0.40005797 1.4967901
1.28304 -0.39101601 1.4958191
1.29834 -0.38668597 1.4944091
1.3100301 -0.38187698 1.4916871
1.3243401 -0.37492901 1.487543
1.3348399 -0.36894903 1.484718
1.15749 -0.52092701 1.503299
1.1540799 -0.511217 1.5054071
1.15562 -0.50181502 1.506853
1.1574501 -0.49278 1.508201
1.1605999 -0.48162299 1.5100549
1.16734 -0.473699 1.5107001
1.16856 -0.46235698 1.5118701
1.1669899 -0.45176801 1.513566
1.1633101 -0.44390202 1.5150931
1.08125 -0.380265 1.54233
1.09582 -0.38383499 1.5404141
1.1661201 -0.40023899 1.5202591
1.16994 -0.39766601 1.520728
1.23816 -0.40887299 1.496313
1.26388 -0.41165501 1.4939121
1.2597001 -0.40307799 1.496243
1.27086 -0.39719102 1.493944
1.2781 -0.39055002 1.4925901
1.2939999 -0.38613099 1.490538
1.31075 -0.37979802 1.486667
1.32463 -0.37290502 1.4823542
1.33575 -0.36745998 1.4802201
1.1476799 -0.539841 1.4973252
1.13972 -0.52744204 1.5013421
1.14375 -0.51670897 1.5035571
1.1444499 -0.50757802 1.504727
1.15029 -0.498676 1.505128
1.15237 -0.487142 1.5077012
1.15583 -0.47785801 1.508921
1.15704 -0.466488 1.511029
1.1577101 -0.45632499 1.5125421
1.16285 -0.44981399 1.51271
1.16238 -0.44375098 1.5133511
1.06793 -0.37498501 1.540758
1.0809799 -0.37820899 1.5392641
1.1677101 -0.40182799 1.514068
1.1711 -0.40018901 1.5135189
1.24017 -0.41063201 1.492274
1.24927 -0.40740898 1.492648
1.2602201 -0.401353 1.491279
1.2713799 -0.39583197 1.489643
1.28021 -0.39026299 1.488094
1.2954899 -0.38446602 1.4859231
1.31373 -0.37761602 1.4819721
1.33138 -0.37237301 1.47649
1.33452 -0.36616001 1.476161
1.1342601 -0.55925798 1.490859
1.1349 -0.54888999 1.4935501
1.13371 -0.53430599 1.4978451
1.13868 -0.52525401 1.4982269
1.1396099 -0.51349699 1.5012201
1.14412 -0.50619102 1.5003079
1.14797 -0.498366 1.4997101
1.15203 -0.490545 1.502799
1.1410199 -0.46545202 1.5122241
1.16444 -0.40022999 1.5093991
1.17089 -0.40040001 1.5074021
1.23225 -0.40822497 1.4893951
1.24266 -0.40734798 1.48905
1.25137 -0.402917 1.4873959
1.26651 -0.39689702 1.4858731
