# .PCD v0.7 - Point Cloud Data file format
VERSION 0.7
FIELDS x y z
SIZE 4 4 4
TYPE F F F
COUNT 1 1 1
WIDTH 1571
HEIGHT 1
VIEWPOINT 0 0 0 1 0 0 0
POINTS 1571
DATA ascii
1.15084 -0.46832901 0.93392599
1.1581199 -0.45818803 0.93590605
1.16417 -0.44930199 0.93956298
1.16413 -0.43429601 0.94428098
1.16422 -0.42106098 0.94797403
1.1975 -0.41020098 0.93717408
1.20292 -0.40264598 0.93683106
1.20796 -0.39444301 0.93842298
1.13349 -0.493222 0.91965604
1.13661 -0.48333099 0.92635202
1.14245 -0.47762698 0.92635804
1.14495 -0.46819901 0.92852205
1.15282 -0.46112201 0.93028903
1.1607701 -0.44699299 0.93536705
1.15593 -0.42474097 0.944507
1.1567401 -0.41756901 0.944879
1.20522 -0.40118098 0.92688805
1.20805 -0.39282599 0.93020201
1.22146 -0.38894501 0.92056602
1.12699 -0.494389 0.91509402
1.13377 -0.48578998 0.91778207
1.1382 -0.47464299 0.92233706
1.14583 -0.47156897 0.92081606
1.14924 -0.41639099 0.94507003
1.15817 -0.418493 0.939215
1.20657 -0.398334 0.91544801
1.20766 -0.38938901 0.92080903
1.22104 -0.38594398 0.91317099
1.34152 -0.32433701 0.86708933
1.34563 -0.31411201 0.86837524
1.12966 -0.485264 0.91161102
1.1348701 -0.47857499 0.91342509
1.20964 -0.40048999 0.90312105
1.20717 -0.38990298 0.91064608
1.2131701 -0.381511 0.91117704
1.22875 -0.37977201 0.90378106
1.29828 -0.35748798 0.86961043
1.3031501 -0.34367698 0.87270242
1.31133 -0.33430901 0.87310034
1.3212199 -0.32485801 0.87179506
1.3320199 -0.31707999 0.87064558
1.3365101 -0.30940202 0.87005126
1.3478501 -0.303624 0.86501497
1.1265301 -0.48526999 0.90512103
1.1366 -0.48604 0.90004301
1.2129101 -0.403276 0.89111102
1.20796 -0.39133799 0.90053004
1.20847 -0.37918401 0.90542704
1.2215101 -0.37437499 0.90041506
1.28479 -0.35965002 0.87081254
1.2952499 -0.35092601 0.86900502
1.30235 -0.34164903 0.86833465
1.3091999 -0.33326098 0.86970448
1.3173399 -0.32548302 0.86647362
1.3263099 -0.31461599 0.86654687
1.33666 -0.306842 0.86475748
1.3420799 -0.299456 0.86208433
1.21637 -0.40566701 0.87959135
1.21076 -0.393453 0.88922697
1.20709 -0.37989199 0.89800298
1.2142501 -0.370038 0.89593005
1.23172 -0.36789399 0.88866907
1.28844 -0.35128602 0.86649913
1.29775 -0.34367001 0.86410815
1.3063201 -0.33186698 0.8636753
1.3173 -0.32155201 0.86100191
1.32748 -0.31364301 0.85759771
1.33279 -0.30438998 0.85979354
1.22189 -0.40900001 0.86775833
1.21376 -0.394849 0.87795848
1.2075701 -0.37677503 0.88926297
1.21059 -0.364086 0.89065605
1.22218 -0.360695 0.88714302
1.2412699 -0.36239102 0.87809592
1.2862101 -0.34911999 0.86261582
1.2980299 -0.33936298 0.86039084
1.3039999 -0.330475 0.85996473
1.3126401 -0.32398498 0.85780072
1.32215 -0.314522 0.85540092
1.2128299 -0.39173999 0.87047786
1.2092099 -0.37880099 0.87766594
1.20768 -0.36320099 0.88473123
1.21496 -0.356148 0.88466626
1.23479 -0.35622397 0.87377608
1.25694 -0.35954103 0.86251539
1.21499 -0.38987499 0.86070418
1.21017 -0.37832803 0.86785579
1.20842 -0.36452201 0.87462687
1.21369 -0.35299301 0.87703425
1.22919 -0.35156 0.86759776
1.24244 -0.35323101 0.86294526
1.21121 -0.376744 0.85840774
1.20953 -0.36589 0.86432493
1.20854 -0.35272399 0.87106359
1.21859 -0.34685299 0.86576772
1.2330899 -0.34830397 0.86006224
1.21193 -0.37420398 0.84789521
1.211 -0.36700001 0.85444772
1.20915 -0.35235199 0.86089385
1.2136 -0.34148997 0.85966873
1.2268 -0.34430501 0.8552345
1.3050799 -0.30725402 0.8208487
1.31074 -0.30250901 0.81943542
1.21451 -0.37451801 0.83643562
1.21184 -0.36394799 0.8450582
1.20569 -0.3443 0.85522199
1.2121199 -0.33840901 0.85315645
1.21935 -0.33791301 0.85226721
1.30268 -0.30987498 0.81277418
1.30612 -0.303572 0.81321979
1.22378 -0.38139802 0.82040954
1.21517 -0.368018 0.83135867
1.21053 -0.351713 0.84086698
1.2044001 -0.33373201 0.85144162
1.20986 -0.33074 0.85153079
1.2664 -0.341429 0.80770963
1.2747 -0.34018099 0.80384254
1.28833 -0.31633499 0.80741334
1.29591 -0.30886498 0.80920875
1.2985801 -0.30245599 0.81096929
1.3073801 -0.295149 0.81345892
1.22095 -0.37229198 0.81703943
1.2188201 -0.36483601 0.82319242
1.19719 -0.327032 0.84869355
1.20293 -0.32555401 0.84796309
1.26562 -0.34048 0.80250275
1.2687401 -0.33515099 0.80240721
1.28268 -0.33154899 0.79735833
1.28476 -0.32013199 0.79953265
1.2892799 -0.311353 0.80269259
1.22501 -0.373218 0.80338526
1.22223 -0.36777002 0.81043512
1.1923001 -0.31939399 0.84456635
1.19652 -0.317828 0.8427816
1.2613701 -0.33572102 0.79832369
1.26562 -0.33158797 0.79756743
1.2775 -0.32750598 0.79244339
1.2825501 -0.31763101 0.7950173
1.2881199 -0.31457099 0.79253799
1.2325599 -0.376789 0.78865868
1.2266999 -0.36860803 0.79726136
1.194 -0.31780398 0.83384478
1.1946 -0.311692 0.83441317
1.25148 -0.326772 0.79835564
1.26582 -0.32949001 0.78944749
1.27413 -0.32343602 0.78531867
1.28067 -0.31713 0.78578949
1.22518 -0.361586 0.78908277
1.2039601 -0.32537898 0.81421721
1.19938 -0.31327701 0.82283098
1.20857 -0.31020901 0.81738436
1.2523 -0.320299 0.79055816
1.26413 -0.31746098 0.78482115
1.27731 -0.315308 0.77862549
1.2825301 -0.304288 0.77593875
1.29114 -0.293033 0.7726934
1.2946401 -0.28325701 0.77321398
1.30084 -0.27775699 0.77010882
1.22895 -0.359474 0.77529931
1.21986 -0.342904 0.78933448
1.2093199 -0.321504 0.80470377
1.20522 -0.30602801 0.81375694
1.22105 -0.303496 0.80539376
1.24984 -0.30808601 0.78718495
1.274 -0.30947399 0.77295953
1.28488 -0.30263999 0.76701528
1.2855 -0.29240802 0.77184397
1.29444 -0.284224 0.76809394
1.29934 -0.27475899 0.76596642
1.3025999 -0.27042601 0.76617968
1.2343299 -0.434894 0.72476393
1.2357399 -0.42901599 0.72607005
1.22991 -0.36077201 0.76343024
1.2256 -0.34770098 0.77398282
1.21865 -0.32973999 0.78641653
1.2073799 -0.30726001 0.80295324
1.2101799 -0.29764301 0.80628759
1.21434 -0.288416 0.8048715
1.26826 -0.30401301 0.77132398
1.27861 -0.298942 0.76591444
1.2880299 -0.29222098 0.76346725
1.2939999 -0.28106999 0.76161981
1.2975 -0.27222601 0.76230812
1.30153 -0.268594 0.76189715
1.23058 -0.42369401 0.72665209
1.2316999 -0.41517201 0.72878325
1.2335601 -0.40280399 0.73164016
1.2319599 -0.387804 0.73869044
1.23244 -0.370267 0.74708986
1.22821 -0.35177502 0.76062906
1.2249299 -0.335922 0.77018005
1.21505 -0.313052 0.78616875
1.2046 -0.28989401 0.80331594
1.1996701 -0.27499902 0.81032503
1.20113 -0.26666 0.80969834
1.2771801 -0.29807299 0.76234055
1.28484 -0.28972602 0.76000106
1.2943801 -0.282098 0.75586993
1.29758 -0.27302399 0.75762182
1.3002901 -0.26745701 0.75835586
1.2332801 -0.42245999 0.71912009
1.23327 -0.415907 0.72229463
1.23077 -0.39948899 0.72904569
1.22963 -0.38257998 0.73724174
1.2303801 -0.371185 0.73964429
1.22913 -0.35470402 0.74785173
1.2258899 -0.33903801 0.75948405
1.22786 -0.32779598 0.7605046
1.2015001 -0.28485 0.79912651
1.19441 -0.267988 0.80884826
1.1887699 -0.25394198 0.81547391
1.19023 -0.245781 0.81507707
1.22728 -0.405249 0.72252321
1.22804 -0.39547297 0.72409433
1.2265 -0.38150501 0.7308898
1.2256199 -0.36393201 0.73601073
1.2247599 -0.347978 0.74369645
1.2269599 -0.336923 0.74962908
1.23136 -0.32826599 0.74892598
1.2363 -0.32258499 0.74502558
1.19235 -0.264245 0.80414599
1.18468 -0.248262 0.81334609
1.22272 -0.38685799 0.72227305
1.22393 -0.375801 0.72529465
1.22208 -0.36204201 0.72814417
1.22341 -0.34888199 0.7353543
1.2235 -0.33644199 0.74301183
1.22896 -0.32689801 0.74248016
1.24027 -0.32239202 0.73292315
1.24036 -0.31555599 0.73689169
1.22707 -0.38653499 0.70918292
1.2197599 -0.37284601 0.72007525
1.22199 -0.36257401 0.71843028
1.22192 -0.34870702 0.72647643
1.22323 -0.33544102 0.73452711
1.2289 -0.32543701 0.73209894
1.2404699 -0.32203999 0.72371316
1.24641 -0.31723601 0.72275198
1.21943 -0.37039003 0.71288651
1.22225 -0.36128101 0.71177512
1.2189 -0.34784302 0.7202816
1.2225701 -0.33561599 0.72370219
1.22966 -0.32530701 0.72117889
1.2410901 -0.31942099 0.71491385
1.24535 -0.312969 0.71493936
1.22536 -0.37326598 0.70188904
1.21656 -0.341304 0.71657616
1.22137 -0.3319 0.71478522
1.2290599 -0.32418701 0.71184659
1.2411901 -0.32005599 0.70544791
1.24448 -0.3125 0.70912719
1.25488 -0.31366199 0.70213491
1.21567 -0.33567199 0.70866072
1.2207299 -0.33097801 0.70510954
1.23195 -0.32709399 0.70040965
1.2408999 -0.32022202 0.70044786
1.24869 -0.31679499 0.69904554
1.21369 -0.33459401 0.69877058
1.21856 -0.33234 0.69485766
1.2124 -0.33756199 0.68405896
1.21524 -0.33456698 0.68450105
1.20573 -0.34039101 0.67561805
1.2071099 -0.336326 0.67859507
1.21047 -0.3337 0.67768908
1.20479 -0.341488 0.66559905
1.2052701 -0.336178 0.67161202
1.20937 -0.33419299 0.66653705
1.20498 -0.33669201 0.66104805
1.18292 -0.40075001 1.166177
1.1901001 -0.40622899 1.1641641
1.20156 -0.41190201 1.163721
1.2122101 -0.41831002 1.165985
1.2246801 -0.42432597 1.1639251
1.1929001 -0.41896498 1.150815
1.21399 -0.41822499 1.1572421
1.227 -0.422304 1.1580991
1.229 -0.43308103 1.154946
1.1884301 -0.42487201 1.1373581
1.20846 -0.42078602 1.145712
1.22366 -0.42506999 1.149618
1.23335 -0.43054599 1.149852
1.1844699 -0.42761001 1.127354
1.2018 -0.42370099 1.13438
1.2185199 -0.42591599 1.138972
1.23153 -0.43175498 1.142424
1.18476 -0.42839199 1.1206501
1.25648 -0.48644599 1.110975
1.26315 -0.49885398 1.1058681
1.26763 -0.509893 1.10175
1.25737 -0.48893601 1.104213
1.26642 -0.497091 1.1029381
1.2703199 -0.50700402 1.099142
1.2771801 -0.51460201 1.097043
1.26652 -0.49780202 1.096369
1.27386 -0.50604898 1.0944141
1.2789 -0.51518202 1.091055
1.26572 -0.497035 1.0893559
1.27512 -0.50702798 1.0873671
1.20403 -0.41486001 1.0843331
1.2752 -0.50829703 1.080056
1.18468 -0.42511201 0.99073601
1.19391 -0.42613202 0.99323702
1.19052 -0.42175999 0.98819196
1.26317 -0.482142 0.98899704
1.17722 -0.419411 0.9773041
1.18445 -0.42138198 0.97805208
1.26697 -0.480575 0.98521399
1.15499 -0.41977799 0.95926702
1.17408 -0.41647702 0.96853399
1.18259 -0.419925 0.97150505
1.1978 -0.42065603 0.97667503
1.1601 -0.41654098 0.95667207
1.16661 -0.419554 0.95746005
1.1814901 -0.42008001 0.96483505
1.15897 -0.42294201 0.94736701
1.1738 -0.42185903 0.95435107
1.14564 -0.43030602 0.93490005
1.1622599 -0.42577499 0.94308603
1.21951 -0.37923101 0.902816
1.19982 -0.36378202 0.88969302
1.20259 -0.37514499 0.88984603
1.2192199 -0.378097 0.89701003
1.19765 -0.35790798 0.88427889
1.19714 -0.36914298 0.88241303
1.21278 -0.37478298 0.88859904
1.22844 -0.38154498 0.89266801
1.18353 -0.344964 0.87374735
1.1948 -0.34627399 0.87922293
1.1989601 -0.354011 0.88045889
1.19415 -0.367982 0.87578779
1.22043 -0.38464698 0.88349402
1.19459 -0.33678299 0.8756398
1.1980001 -0.34193 0.87554175
1.19446 -0.35390598 0.87215883
1.18879 -0.32401502 0.86378652
1.19605 -0.32974601 0.86798531
1.19541 -0.34023997 0.86775744
1.17669 -0.31720799 0.85194284
1.1926399 -0.31752002 0.86066455
1.19554 -0.324972 0.85879081
1.19999 -0.33160901 0.86265206
1.18565 -0.30990601 0.85170972
1.19002 -0.31677699 0.85124099
1.19626 -0.32312402 0.85061038
1.19977 -0.32821602 0.85401571
1.18216 -0.30168399 0.84431052
1.1873699 -0.30582398 0.84432876
1.19459 -0.31422198 0.84550893
1.19542 -0.322429 0.84352094
1.1997499 -0.32565299 0.84600222
1.18556 -0.295026 0.83853745
1.18738 -0.30082101 0.8365376
1.19356 -0.308447 0.83824044
1.19815 -0.31632602 0.83901435
1.18581 -0.28470302 0.83321714
1.1882 -0.29033002 0.83212882
1.19416 -0.298127 0.8343057
1.19576 -0.30705202 0.83217055
1.19621 -0.31431699 0.83019656
1.1859699 -0.26655701 0.82506454
1.18866 -0.27739298 0.82755083
1.19021 -0.28510499 0.82727021
1.19355 -0.29490998 0.82810777
1.19598 -0.30574802 0.82743865
1.1843801 -0.25278199 0.82100111
1.18892 -0.25832301 0.82218969
1.19049 -0.26760799 0.82214755
1.19318 -0.27799901 0.82388997
1.30758 -0.35529399 0.84138924
1.1882399 -0.248744 0.81824565
1.19089 -0.25535899 0.81779891
1.1966701 -0.26134399 0.819103
1.30861 -0.35338297 0.83283782
1.1913201 -0.243165 0.81318986
1.19648 -0.25054702 0.81329101
1.1993901 -0.25536698 0.81272459
1.3089 -0.34659499 0.82477599
1.3138299 -0.353017 0.82627368
1.19461 -0.241354 0.80791926
1.19917 -0.245658 0.80815864
1.3111501 -0.34202802 0.81964296
1.32204 -0.34184897 0.82287198
1.19081 -0.24708501 0.79751426
1.2873199 -0.34020099 0.80280435
1.30084 -0.33835602 0.80852526
1.31916 -0.33538899 0.81709319
1.3300999 -0.33453602 0.81999099
1.3085999 -0.32553002 0.80866152
1.31181 -0.331166 0.80838805
1.3274499 -0.32883203 0.81448883
1.3378501 -0.328529 0.81680924
1.3219501 -0.315101 0.81008387
1.32182 -0.32225898 0.80721122
1.3382699 -0.321163 0.81331062
1.3281 -0.31077102 0.80661964
1.3274699 -0.31872201 0.80043525
1.3219099 -0.31296101 0.79292351
1.31479 -0.32010299 0.78277689
1.3038499 -0.32153702 0.77067566
1.29994 -0.32670602 0.76283586
1.29434 -0.32551301 0.75413585
1.28962 -0.325748 0.74045044
1.29301 -0.31718001 0.73916143
1.2845501 -0.327833 0.72872293
1.2904601 -0.317828 0.73303825
1.27277 -0.33655798 0.71165353
1.26842 -0.34458598 0.70120203
1.18432 -0.40103698 1.166635
1.19731 -0.407177 1.1655821
1.2078 -0.41516498 1.165637
1.22363 -0.41997898 1.1690561
1.22621 -0.43177399 1.164667
1.20356 -0.41862702 1.15459
1.22083 -0.42128602 1.159523
1.2306401 -0.426844 1.1596471
1.2006401 -0.42322701 1.142297
1.21356 -0.42276001 1.148928
1.2258101 -0.42876399 1.149963
1.19655 -0.425111 1.1319771
1.21354 -0.424328 1.1396221
1.22668 -0.42738202 1.1423061
1.2471299 -0.499033 1.1058991
1.24357 -0.51309699 1.1001401
1.2523201 -0.49246898 1.1047831
1.25254 -0.505261 1.101653
1.2614499 -0.51189703 1.099794
1.25655 -0.52471805 1.093055
1.25653 -0.49092999 1.100415
1.258 -0.50306201 1.096753
1.26586 -0.51093 1.095848
1.26929 -0.51900202 1.092667
1.25638 -0.49171397 1.0937049
1.26608 -0.49874002 1.0934221
1.26847 -0.51030803 1.089579
1.27589 -0.51932204 1.087038
1.26472 -0.50083697 1.086325
1.27353 -0.50963002 1.08318
1.26833 -0.51447999 1.07441
1.17941 -0.423204 0.97909904
1.18963 -0.42507598 0.98405302
1.1808 -0.42158902 0.97458601
1.1924 -0.42400199 0.97938204
1.16584 -0.41506198 0.95877302
1.1732399 -0.41973302 0.96359998
1.18196 -0.42406398 0.96818209
1.1933999 -0.42831799 0.97320801
1.16335 -0.41514301 0.952537
1.16655 -0.41884899 0.95370603
1.1755999 -0.43465 0.95991206
1.1635801 -0.413315 0.94703507
1.16206 -0.41724899 0.94287902
1.1611199 -0.41339299 0.93884397
1.16371 -0.41556701 0.93816406
1.15486 -0.415934 0.93098998
1.21189 -0.37925899 0.90470099
1.21387 -0.38641602 0.90372103
1.2114199 -0.371016 0.90228605
1.21227 -0.379585 0.90083998
1.22053 -0.38419399 0.90349203
1.20647 -0.35778099 0.89377898
1.21146 -0.36514598 0.89699006
1.21387 -0.37303102 0.89655602
1.22261 -0.38286498 0.89772803
1.19591 -0.34836102 0.88360566
1.20415 -0.35311499 0.88707507
1.21065 -0.361922 0.89028001
1.21762 -0.37183899 0.89049608
1.22675 -0.379437 0.89325202
1.19139 -0.34081402 0.87665665
1.2025499 -0.342841 0.88247406
1.20452 -0.35226199 0.88100523
1.2142 -0.36056197 0.88530469
1.2164 -0.368074 0.88423133
1.22276 -0.37865201 0.88672602
1.19654 -0.337089 0.87502402
1.2016001 -0.34125301 0.87499064
1.20623 -0.347161 0.87423265
1.2096701 -0.35661203 0.87638468
1.1927301 -0.32652 0.86146003
1.1989399 -0.332807 0.86824363
1.2032 -0.33852902 0.86793107
1.2075801 -0.34440699 0.86838877
1.1929001 -0.321491 0.85473979
1.1978 -0.33030999 0.85898608
1.20645 -0.335789 0.86309552
1.2030101 -0.34264499 0.8585102
1.18376 -0.31602401 0.84579653
1.18918 -0.318452 0.84677804
1.19608 -0.32462701 0.84920859
1.20455 -0.33159402 0.85559267
1.1846601 -0.30191699 0.83829427
1.18678 -0.310803 0.84138471
1.19291 -0.315258 0.842448
1.19552 -0.32228199 0.84074777
1.19996 -0.32785597 0.84424651
1.18167 -0.288432 0.83064193
1.1886001 -0.294063 0.83437383
1.1902699 -0.305316 0.83666474
1.19361 -0.31299201 0.83534789
1.19779 -0.319352 0.83683074
1.18107 -0.27588302 0.82602835
1.18681 -0.28238499 0.82872385
1.19164 -0.28986001 0.83099854
1.1919 -0.300143 0.82977533
1.1928099 -0.31012401 0.82825261
1.18204 -0.26340902 0.82111734
1.18599 -0.270215 0.82349294
1.1876301 -0.27817801 0.82261932
1.1924601 -0.28732002 0.82450777
1.1929799 -0.29650602 0.82178932
1.1883999 -0.25766501 0.81896371
1.18953 -0.268213 0.81871581
1.19309 -0.27727199 0.81944728
1.19462 -0.284991 0.81727678
1.19521 -0.29104099 0.81543541
1.19251 -0.243058 0.81587297
1.19444 -0.24926201 0.81614983
1.19031 -0.26156798 0.81209642
1.1933399 -0.27338302 0.8125205
1.1899199 -0.28426099 0.80821627
1.19489 -0.248207 0.81014222
1.1940399 -0.26039898 0.80833769
1.19462 -0.27244699 0.80813926
1.19674 -0.24500901 0.80514127
1.30715 -0.348966 0.82089335
1.3014599 -0.34267503 0.81297404
1.3147999 -0.34687197 0.81687236
1.2956799 -0.32938802 0.80234736
1.29299 -0.33807099 0.80226165
1.3101 -0.33610699 0.81057853
1.3271201 -0.332903 0.81797439
1.3117399 -0.32047403 0.80867994
1.3061501 -0.32907298 0.80435634
1.32242 -0.32755601 0.81129694
1.3363 -0.32558799 0.81637758
1.3148199 -0.32517701 0.80318069
1.3339101 -0.32174802 0.81117064
1.32763 -0.320364 0.8045013
1.1882399 -0.40427101 1.167655
1.20024 -0.41110501 1.1668831
1.2325599 -0.431775 1.169155
1.21943 -0.41566101 1.1629051
1.22831 -0.42184103 1.165174
1.2366201 -0.42798099 1.163022
1.23665 -0.43893901 1.164624
1.22175 -0.41693601 1.1547531
1.2310901 -0.420113 1.1573421
1.24081 -0.42613497 1.156288
1.24072 -0.43344501 1.15777
1.22458 -0.41746601 1.1471981
1.23599 -0.42039201 1.1501981
1.24051 -0.42738998 1.148779
1.24471 -0.43270901 1.149363
1.21656 -0.41989601 1.134578
1.22789 -0.421682 1.139677
1.23885 -0.42540002 1.1432461
1.24108 -0.434268 1.140362
1.2132 -0.42007801 1.125654
1.22276 -0.42184699 1.1306731
1.23192 -0.42851201 1.131588
1.23545 -0.42564401 1.124686
1.24616 -0.50032401 1.104419
1.24895 -0.51192403 1.10177
1.24665 -0.52323502 1.097366
1.23814 -0.427145 1.119115
1.25556 -0.50369298 1.1014961
1.25976 -0.51520902 1.09992
1.26195 -0.52296501 1.097775
1.25279 -0.492654 1.0981951
1.25752 -0.502168 1.0952721
1.26397 -0.51136398 1.095148
1.27098 -0.51879698 1.096395
1.27046 -0.52556002 1.094597
1.25447 -0.493756 1.090754
1.26159 -0.50443804 1.0897211
1.27285 -0.50825399 1.092329
1.2742 -0.51738095 1.08953
1.27958 -0.521694 1.0922041
1.25963 -0.50373602 1.083485
1.27019 -0.51125401 1.0838901
1.26826 -0.51329702 1.076175
1.18848 -0.42382702 0.98768204
1.1850801 -0.42322102 0.98094606
1.1945601 -0.42529401 0.98511004
1.18627 -0.42070401 0.97450006
1.1710601 -0.41811401 0.96078104
1.18124 -0.41854802 0.96438402
1.1495 -0.41653401 0.94027209
1.1659 -0.416816 0.95121306
1.18738 -0.415378 0.96114403
1.1432099 -0.41703799 0.93335801
1.16432 -0.41514501 0.94465607
1.19341 -0.41342202 0.95838904
1.22932 -0.47809502 0.95348406
1.14946 -0.41832697 0.93305504
1.18154 -0.413881 0.94924706
1.21988 -0.481938 0.94442201
1.2163501 -0.37920102 0.90792799
1.22289 -0.384206 0.90988004
1.21138 -0.36895099 0.90035301
1.21872 -0.375857 0.90477705
1.22603 -0.382047 0.90650296
1.2047499 -0.35488099 0.89191103
1.21087 -0.362587 0.89438105
1.2154599 -0.37172499 0.897641
1.22334 -0.378517 0.89948106
1.2039399 -0.34759399 0.88824105
1.20613 -0.35317799 0.88834798
1.21418 -0.35870898 0.8907001
1.21601 -0.37037 0.889364
1.23069 -0.378833 0.89454406
1.18944 -0.33986801 0.87226713
1.20236 -0.344188 0.88029337
1.2103 -0.35134801 0.88496953
1.21306 -0.35961899 0.88303101
1.21795 -0.36693802 0.88233101
1.22542 -0.376903 0.88438112
1.17856 -0.333639 0.86068898
1.19528 -0.33458197 0.8703028
1.20076 -0.34118801 0.8712132
1.21008 -0.34929699 0.87787873
1.21321 -0.358275 0.87630653
1.20947 -0.369618 0.87198395
1.18979 -0.32857499 0.86230499
1.1970201 -0.33212602 0.86403579
1.20268 -0.33861801 0.86647004
1.20654 -0.34770501 0.86893845
1.20813 -0.35970601 0.86874068
1.18854 -0.31590301 0.85041243
1.19383 -0.32358798 0.85596627
1.19291 -0.33092099 0.85508484
1.2028199 -0.33503899 0.86166352
1.18488 -0.304346 0.84229225
1.19032 -0.31068301 0.84626502
1.19209 -0.318001 0.84654772
1.1973799 -0.325802 0.85209602
1.19022 -0.29842401 0.83955383
1.18943 -0.308283 0.83940387
1.19126 -0.31655398 0.83719254
1.19373 -0.32240701 0.84064031
1.1802601 -0.28187701 0.82743514
1.18682 -0.287671 0.83143425
1.1895 -0.29821 0.83334994
1.19178 -0.30839899 0.83325654
1.1922899 -0.31579199 0.83196241
1.19364 -0.32017398 0.83312196
1.18445 -0.26841298 0.82484788
1.18864 -0.275381 0.82761276
1.19015 -0.28313899 0.82826227
1.19181 -0.290856 0.82819194
1.1935199 -0.30121401 0.82898283
1.1930001 -0.31284001 0.82887465
1.18634 -0.25544399 0.82061601
1.18933 -0.26294699 0.82233673
1.18996 -0.271696 0.82265437
1.19198 -0.27992001 0.82304281
1.19231 -0.288807 0.82217962
1.1903 -0.25077 0.81744295
1.18927 -0.25935102 0.81541604
1.19226 -0.26870599 0.81694376
1.19454 -0.27653301 0.81615263
1.19083 -0.25048199 0.81124091
1.19284 -0.259644 0.8115412
1.1951699 -0.26694402 0.81088036
1.19405 -0.27352399 0.80852044
1.3013201 -0.35530603 0.84006995
1.1945 -0.244853 0.80785805
1.19493 -0.255694 0.80739462
1.19521 -0.26565 0.80610985
1.30299 -0.35035703 0.83374542
1.3065 -0.356769 0.83435839
1.19321 -0.242763 0.80230135
1.2950701 -0.34734401 0.82399833
1.30652 -0.34807801 0.82873285
1.2954899 -0.34385601 0.81543279
1.31321 -0.345467 0.82351691
1.2890401 -0.33988997 0.80728358
1.30871 -0.336768 0.81619906
1.32349 -0.33863202 0.82184339
1.31668 -0.35145199 0.81660736
1.32552 -0.32008201 0.82012022
1.3256 -0.32898399 0.82001281
1.3307899 -0.33404598 0.81992167
1.32056 -0.34883597 0.81066406
1.3283401 -0.31458402 0.81500304
1.3327699 -0.324633 0.81745261
1.32995 -0.33600602 0.81280267
1.3185099 -0.35077098 0.79960412
1.32744 -0.311634 0.809623
1.3393101 -0.319749 0.8136493
1.33474 -0.33137903 0.80995512
1.33718 -0.33092898 0.80207229
1.20272 -0.41758302 1.1647991
1.21401 -0.42158499 1.167495
1.23884 -0.44816101 1.1685851
1.21961 -0.42421398 1.162613
1.2397699 -0.42777002 1.166386
1.24479 -0.43436298 1.1657311
1.24676 -0.441908 1.1644911
1.2427 -0.42571801 1.1621261
1.24613 -0.433579 1.159502
1.24898 -0.441017 1.158929
1.2424099 -0.449267 1.154716
1.24481 -0.42749101 1.154145
1.2471399 -0.433135 1.150836
1.24915 -0.44049999 1.152742
1.2443399 -0.428195 1.14548
1.2424901 -0.434223 1.141324
1.24533 -0.44165698 1.1421181
1.2404699 -0.42958 1.1348511
1.24594 -0.43514702 1.135825
1.25297 -0.49469602 1.106922
1.2588201 -0.50212598 1.1056061
1.2554699 -0.49725801 1.100813
1.26489 -0.50316298 1.10297
1.26648 -0.51303899 1.099331
1.2714701 -0.52545702 1.0962371
1.2692 -0.53528601 1.09247
1.25623 -0.498041 1.094431
1.26337 -0.50597501 1.095866
1.2696 -0.51321101 1.0955081
1.2726001 -0.52197301 1.09325
1.25361 -0.494941 1.090628
1.26195 -0.50556302 1.0893021
1.2697001 -0.51467496 1.089113
1.2737 -0.52226502 1.087749
1.2697101 -0.51599902 1.081509
1.1657599 -0.42652199 0.97044104
1.1845601 -0.42713401 0.98059303
1.16694 -0.424761 0.96578199
1.18951 -0.42566001 0.97771704
1.15995 -0.42194 0.95334405
1.16872 -0.42562199 0.96009707
1.15072 -0.41950297 0.94293505
1.1553199 -0.421648 0.94423503
1.15947 -0.424474 0.94662905
1.15253 -0.41845298 0.93959504
1.15797 -0.420452 0.94133604
1.16476 -0.42192501 0.94424105
1.15562 -0.421258 0.93636703
1.21182 -0.381713 0.907453
1.21413 -0.38758498 0.90841806
1.2056099 -0.37189302 0.899077
1.2147499 -0.376598 0.90397
1.21917 -0.38575298 0.90699106
1.20313 -0.36133999 0.89136308
1.2100199 -0.36833501 0.89657104
1.21473 -0.375202 0.89774406
1.2216101 -0.381641 0.90212107
1.1988 -0.35080001 0.88291913
1.20353 -0.35673401 0.88563401
1.20705 -0.36429101 0.889395
1.21539 -0.37071097 0.89270806
1.2236 -0.38144299 0.89441603
1.1907099 -0.34195802 0.87129837
1.20035 -0.348124 0.87856162
1.2035199 -0.35502601 0.87980443
1.20961 -0.36238399 0.88481742
1.2189701 -0.37048 0.88800704
1.22542 -0.38274503 0.88727301
1.1877201 -0.331139 0.8629145
1.19294 -0.33652499 0.86643571
1.1960601 -0.344248 0.87007993
1.20252 -0.350407 0.87294936
1.2076 -0.359263 0.87645304
1.1905301 -0.32844201 0.8590917
1.19596 -0.333978 0.86274797
1.19803 -0.34185699 0.86395073
1.20551 -0.34807399 0.86705452
1.18681 -0.32008499 0.8512879
1.19405 -0.32298902 0.85402787
1.19549 -0.33288899 0.85487092
1.20038 -0.34144402 0.85788935
1.19778 -0.34699601 0.85448301
1.18514 -0.30333701 0.84048003
1.1905301 -0.31372601 0.84575689
1.1939499 -0.32257402 0.84622037
1.19528 -0.33111802 0.84695536
1.19898 -0.337475 0.85023385
1.17641 -0.288351 0.83124125
1.18546 -0.29331499 0.83610511
1.18946 -0.302688 0.83807009
1.1946 -0.31220099 0.8417291
1.19714 -0.31851399 0.84062111
1.19837 -0.32682201 0.84218442
1.1866001 -0.27541798 0.83041275
1.18358 -0.284897 0.83059365
1.1897399 -0.29118299 0.83252311
1.19041 -0.300428 0.83199918
1.19455 -0.308541 0.8342675
1.1923001 -0.31900299 0.83198076
1.1930799 -0.32644299 0.83292663
1.1852601 -0.26305902 0.82204747
1.19076 -0.26934499 0.82610923
1.19024 -0.279789 0.82818121
1.1927201 -0.28670099 0.82667238
1.19284 -0.29727 0.82669783
1.196 -0.30592301 0.82850975
1.1863999 -0.25161698 0.8169744
1.19205 -0.25825 0.82093781
1.19051 -0.26712799 0.82039565
1.19469 -0.275453 0.82298195
1.1934301 -0.28681999 0.82048261
1.19216 -0.29609901 0.81995654
1.19284 -0.245875 0.81565607
1.1941 -0.25400999 0.81546074
1.19538 -0.26397699 0.81684119
1.19261 -0.27608201 0.81475782
1.1914901 -0.28732699 0.81453073
1.1951001 -0.245426 0.81103194
1.19635 -0.253227 0.81040061
1.19515 -0.262375 0.80982637
1.30373 -0.35650003 0.84838408
1.1963301 -0.242065 0.80460906
1.19832 -0.25061399 0.80595988
1.3217701 -0.33972001 0.85263032
1.3203101 -0.34674001 0.85258603
1.31036 -0.35734698 0.84418702
1.19407 -0.242513 0.79820818
1.3275599 -0.33693501 0.85188806
1.3233501 -0.34378701 0.84786636
1.31625 -0.35386798 0.84127992
1.3329201 -0.33399102 0.84944528
1.33532 -0.33800399 0.84811872
1.31952 -0.35203302 0.83615553
1.3415899 -0.328825 0.84564453
1.332 -0.34003502 0.8392247
1.3203 -0.35333499 0.82758611
1.17917 -0.405361 1.1651601
1.19582 -0.40889499 1.169773
1.20959 -0.41668597 1.1665139
1.2315899 -0.422912 1.165697
1.2398 -0.42864299 1.167181
1.24096 -0.43780801 1.1659731
1.2337201 -0.42464402 1.156134
1.23912 -0.42979401 1.159875
1.24818 -0.43518102 1.1620411
1.24845 -0.44218701 1.1596941
1.2322201 -0.424986 1.1471131
1.24099 -0.42859799 1.1525691
1.24682 -0.43519402 1.155623
1.24816 -0.44219398 1.152081
1.2275801 -0.425924 1.1374251
1.23857 -0.42905399 1.1436681
1.24582 -0.43567601 1.1478101
1.2475901 -0.44400102 1.1448641
1.22762 -0.42548802 1.129932
1.23555 -0.42950699 1.134498
1.24226 -0.43803397 1.137624
1.25498 -0.49627301 1.106648
1.2601 -0.50571704 1.105661
1.26538 -0.516078 1.104076
1.25851 -0.52628797 1.0980411
1.255 -0.49518299 1.1017381
1.26178 -0.50369 1.1013761
1.2650701 -0.51313704 1.1012161
1.27301 -0.52009898 1.101447
1.27196 -0.52632201 1.0996701
1.2550701 -0.497226 1.0942941
1.26656 -0.503627 1.096943
1.26876 -0.51318198 1.0956191
1.2778 -0.51931798 1.0981591
1.2776799 -0.52503502 1.0962621
1.2515301 -0.49765098 1.087077
1.26484 -0.50533503 1.089879
1.27228 -0.51411098 1.089188
1.27779 -0.52009302 1.0917671
1.25438 -0.507532 1.080596
1.26844 -0.51437199 1.082285
1.1841999 -0.42188001 0.97606707
1.19366 -0.424851 0.981556
1.17942 -0.42062199 0.966649
1.18828 -0.42349499 0.97269607
1.17803 -0.420158 0.96112901
1.1937699 -0.42178902 0.96879804
1.18046 -0.41926202 0.959194
1.21182 -0.38720199 0.90993202
1.2122799 -0.39388502 0.91005206
1.2139801 -0.37706199 0.90481901
1.21332 -0.384238 0.90596408
1.21991 -0.39065301 0.91015506
1.21183 -0.36333999 0.89598501
1.21621 -0.372563 0.90005302
1.21902 -0.381782 0.90325606
1.20837 -0.35460499 0.88849699
1.21532 -0.36091301 0.89379698
1.21552 -0.36860698 0.89453101
1.22175 -0.37700298 0.89643103
1.19969 -0.344955 0.87684941
1.2055401 -0.35210702 0.88151133
1.21483 -0.35808799 0.88859004
1.22126 -0.36624101 0.89184207
1.22516 -0.37605301 0.89108503
1.18648 -0.32825801 0.86215127
1.19444 -0.334057 0.8671608
1.1949 -0.342215 0.86848009
1.20402 -0.348088 0.8743698
1.21316 -0.35715699 0.88165796
1.21644 -0.37011901 0.88296998
1.2244899 -0.379841 0.88528055
1.24422 -0.45986 0.87141722
1.19349 -0.32483003 0.86114854
1.19388 -0.33102 0.86019361
1.19821 -0.33975399 0.86362189
1.20377 -0.34733599 0.86855775
1.25363 -0.456471 0.87297559
1.19122 -0.31707501 0.8534047
1.19458 -0.322595 0.85370141
1.19833 -0.33193699 0.85636765
1.2002701 -0.338247 0.85772562
1.20066 -0.343458 0.85879952
1.25376 -0.45501998 0.86704808
1.18814 -0.29352501 0.84079707
1.18722 -0.30015302 0.84069753
1.19409 -0.310765 0.84686303
1.19408 -0.31960499 0.84415573
1.19691 -0.32855701 0.84766692
1.20101 -0.33559701 0.8521713
1.18498 -0.28477699 0.83233255
1.18866 -0.29172701 0.83588946
1.19069 -0.30089301 0.83881849
1.19419 -0.30917102 0.8390255
1.1930799 -0.31832099 0.83599848
1.19572 -0.32604399 0.83990175
1.19642 -0.33222902 0.84150511
1.18741 -0.269869 0.826406
1.19033 -0.28012198 0.82966745
1.18864 -0.28924102 0.82967871
1.19402 -0.297654 0.83319801
1.19321 -0.30787799 0.83040732
1.19622 -0.31538099 0.83227861
1.1943901 -0.32481998 0.83389628
1.18864 -0.25377101 0.82057881
1.19001 -0.26127002 0.82294601
1.19292 -0.26829702 0.82530946
1.19521 -0.276225 0.82578355
1.19373 -0.286634 0.82546353
1.19408 -0.29700398 0.82453132
1.1920301 -0.30568701 0.82325876
1.19382 -0.248483 0.81831437
1.1941301 -0.25811398 0.81927073
1.19662 -0.26785699 0.82132673
1.19565 -0.27664199 0.81909883
1.19419 -0.28692099 0.81777924
1.1930699 -0.295459 0.81769407
1.1929699 -0.247246 0.81131762
1.1936001 -0.256374 0.81140882
1.1972001 -0.26497999 0.81390333
1.19502 -0.276196 0.81226808
1.1896701 -0.28734899 0.8100813
1.19556 -0.243248 0.80518943
1.1949401 -0.25431201 0.80548018
1.19102 -0.264366 0.80312175
1.31329 -0.349843 0.85959375
1.30548 -0.35978001 0.85673106
1.19445 -0.244565 0.79900777
1.18674 -0.25593299 0.79464996
1.32776 -0.33730301 0.86392486
1.3261501 -0.34331298 0.86240584
1.3150799 -0.353091 0.85663521
1.3086901 -0.362261 0.85043222
1.33204 -0.33623201 0.86193597
1.33487 -0.34037399 0.86154878
1.31884 -0.35170898 0.85208285
1.33918 -0.33393601 0.85912603
1.3388499 -0.33859903 0.85788321
1.3253399 -0.34934101 0.84734809
1.34781 -0.330246 0.85747445
1.34092 -0.33693802 0.85223192
1.3216799 -0.35080397 0.83512217
1.35072 -0.32691202 0.85117561
1.3431101 -0.333765 0.84493011
1.3227099 -0.34303299 0.80973607
1.2314399 -0.42556301 0.72048306
1.3416901 -0.32805902 0.82023323
1.3242 -0.34027001 0.80397552
1.23981 -0.42308101 0.72232902
1.24261 -0.42754501 0.72265959
1.2449 -0.435812 0.72154725
1.2421601 -0.445216 0.71652734
1.2449299 -0.45021901 0.71653974
1.34466 -0.32631803 0.81502151
1.32401 -0.340547 0.79507232
1.24845 -0.419687 0.72200257
1.2449601 -0.42962199 0.71839708
1.2444301 -0.43866903 0.71628863
1.2446901 -0.44551101 0.7143054
1.23821 -0.45258999 0.70792317
1.3401401 -0.328866 0.80351073
1.3227 -0.34058702 0.78603989
1.25362 -0.415979 0.71945119
1.2501 -0.42505401 0.71680725
1.24684 -0.43559799 0.71369994
1.24457 -0.44522399 0.71055406
1.3303599 -0.33355302 0.78941292
1.3211099 -0.34120202 0.78017539
1.26385 -0.41013402 0.72353899
1.25177 -0.422555 0.71377146
1.17928 -0.42394102 1.1671671
1.2710199 -0.50415099 1.104907
1.2607599 -0.49977401 1.109305
1.25387 -0.49110901 1.110482
1.27895 -0.52272302 1.0989951
1.26968 -0.51527196 1.103253
1.26291 -0.50729102 1.106029
1.25534 -0.49997798 1.1081351
1.27029 -0.52491498 1.099491
1.2640799 -0.51583999 1.101348
1.25801 -0.50803101 1.103626
1.25137 -0.50144696 1.103933
1.2676101 -0.51986802 1.093264
1.25807 -0.51092303 1.096786
1.25053 -0.50074202 1.097393
1.26731 -0.51799703 1.0866951
1.26665 -0.505418 1.085248
1.2609 -0.49581701 1.086436
1.27352 -0.51405299 1.078692
1.26819 -0.48995799 0.98565203
1.26148 -0.48318803 0.98366809
1.20399 -0.41012001 0.94934303
1.19988 -0.40780699 0.94211304
1.1992401 -0.40788701 0.936827
1.19261 -0.40058398 0.93449503
1.19876 -0.38812 0.92464399
1.21077 -0.456698 0.94028699
1.19469 -0.40645599 0.93116206
1.18969 -0.39989603 0.93030602
1.19646 -0.386913 0.91976404
1.2229 -0.45643902 0.91620302
1.20919 -0.45600602 0.93229204
1.20985 -0.44690102 0.92607003
1.20354 -0.402569 0.917274
1.1941301 -0.39612201 0.92115301
1.2021199 -0.37936902 0.90747201
1.20954 -0.361911 0.89403307
1.2128 -0.34633201 0.88351518
1.21939 -0.45762402 0.91455406
1.21067 -0.456581 0.92166901
1.20644 -0.45105302 0.92083704
1.21306 -0.43477401 0.91318303
1.20453 -0.38597697 0.90605003
1.2039701 -0.371627 0.89711499
1.21165 -0.35703602 0.88556802
1.2087899 -0.349383 0.88286805
1.21078 -0.335302 0.87399
1.21593 -0.32282299 0.86507815
1.2032499 -0.46053901 0.918899
1.2041401 -0.45032102 0.91589004
1.2115101 -0.352162 0.87652868
1.21144 -0.34132701 0.87121063
1.21 -0.33295399 0.86828077
1.2063301 -0.32689899 0.86593872
1.18813 -0.47162399 0.91950005
1.19265 -0.46288201 0.91813606
1.3590801 -0.28031 0.74832535
1.21542 -0.34521303 0.86270994
1.20982 -0.34217 0.86490828
1.20717 -0.33431199 0.8642031
1.20608 -0.324366 0.85752589
1.20649 -0.31053698 0.84929228
1.21199 -0.292321 0.83713776
1.18893 -0.47646999 0.91320801
1.17919 -0.47854999 0.918571
1.18446 -0.47040999 0.91586602
1.3452901 -0.28902599 0.75341952
1.34724 -0.28413299 0.75268042
1.21029 -0.33896199 0.85593814
1.20783 -0.33214101 0.8548761
1.20427 -0.32160199 0.84934664
1.2035199 -0.30927199 0.84274024
1.2038701 -0.29883102 0.839926
1.20099 -0.28814599 0.83527052
1.2008799 -0.271294 0.82649702
1.20029 -0.255375 0.8200717
1.20439 -0.23582001 0.81138724
1.17694 -0.48469898 0.91688901
1.17185 -0.48389098 0.91759509
1.1752 -0.47699299 0.91459799
1.32295 -0.304198 0.76327866
1.33006 -0.29589599 0.75957704
1.20854 -0.32634601 0.84230703
1.20456 -0.31747401 0.83932954
1.20014 -0.31052798 0.83877569
1.20096 -0.298224 0.83317435
1.20012 -0.28199399 0.82643336
1.19951 -0.267178 0.82046014
1.1994001 -0.256248 0.81633508
1.20005 -0.24467599 0.81141382
1.1681 -0.490033 0.91625601
1.1639 -0.488015 0.91683006
1.1746299 -0.47704399 0.90944403
1.30624 -0.31538799 0.76766771
1.3162301 -0.305071 0.76153314
1.21715 -0.31738898 0.82512933
1.20498 -0.31850901 0.83260316
1.2005301 -0.310559 0.83257675
1.19892 -0.300679 0.82750529
1.19794 -0.28833202 0.82335478
1.1977 -0.27365401 0.8178311
1.19726 -0.25854298 0.81250048
1.20249 -0.23879801 0.80095536
1.15958 -0.49489602 0.91287398
1.1537 -0.494115 0.91456407
1.29071 -0.32719398 0.77198905
1.29945 -0.316504 0.76603693
1.20857 -0.31572101 0.82448041
1.20293 -0.30869099 0.82478178
1.20032 -0.29535201 0.82002932
1.19767 -0.28303301 0.81668574
1.20012 -0.26633799 0.80870134
1.1970201 -0.253481 0.80518973
1.2010701 -0.23532 0.7950623
1.15036 -0.50082296 0.91255301
1.14984 -0.49664199 0.91020304
1.15614 -0.48846 0.90405405
1.28478 -0.32786998 0.7697258
1.14772 -0.502114 0.90727597
1.1410099 -0.501522 0.90832001
1.1492701 -0.49226701 0.90239006
1.27301 -0.337657 0.77046132
1.13868 -0.50697303 0.906232
1.13639 -0.50406504 0.90437204
1.13931 -0.49776 0.90096503
1.2570701 -0.34791601 0.77275312
1.25732 -0.35360599 0.76544279
1.26003 -0.34480301 0.75999403
1.24763 -0.373665 0.77042693
1.2533001 -0.35918599 0.75993294
1.25468 -0.34793499 0.75402433
1.2487 -0.37278098 0.76005518
1.25308 -0.355243 0.74726379
1.2562799 -0.340933 0.73797548
1.25305 -0.308797 0.72429121
1.24747 -0.30672199 0.72624511
1.24454 -0.30223399 0.72490138
1.2499501 -0.36818999 0.74796814
1.2494 -0.35870302 0.74143267
1.25225 -0.34362099 0.73253489
1.25041 -0.33001202 0.72877318
1.24751 -0.31542298 0.72560072
1.23884 -0.31274 0.72861266
1.22911 -0.312112 0.73229688
1.2532001 -0.38249198 0.73908556
1.24659 -0.37203398 0.74282336
1.24942 -0.35740799 0.73216134
1.24904 -0.344771 0.7248438
1.24673 -0.33470199 0.72556144
1.2409999 -0.32389098 0.7251792
1.22709 -0.32042599 0.73058856
1.21944 -0.317725 0.73239303
1.2572399 -0.39081699 0.73049033
1.24895 -0.38381198 0.73110414
1.24519 -0.37323397 0.73394853
1.24743 -0.35824698 0.72397685
1.24798 -0.345705 0.71733999
1.24175 -0.33682701 0.72049528
1.23097 -0.32880002 0.72392303
1.2181 -0.32519001 0.72984093
1.21179 -0.32288301 0.7331928
1.25253 -0.391828 0.72508109
1.2484699 -0.384904 0.72289222
1.24192 -0.37618697 0.72608215
1.24795 -0.35621399 0.71462333
1.2457399 -0.34364399 0.71293879
1.2359999 -0.33794898 0.71801126
1.22583 -0.32951599 0.72140253
1.21413 -0.32832599 0.72884089
1.2124801 -0.32283002 0.72793233
1.2647001 -0.394721 0.70948809
1.25328 -0.391707 0.71423793
1.2434 -0.38573003 0.71936655
1.24401 -0.37561199 0.71404791
1.24491 -0.344565 0.70936257
1.25758 -0.39565399 0.70278627
1.24986 -0.39337599 0.70727021
1.2464299 -0.38566601 0.70631355
1.24254 -0.38008499 0.70691407
1.25965 -0.39395902 0.68815506
1.25243 -0.391155 0.69585073
1.24525 -0.38654998 0.69529337
1.24032 -0.38297001 0.7006501
1.26545 -0.39305198 0.67226404
1.2496099 -0.392777 0.68650991
1.24147 -0.388019 0.68867457
1.23957 -0.38342202 0.69125152
1.26845 -0.39247 0.66325206
1.2535399 -0.39322603 0.67486405
1.24325 -0.38915002 0.67854202
1.23684 -0.385611 0.68371606
1.24702 -0.39435798 0.67143202
1.2392501 -0.39070401 0.67148507
1.23669 -0.38621798 0.67158008
1.23929 -0.395248 0.66591203
1.23676 -0.39043498 0.66333503
1.23405 -0.38628101 0.66153407
1.18084 -0.41617802 1.1685201
1.28588 -0.51661301 1.09903
1.2752401 -0.51358598 1.103937
1.26875 -0.50582099 1.10629
1.26104 -0.498247 1.108906
1.27599 -0.52340299 1.100806
1.26657 -0.51863301 1.1049501
1.26002 -0.50920999 1.10712
1.25026 -0.50249499 1.111557
1.2706 -0.52507198 1.0979251
1.26108 -0.51818001 1.103057
1.25747 -0.50990003 1.101264
1.24976 -0.50120401 1.1056449
1.2702 -0.52539396 1.091758
1.2617199 -0.518803 1.096705
1.25708 -0.51091701 1.0955811
1.25151 -0.50240701 1.097809
1.26651 -0.51801103 1.08884
1.26604 -0.50758302 1.086687
1.26138 -0.50040501 1.087983
1.2541001 -0.49281898 1.0909261
1.25611 -0.485612 0.99620605
1.25844 -0.48675597 0.98746705
1.25 -0.48640901 0.98572904
1.19238 -0.43473098 0.98932302
1.1935099 -0.433523 0.97975802
1.19769 -0.42976201 0.96909106
1.19886 -0.428455 0.95973402
1.19835 -0.41732201 0.93794405
1.20821 -0.41813302 0.92589104
1.19523 -0.416563 0.93403304
1.1938701 -0.412166 0.93230802
1.22304 -0.370442 0.89654207
1.22715 -0.361696 0.89077002
1.22287 -0.45977101 0.92216003
1.21363 -0.45862597 0.92760003
1.21347 -0.44972098 0.92622101
1.2111 -0.417234 0.91526705
1.19595 -0.415948 0.92741305
1.19391 -0.409455 0.92517698
1.21649 -0.37677899 0.89918703
1.22163 -0.366092 0.89225006
1.21919 -0.35844001 0.88903207
1.2192401 -0.46220002 0.91717905
1.21144 -0.45958999 0.92135203
1.21053 -0.44900298 0.91983902
1.20151 -0.41297299 0.915501
1.20863 -0.39342999 0.90606004
1.2168801 -0.37434301 0.89419401
1.22076 -0.36337897 0.88705802
1.22144 -0.35382998 0.88096929
1.22193 -0.34267199 0.87410432
1.21613 -0.334447 0.87197626
1.2096801 -0.46700901 0.91757601
1.1969399 -0.468243 0.92408299
1.2103601 -0.450932 0.91145003
1.3005 -0.336732 0.80820537
1.22598 -0.35770902 0.87727827
1.22005 -0.34904099 0.87414682
1.2123001 -0.345047 0.87568414
1.2111499 -0.33731499 0.87215936
1.20702 -0.32873699 0.86882162
1.19493 -0.474273 0.921296
1.1878901 -0.47353101 0.92388701
1.21754 -0.44141102 0.89709502
1.3095 -0.33517897 0.79782647
1.3117 -0.32950801 0.79358029
1.2114 -0.34108397 0.86757171
1.20789 -0.333534 0.86535341
1.2046 -0.32553002 0.86260164
1.20481 -0.31711701 0.85823166
1.18023 -0.482921 0.92458701
1.1752 -0.48284301 0.92467505
1.2204599 -0.438465 0.88965905
1.30474 -0.33629 0.79375589
1.3117999 -0.32576802 0.78477997
1.32753 -0.29737899 0.75939423
1.20956 -0.33843398 0.85828185
1.20407 -0.33561698 0.86104935
1.20078 -0.32917598 0.8612026
1.1994001 -0.31931001 0.85581774
1.2052701 -0.30262101 0.84452814
1.21078 -0.28325 0.83154219
1.21881 -0.26519901 0.81929153
1.21596 -0.25752199 0.817779
1.21884 -0.231593 0.80649203
1.181 -0.49026501 0.91377205
1.17111 -0.48998901 0.92223501
1.16573 -0.48892602 0.92364204
1.30769 -0.32736099 0.78056288
1.3170199 -0.31145799 0.76812881
1.31976 -0.30159599 0.761015
1.20476 -0.332306 0.85068971
1.20218 -0.32701302 0.85186106
1.1975399 -0.31981 0.84929293
1.19749 -0.309591 0.8456127
1.2003701 -0.29481199 0.83738244
1.2056199 -0.276871 0.82646745
1.2080899 -0.263942 0.821163
1.20515 -0.255036 0.81861472
1.20776 -0.23769501 0.81077093
1.17083 -0.494923 0.91731805
1.1649801 -0.493348 0.91941297
1.15774 -0.49228001 0.92190802
1.29582 -0.33464199 0.78207016
1.3100301 -0.317314 0.76884681
1.3123801 -0.306972 0.76257712
1.3088601 -0.30282801 0.76285911
1.20547 -0.32819998 0.84033889
1.19973 -0.325075 0.84371877
1.19839 -0.31583899 0.84091651
1.19794 -0.30556402 0.83600152
1.2006 -0.290723 0.82708871
1.20218 -0.27799901 0.82203746
1.20152 -0.26661101 0.81848252
1.20389 -0.25077999 0.81198686
1.20428 -0.23847099 0.80583978
1.1664701 -0.49670202 0.91346306
1.15566 -0.49745399 0.91806501
1.15319 -0.49423802 0.91872299
1.30252 -0.32096401 0.76729071
1.30962 -0.30924201 0.7583487
1.20126 -0.32183602 0.83474243
1.19565 -0.31687799 0.83643645
1.19993 -0.30270901 0.82602751
1.1974601 -0.29358101 0.8227458
1.19876 -0.28054199 0.81820464
1.19829 -0.26860702 0.81297112
1.19863 -0.25470698 0.80869299
1.20304 -0.236342 0.79757577
1.15869 -0.50050098 0.91141802
1.14966 -0.50085098 0.91492498
1.14783 -0.497033 0.91530204
1.2930299 -0.32801399 0.76717257
1.19717 -0.31347501 0.82856184
1.201 -0.29948699 0.81902963
1.20067 -0.28775001 0.814502
1.1965899 -0.27789301 0.81334078
1.1998301 -0.26305902 0.80553854
1.19989 -0.24989201 0.80016726
1.2048 -0.235385 0.79087603
1.15065 -0.50411803 0.90975797
1.14289 -0.503447 0.912265
1.14231 -0.49929798 0.91183698
1.14352 -0.50724798 0.90694702
1.13568 -0.50689703 0.90976304
1.13428 -0.50297904 0.91023302
1.25737 -0.24208799 0.71901804
1.26193 -0.347386 0.75000578
1.27134 -0.265865 0.70884514
1.25852 -0.26587099 0.71851432
1.26136 -0.25071201 0.71379822
1.26166 -0.23863702 0.70995474
1.2558399 -0.231774 0.71200907
1.2615399 -0.34318501 0.73808312
1.26132 -0.29694998 0.71794367
1.2574401 -0.29097798 0.71863538
1.2595201 -0.275287 0.71502459
1.2641001 -0.26016301 0.70854586
1.26061 -0.25005502 0.70919091
1.25747 -0.241798 0.70895821
1.25346 -0.359099 0.74170434
1.2577 -0.34483299 0.73270166
1.25366 -0.335596 0.73235101
1.25027 -0.322207 0.72714096
1.2543499 -0.30411601 0.72007805
1.24885 -0.29828101 0.7206198
1.25462 -0.28417802 0.7145887
1.2546 -0.272836 0.71286058
1.2625099 -0.253133 0.70329285
1.25161 -0.370406 0.7410748
1.25184 -0.358704 0.73369682
1.25289 -0.34545398 0.72587264
1.25104 -0.33473501 0.72652495
1.2409101 -0.32796201 0.72795892
1.24044 -0.31527901 0.72643489
1.23221 -0.30950299 0.72731286
1.24318 -0.29296699 0.718207
1.25508 -0.38933101 0.73296744
1.24696 -0.38426301 0.73776728
1.24831 -0.373198 0.73376596
1.2518699 -0.35766801 0.72322893
1.24871 -0.34696999 0.71962702
1.24611 -0.33696601 0.72150964
1.2352999 -0.33206901 0.72482735
1.22805 -0.323605 0.72834444
1.2170501 -0.31912699 0.73182321
1.22157 -0.30898702 0.72836685
1.26476 -0.39721403 0.71584153
1.25807 -0.389413 0.72117394
1.2491699 -0.38277099 0.72834158
1.24712 -0.372504 0.72439295
1.25088 -0.35650501 0.7148844
1.24994 -0.34548402 0.71123034
1.24211 -0.33877498 0.71494299
1.22778 -0.33230001 0.72356588
1.21794 -0.32677501 0.72873116
1.2109101 -0.32298401 0.73055494
1.2087001 -0.31755799 0.73108244
1.25582 -0.42671502 0.72222924
1.2593499 -0.41985902 0.71798533
1.26424 -0.40855399 0.71272349
1.26377 -0.398559 0.70691484
1.2574199 -0.39041501 0.71166223
1.24979 -0.38302502 0.71849406
1.2544 -0.37018001 0.7098828
1.2492299 -0.34397 0.70593053
1.24692 -0.336959 0.70413244
1.2344899 -0.33283699 0.71279353
1.21487 -0.32978299 0.72669876
1.20746 -0.32362202 0.72908944
1.20894 -0.31641701 0.72531152
1.2607 -0.41807202 0.71221071
1.26135 -0.409789 0.70764947
1.26394 -0.39799401 0.69894987
1.25871 -0.389658 0.70046264
1.2495201 -0.38459399 0.70770681
1.24801 -0.34268299 0.70130652
1.26087 -0.41622502 0.70666772
1.26261 -0.40851003 0.70127958
1.25957 -0.38682401 0.6890161
1.25008 -0.385131 0.69689429
1.25323 -0.37628299 0.68814194
1.25843 -0.38337898 0.67925805
1.24835 -0.382947 0.68600523
1.24591 -0.37701198 0.68266207
1.25191 -0.384446 0.67660201
1.24226 -0.38446999 0.6825
1.2395201 -0.37990502 0.68133402
1.24051 -0.37320501 0.67558897
1.2383699 -0.38557899 0.678123
1.2362 -0.38060701 0.67436808
1.2362599 -0.37519902 0.67122298
1.23936 -0.38648602 0.664002
1.2374901 -0.38064602 0.66292703
1.1819301 -0.404158 1.1698961
1.17237 -0.43715 1.1671031
1.27475 -0.51214802 1.101884
1.27034 -0.50438899 1.1035471
1.26561 -0.49420202 1.10498
1.25986 -0.488217 1.1077521
1.26064 -0.48300597 1.106626
1.27749 -0.52632803 1.096843
1.2731199 -0.52082002 1.099303
1.26677 -0.51337397 1.1028221
1.2590899 -0.50478399 1.1058151
1.25088 -0.49817502 1.10998
1.27386 -0.52860296 1.094416
1.26907 -0.52109599 1.0960521
1.26055 -0.512523 1.100669
1.25432 -0.50613302 1.1034191
1.24932 -0.49842203 1.105041
1.26851 -0.52239698 1.089911
1.2607 -0.51553601 1.094668
1.25249 -0.50668699 1.099195
1.26783 -0.517793 1.085777
1.26028 -0.50810397 1.090252
1.25028 -0.498447 1.0948061
1.26569 -0.482932 0.99023199
1.26041 -0.481538 0.98942
1.25386 -0.48349202 0.98623705
1.19067 -0.43922001 0.99849701
1.1923699 -0.43655202 0.989281
1.1939701 -0.443349 0.98512208
1.19056 -0.43682301 0.98467302
1.19566 -0.42977199 0.97893906
1.19393 -0.43627998 0.97515702
1.19873 -0.42575699 0.96594507
1.19707 -0.4429 0.96679199
1.19621 -0.43314499 0.963467
1.19919 -0.422566 0.956707
1.20151 -0.449076 0.95876604
1.20127 -0.44037998 0.95474899
1.1984401 -0.43015099 0.95242804
1.19785 -0.42099398 0.95028603
1.2010601 -0.41421399 0.94735199
1.20714 -0.45315897 0.94540209
1.20517 -0.44803002 0.94667703
1.2025 -0.43836701 0.94391406
1.20068 -0.42865503 0.94280702
1.19788 -0.42236 0.94491696
1.1927201 -0.41640598 0.94563299
1.1991 -0.40877497 0.939861
1.2073001 -0.45304 0.93741804
1.2037101 -0.44716901 0.93918902
1.20822 -0.437502 0.93054408
1.2021 -0.429618 0.93479902
1.19498 -0.42220002 0.93928999
1.1889701 -0.416722 0.94125903
1.1874501 -0.412678 0.94077104
1.20385 -0.45670602 0.93070006
1.20558 -0.44872001 0.92944902
1.21164 -0.43690699 0.919532
1.20481 -0.429445 0.92469507
1.19642 -0.42365798 0.93102705
1.1887001 -0.41729698 0.93424499
1.1798 -0.414161 0.93737406
1.2299 -0.35939801 0.88038254
1.2048 -0.46347001 0.92302507
1.20367 -0.45716599 0.92506301
1.20793 -0.447979 0.91869605
1.21416 -0.435664 0.90929198
1.20708 -0.42959499 0.91590708
1.19959 -0.42127103 0.91892809
1.18098 -0.41813499 0.93149203
1.1767401 -0.41468897 0.93369102
1.2321399 -0.35901797 0.87560564
1.22966 -0.35321 0.87487429
1.22902 -0.34466401 0.87102818
1.20559 -0.47345001 0.91510201
1.19771 -0.47026402 0.92122602
1.2036901 -0.459589 0.91716301
1.21638 -0.44420898 0.90365708
1.21209 -0.425989 0.90371901
1.2121199 -0.41615897 0.89841402
1.1946399 -0.41518298 0.91367906
1.18207 -0.41340199 0.92510706
1.22541 -0.366512 0.87923574
1.23327 -0.35769698 0.87047118
1.225 -0.35602599 0.8753224
1.22261 -0.347583 0.8720423
1.22184 -0.33906701 0.8678965
1.19696 -0.475979 0.91737503
1.19346 -0.47229001 0.91825205
1.20035 -0.462181 0.91315705
1.21631 -0.40718102 0.88535237
1.2998599 -0.341351 0.80258554
1.3028599 -0.33545601 0.79825819
1.22203 -0.353066 0.87050736
1.21618 -0.34779999 0.87063164
1.21462 -0.34005201 0.8670249
1.21516 -0.331249 0.86239958
1.18811 -0.47933102 0.91753799
1.1795501 -0.47931498 0.92150605
1.1912301 -0.47028899 0.912907
1.29737 -0.340671 0.79857373
1.30504 -0.33190799 0.78975272
1.21512 -0.34462202 0.86405778
1.21069 -0.337715 0.86124372
1.20854 -0.33122501 0.86026627
1.20863 -0.32236198 0.85575366
1.1747 -0.48553601 0.92029798
1.1712 -0.48387501 0.92089599
1.30313 -0.33107498 0.78424144
1.3108901 -0.31823701 0.77327418
1.30941 -0.30977401 0.76945043
1.21242 -0.335392 0.85337692
1.2041401 -0.33156201 0.85613233
1.20318 -0.32282698 0.85310441
1.19973 -0.313409 0.85002309
1.19916 -0.30188599 0.84390831
1.17 -0.494412 0.91250503
1.16432 -0.49140999 0.91873902
1.16036 -0.48901403 0.92004907
1.29182 -0.33645698 0.7850377
1.30751 -0.31992999 0.76982194
1.31319 -0.308404 0.76192337
1.3092599 -0.304483 0.76307434
1.20418 -0.328693 0.84709704
1.19705 -0.32583699 0.85162538
1.1946701 -0.31657201 0.84801054
1.19526 -0.30478299 0.8429991
1.19441 -0.29346702 0.83815193
1.1942099 -0.27991101 0.83222628
1.2017701 -0.265268 0.82154363
1.20135 -0.25491899 0.81811112
1.20347 -0.24247 0.81234789
1.16703 -0.49565101 0.909343
1.15552 -0.494991 0.91811007
1.1519101 -0.49229699 0.91992706
1.30081 -0.323632 0.76838529
1.3093801 -0.31119499 0.75972784
1.31119 -0.30447799 0.75692648
1.2015899 -0.32567799 0.83890975
1.19582 -0.32274503 0.84292215
1.1913301 -0.31695101 0.84334409
