# .PCD v0.7 - Point Cloud Data file format
VERSION 0.7
FIELDS x y z
SIZE 4 4 4
TYPE F F F
COUNT 1 1 1
WIDTH 178
HEIGHT 1
VIEWPOINT 0 0 0 1 0 0 0
POINTS 178
DATA ascii
1.2578399 -0.298996 0.60683203
1.2533799 -0.29787701 0.60437906
1.25386 -0.29822999 0.60089904
1.26308 -0.296051 0.59950101
1.25258 -0.299757 0.59595102
1.25553 -0.30179301 0.59066999
1.2701499 -0.29494101 0.61627901
1.2698799 -0.29582 0.61346406
1.27327 -0.29253998 0.61355704
1.26226 -0.30228999 0.60949904
1.26696 -0.29608101 0.61122304
1.27782 -0.295955 0.60992002
1.2633001 -0.29798999 0.60714006
1.25019 -0.302145 0.60255402
1.2658401 -0.305051 0.59263802
1.26706 -0.29792801 0.61795801
1.2713701 -0.29544699 0.61833799
1.25528 -0.294916 0.61496001
1.26346 -0.29313999 0.615951
1.25177 -0.29551202 0.61123902
1.2590001 -0.29340202 0.61090398
1.25468 -0.29895201 0.60564101
1.258 -0.29392999 0.60442603
1.2596099 -0.30119699 0.59905207
1.27028 -0.30032 0.59770399
1.25885 -0.30221 0.59495503
1.26986 -0.29962799 0.61788201
1.26572 -0.30274799 0.61573702
1.26843 -0.29962099 0.61453801
1.27591 -0.29828501 0.61330205
1.26515 -0.29741299 0.61038303
1.27913 -0.29945201 0.60897404
1.26608 -0.29875901 0.60571206
1.26262 -0.30211499 0.59997404
1.25903 -0.29809999 0.61193901
1.25982 -0.300033 0.60306603
1.2537 -0.30310401 0.59884202
1.29424 -0.314392 0.602422
1.2932899 -0.32048699 0.60131204
1.2927901 -0.31481799 0.59937203
1.29338 -0.31965598 0.59793103
1.29482 -0.31429499 0.59488904
1.2969099 -0.31776601 0.59454608
1.29219 -0.316039 0.59053904
1.2927999 -0.32031399 0.59054404
1.29274 -0.30280501 0.61300403
1.29584 -0.30217898 0.61071306
1.29304 -0.306584 0.61018103
1.2980499 -0.30238399 0.60731101
1.2961501 -0.306003 0.60776502
1.2967399 -0.31227601 0.60565603
1.29245 -0.30472401 0.60308903
1.29995 -0.30670699 0.60385805
1.30084 -0.31336999 0.60165703
1.3037699 -0.30835199 0.59952301
1.29522 -0.31775799 0.59648401
1.29582 -0.313425 0.59365302
1.2946 -0.32014501 0.59185004
1.2957801 -0.32640201 0.59082603
1.29348 -0.30307201 0.60605502
1.28547 -0.301599 0.606695
1.29462 -0.31402099 0.60256803
1.2859199 -0.30828601 0.60420901
1.2796 -0.30407301 0.60438204
1.27889 -0.299707 0.60445702
1.2810299 -0.310224 0.60070306
1.2742 -0.306081 0.60090005
1.2756801 -0.30707398 0.59548604
1.28696 -0.304557 0.590626
1.3046499 -0.28444201 0.61902601
1.30537 -0.28080902 0.61891502
1.2906799 -0.28788 0.61748803
1.2945501 -0.284053 0.61700201
1.29635 -0.295315 0.61017704
1.28871 -0.291302 0.61238205
1.29321 -0.28558299 0.61252803
1.29699 -0.30481601 0.60538101
1.2846401 -0.30074 0.60777503
1.2874 -0.294029 0.60713202
1.28634 -0.28843901 0.60781598
1.2833999 -0.309881 0.60367906
1.2882299 -0.3012 0.60281104
1.2870101 -0.29405099 0.60261804
1.29588 -0.28732002 0.60133302
1.2827901 -0.31187999 0.59870803
1.28845 -0.30071601 0.59811401
1.28868 -0.29545099 0.59720606
1.2860299 -0.30460501 0.59324908
1.2977201 -0.29596502 0.59130204
1.28581 -0.31372401 0.58836901
1.29925 -0.30184901 0.58777803
1.2894299 -0.30495799 0.62368006
1.28257 -0.29974899 0.62063301
1.29651 -0.30606198 0.62127
1.29655 -0.30997401 0.62157601
1.28534 -0.300892 0.61800802
1.29913 -0.30710301 0.61840302
1.2995501 -0.31221801 0.61750007
1.30224 -0.30985001 0.61404902
1.3073399 -0.316706 0.61303604
1.2961999 -0.320694 0.61172003
1.30265 -0.31210101 0.60786402
1.3067501 -0.31643701 0.60933405
1.3033501 -0.32278001 0.60828704
1.3023 -0.33132499 0.60724103
1.2928799 -0.3123 0.60270703
1.30453 -0.31887501 0.60404903
1.30259 -0.327613 0.60350204
1.30293 -0.31975701 0.59992003
1.3028101 -0.32657397 0.59936905
1.27068 -0.29364598 0.62476104
1.28316 -0.30110002 0.62488002
1.28623 -0.29874599 0.62263
1.2907201 -0.30470198 0.62177199
1.28283 -0.30603901 0.62185705
1.29207 -0.30157802 0.61818308
1.2974899 -0.308202 0.61766303
1.29553 -0.31288701 0.61795801
1.29179 -0.30245101 0.61339605
1.3040401 -0.30977401 0.61443204
1.30091 -0.31654 0.61300707
1.3057899 -0.31323498 0.60933703
1.30256 -0.319635 0.60784507
1.30337 -0.32758301 0.60840803
1.2992301 -0.31426999 0.603926
1.30968 -0.32121602 0.60474402
1.30237 -0.327869 0.60323703
1.30752 -0.32398102 0.60045505
1.3033299 -0.33080101 0.59873903
1.29494 -0.301833 0.62218606
1.28457 -0.30135599 0.62221003
1.30015 -0.30461299 0.61896002
1.29574 -0.30686599 0.61927301
1.30257 -0.30576599 0.61500102
1.29931 -0.309549 0.61460108
1.28536 -0.31176701 0.61352301
1.30321 -0.30730399 0.61033404
1.30162 -0.31152901 0.61034507
1.29888 -0.31800801 0.60957104
1.2960601 -0.306416 0.60500699
1.30193 -0.31297502 0.60618204
1.2993201 -0.319278 0.60468304
1.30225 -0.316311 0.60109603
1.29927 -0.322606 0.60077405
1.28617 -0.31200701 0.59613204
1.2953501 -0.32321203 0.59646904
1.2827001 -0.297115 0.62479001
1.28545 -0.29241502 0.62018603
1.2891201 -0.29993099 0.62186903
1.28408 -0.301943 0.62271708
1.28602 -0.29265699 0.61702204
1.2938499 -0.30165601 0.617576
1.2911501 -0.30493602 0.61914504
1.28627 -0.29416901 0.61317503
1.2985801 -0.30561501 0.61323303
1.29676 -0.31139699 0.61266905
1.30038 -0.31013301 0.60808003
1.30055 -0.31875402 0.60726905
1.29812 -0.325261 0.60740399
1.2961999 -0.310397 0.60149401
1.2999201 -0.319112 0.60237104
1.2903301 -0.30809098 0.59758204
1.29531 -0.317256 0.59797102
1.2950901 -0.299196 0.62154698
1.2978101 -0.300782 0.61873507
1.29368 -0.3039 0.61894906
1.2863699 -0.305641 0.61836207
1.30153 -0.304005 0.61477304
1.29893 -0.30703601 0.61610204
1.29694 -0.31462601 0.61486101
1.2989 -0.30470899 0.60999507
1.30349 -0.31251898 0.61141002
1.3015699 -0.32234001 0.60935003
1.30556 -0.31847602 0.605277
1.30316 -0.326078 0.60450602
1.30296 -0.319381 0.59991908
1.30275 -0.32644001 0.60013407
1.29293 -0.321354 0.59607404
