# .PCD v0.7 - Point Cloud Data file format
VERSION 0.7
FIELDS x y z
SIZE 4 4 4
TYPE F F F
COUNT 1 1 1
WIDTH 578
HEIGHT 1
VIEWPOINT 0 0 0 1 0 0 0
POINTS 578
DATA ascii
1.17404 -0.39606601 0.35868204
1.19069 -0.349437 0.359317
1.1825299 -0.40415999 0.35070702
1.17915 -0.398792 0.35126904
1.16826 -0.38878399 0.35590801
1.1849999 -0.34814 0.35712501
1.1992199 -0.34837201 0.35157803
1.17998 -0.40427798 0.34528503
1.1733999 -0.39555001 0.34812301
1.16249 -0.384029 0.35194701
1.15502 -0.377729 0.35631904
1.18853 -0.34798598 0.35059604
1.19882 -0.34673402 0.34469303
1.17567 -0.40229198 0.34093404
1.16711 -0.39086398 0.34490603
1.1625 -0.38237703 0.347027
1.16048 -0.377967 0.34973904
1.19083 -0.347049 0.34205106
1.19917 -0.346461 0.33878303
1.1782399 -0.40497503 0.33390003
1.17047 -0.39472499 0.33789203
1.16473 -0.38457 0.34088001
1.1607801 -0.377868 0.34407803
1.18915 -0.34570098 0.33647501
1.19477 -0.344583 0.33463705
1.17696 -0.40333301 0.32880902
1.17384 -0.39737499 0.33130801
1.16631 -0.38678399 0.33431703
1.16343 -0.37907299 0.33612004
1.18337 -0.34380201 0.33240303
1.1929799 -0.34373 0.32922703
1.1821901 -0.40225399 0.320894
1.1707 -0.39318299 0.32665604
1.16338 -0.382943 0.32971704
1.16115 -0.37727401 0.33087704
1.17779 -0.340992 0.32807803
1.1839601 -0.340363 0.32680702
1.1707901 -0.39144599 0.31991804
1.16582 -0.38474202 0.32345504
1.1607499 -0.377379 0.32521003
1.1700801 -0.33835098 0.32749504
1.18207 -0.33927101 0.323282
1.18962 -0.33844101 0.32081103
1.17282 -0.39003503 0.31152302
1.15971 -0.381024 0.31933102
1.1584899 -0.375597 0.32001805
1.17977 -0.33842301 0.32150802
1.1698999 -0.388634 0.30594403
1.16133 -0.380667 0.31162304
1.1574401 -0.37390801 0.31435803
1.1709599 -0.389631 0.29896003
1.16416 -0.381506 0.30412602
1.15807 -0.37304798 0.308128
1.14846 -0.36545199 0.31282401
1.17723 -0.39418203 0.28931004
1.16654 -0.38317299 0.29673603
1.15943 -0.37342498 0.30155206
1.15883 -0.36810002 0.30335304
1.1686901 -0.38550898 0.28883603
1.1636699 -0.37558898 0.29408604
1.1600801 -0.36826301 0.29605702
1.17664 -0.39570099 0.27911705
1.1637 -0.38245898 0.28416502
1.16324 -0.37401798 0.28801402
1.15802 -0.36670798 0.29097202
1.16932 -0.39191601 0.27552205
1.16222 -0.38125899 0.27915505
1.16034 -0.37328997 0.28226003
1.16216 -0.36819899 0.28393
1.17365 -0.399409 0.26734504
1.16897 -0.39243099 0.26961204
1.16373 -0.38396999 0.27377102
1.16213 -0.375359 0.27449402
1.1602401 -0.36850101 0.27798003
1.17686 -0.40096298 0.25856903
1.17237 -0.394862 0.26307803
1.16549 -0.38470599 0.26712802
1.1637599 -0.37577498 0.26736003
1.15853 -0.36783901 0.27067304
1.17001 -0.39252102 0.25812203
1.16185 -0.38109002 0.26331303
1.1588501 -0.37236699 0.26403004
1.16004 -0.36443198 0.26205203
1.16959 -0.392207 0.25130302
1.16151 -0.38119203 0.25762603
1.15556 -0.369463 0.25879902
1.16028 -0.36210603 0.25668004
1.15775 -0.35552898 0.25794101
1.1698201 -0.39117199 0.24472302
1.15915 -0.37980899 0.25151801
1.15581 -0.37031701 0.25315803
1.1575 -0.36333197 0.25310901
1.16062 -0.356098 0.25227401
1.16391 -0.35131699 0.25002304
1.17011 -0.38993698 0.23720902
1.16159 -0.38195202 0.24375904
1.1597 -0.37165999 0.24542305
1.15976 -0.36148798 0.24729504
1.16786 -0.35630903 0.24308804
1.1736 -0.35202 0.23966305
1.17001 -0.38906398 0.23143105
1.16136 -0.38008702 0.23672204
1.16181 -0.371907 0.23809604
1.16187 -0.36251998 0.23972802
1.17414 -0.35634899 0.23340602
1.1673599 -0.38733602 0.22626603
1.1608599 -0.37882599 0.22990704
1.1617401 -0.370621 0.23236103
1.17085 -0.36273202 0.22900002
1.1739 -0.35615799 0.22785503
1.16233 -0.38068402 0.22308002
1.16241 -0.37237203 0.22499104
1.16361 -0.363884 0.22662705
1.1638401 -0.38155201 0.21555603
1.16344 -0.37415299 0.21855305
1.1678901 -0.36514702 0.21793503
1.16807 -0.38717499 0.20809604
1.16414 -0.37999099 0.20915703
1.16546 -0.37221101 0.21130505
1.1712 -0.36329702 0.21012802
1.16453 -0.37994099 0.20420703
1.1658 -0.37298599 0.20323902
1.17001 -0.364337 0.20438701
1.16152 -0.37693402 0.19821602
1.16488 -0.37143099 0.19671401
1.16134 -0.37702203 0.19216305
1.16216 -0.37243301 0.19197303
1.1674199 -0.36613899 0.19020103
1.15755 -0.375067 0.18830001
1.16325 -0.370947 0.18467502
1.16706 -0.36599499 0.18368405
1.1622599 -0.37600499 0.17851903
1.16541 -0.37227401 0.17749202
1.1633201 -0.37684 0.17122105
1.16518 -0.37223098 0.17158802
1.1634101 -0.37608701 0.16424304
1.1636901 -0.37675399 0.15604603
1.16282 -0.37630901 0.15022305
1.19262 -0.34907398 0.35733104
1.16522 -0.37112302 0.35743004
1.1644599 -0.36520302 0.35763603
1.17191 -0.35974601 0.35726604
1.1796601 -0.35098499 0.35548604
1.16163 -0.36970699 0.35355201
1.1638501 -0.36520901 0.35161904
1.1681 -0.35696203 0.35164902
1.17926 -0.34958801 0.34837303
1.19765 -0.348681 0.34400001
1.15975 -0.36805999 0.34848502
1.16387 -0.36341301 0.34577602
1.164 -0.35497898 0.34702203
1.17515 -0.35000703 0.34351802
1.18952 -0.34606999 0.34061605
1.16211 -0.36886397 0.34115002
1.16247 -0.36369202 0.33979604
1.16511 -0.355272 0.34037602
1.1733201 -0.347606 0.33798802
1.18641 -0.34502301 0.33548301
1.1558599 -0.365621 0.33618203
1.15776 -0.35951698 0.33666104
1.1591101 -0.35266602 0.33723003
1.16751 -0.347837 0.33420703
1.18233 -0.34425598 0.33067903
1.19339 -0.34272203 0.32893702
1.15529 -0.366478 0.32886302
1.15503 -0.359712 0.33132702
1.15924 -0.35297 0.33223203
1.1637 -0.34667099 0.32975304
1.17522 -0.34347698 0.32689103
1.1906099 -0.34324199 0.32318801
1.1541899 -0.36652198 0.32374504
1.15574 -0.361711 0.32380304
1.16029 -0.353302 0.32512203
1.16855 -0.34670398 0.32341805
1.18163 -0.34615099 0.31836903
1.15324 -0.36591899 0.31859702
1.15859 -0.363307 0.31716806
1.16044 -0.35659802 0.31762505
1.16768 -0.348364 0.31700402
1.18505 -0.34920201 0.30940303
1.15573 -0.36689898 0.31166801
1.1564801 -0.36172 0.31264403
1.16695 -0.35606098 0.30893901
1.17505 -0.350559 0.30822003
1.1863099 -0.35077301 0.30370402
1.15504 -0.36523801 0.30614305
1.1617299 -0.36182401 0.30463803
1.16995 -0.35772598 0.30047703
1.17303 -0.35143003 0.30312103
1.15373 -0.363511 0.30041406
1.16197 -0.36147499 0.29822004
1.16857 -0.35705298 0.29586303
1.1767601 -0.353044 0.29343602
1.15351 -0.357382 0.295185
1.1688501 -0.35652801 0.29039901
1.17624 -0.351809 0.287274
1.1548899 -0.35657001 0.28833103
1.15996 -0.35422099 0.28795001
1.1710601 -0.35153499 0.28326201
1.18528 -0.351004 0.27618003
1.14489 -0.35131198 0.28913203
1.1624 -0.35313702 0.28158802
1.17545 -0.350822 0.27482805
1.17215 -0.352806 0.26956001
1.1798999 -0.35031199 0.26690403
1.16985 -0.35200298 0.26272702
1.17362 -0.34896302 0.26320404
1.1711 -0.35322201 0.25573605
1.1727201 -0.34974399 0.25743005
1.1811299 -0.34872398 0.25402504
1.1705 -0.35278702 0.25052902
1.1738601 -0.34991902 0.25044903
1.17154 -0.35256803 0.24411201
1.17681 -0.34993303 0.24277604
1.16755 -0.35095701 0.23913501
1.17663 -0.34996498 0.23564503
1.17085 -0.352258 0.23083802
1.1735801 -0.348903 0.22991505
1.16205 -0.349408 0.22776105
1.16883 -0.34794399 0.22673802
1.17855 -0.34764197 0.22219902
1.15439 -0.34633401 0.22601402
1.16903 -0.34831902 0.22000603
1.17855 -0.34745702 0.21406803
1.158 -0.34701699 0.21931805
1.1736699 -0.34878501 0.21079102
1.16324 -0.34732601 0.21038704
1.17548 -0.348331 0.19781604
1.17462 -0.34742001 0.19320405
1.1720099 -0.34651601 0.19156605
1.17554 -0.40493 0.35656205
1.1829 -0.40276599 0.35639805
1.18818 -0.41338599 0.34701201
1.17769 -0.39997101 0.35395405
1.17045 -0.38640898 0.35802403
1.18576 -0.412402 0.34194404
1.18005 -0.40320802 0.34707603
1.17179 -0.38732103 0.35131603
1.1640201 -0.37011701 0.35488304
1.1672599 -0.36048999 0.35659406
1.1725 -0.35308301 0.35760802
1.17467 -0.348241 0.35524705
1.1781 -0.400309 0.34160405
1.16798 -0.385326 0.346533
1.1655201 -0.37428102 0.34841904
1.16362 -0.36058301 0.35041505
1.17012 -0.352534 0.35109302
1.1713901 -0.34642202 0.35081002
1.1828901 -0.40420601 0.33369601
1.1662101 -0.38313901 0.34165302
1.1602401 -0.36728299 0.34488803
1.15824 -0.35698602 0.34687904
1.1613899 -0.35063598 0.34698203
1.1706901 -0.34735 0.34450603
1.16545 -0.38268101 0.33602202
1.15991 -0.370013 0.33870304
1.15799 -0.35739601 0.34126306
1.16321 -0.349327 0.33992603
1.1650599 -0.343086 0.33923104
1.1595 -0.37389901 0.33167803
1.15493 -0.36347401 0.33543003
1.15903 -0.355593 0.33366603
1.1607599 -0.34591597 0.33462203
1.16303 -0.341447 0.33449605
1.15861 -0.37209702 0.32416102
1.158 -0.36530301 0.32787502
1.15871 -0.35755002 0.32675603
1.16098 -0.34907398 0.32789803
1.16291 -0.342574 0.32830104
1.16234 -0.37491101 0.31550503
1.15756 -0.365051 0.32067403
1.15878 -0.354691 0.32161304
1.15956 -0.34627301 0.32330203
1.1649801 -0.344015 0.31994304
1.16554 -0.37762901 0.30727401
1.1596 -0.36838502 0.31310302
1.1601599 -0.35953799 0.31431404
1.16276 -0.349475 0.31501004
1.16676 -0.34465501 0.31238002
1.1689399 -0.38245299 0.29819104
1.16158 -0.368388 0.30569503
1.1600499 -0.356105 0.30886802
1.1664 -0.35018903 0.30600101
1.16847 -0.345121 0.30614802
1.17092 -0.38633901 0.29218206
1.1666 -0.37487498 0.29540104
1.1670899 -0.36088699 0.29811603
1.16835 -0.35151798 0.29929504
1.17053 -0.346549 0.29938805
1.16289 -0.37988701 0.28929004
1.1617501 -0.36902198 0.29090801
1.1632199 -0.35824901 0.29244602
1.16991 -0.352593 0.29264405
1.1736901 -0.348344 0.29177302
1.1700801 -0.38978198 0.27893502
1.16185 -0.37902802 0.28330603
1.1643599 -0.371957 0.28242406
1.16309 -0.36148399 0.28663903
1.16572 -0.35316002 0.28685105
1.1741201 -0.349269 0.28465202
1.1669101 -0.38811299 0.27422303
1.1607701 -0.378562 0.27824202
1.16452 -0.373339 0.27643105
1.16263 -0.361224 0.28017902
1.17117 -0.35375899 0.27752805
1.1739399 -0.348461 0.27835003
1.17072 -0.389676 0.26634902
1.16225 -0.37944901 0.27203101
1.16079 -0.36901101 0.27285701
1.16536 -0.35976398 0.27226302
1.17196 -0.35387099 0.26967004
1.17502 -0.34939602 0.27168202
1.1598101 -0.37525201 0.26602703
1.1598001 -0.36525398 0.26716405
1.16773 -0.358881 0.265129
1.17053 -0.35277802 0.26492906
1.17431 -0.34956798 0.26448402
1.16208 -0.37610099 0.25611103
1.1602 -0.36765099 0.25972801
1.1626999 -0.35944402 0.26142403
1.16907 -0.352844 0.25944903
1.17212 -0.34817502 0.25900605
1.16467 -0.37777698 0.24905002
1.16029 -0.36860001 0.25177705
1.1625299 -0.35840303 0.25485802
1.16333 -0.34954798 0.25584403
1.1719999 -0.34855998 0.25245503
1.16197 -0.375595 0.24460003
1.16019 -0.36807498 0.24431503
1.16254 -0.35957199 0.24704503
1.16453 -0.350676 0.24980102
1.16915 -0.34721002 0.24613205
1.16153 -0.37456501 0.23753804
1.15661 -0.36626098 0.24077004
1.16313 -0.360962 0.23915702
1.16487 -0.35125101 0.24263005
1.1709599 -0.348106 0.23821904
1.16128 -0.37462699 0.23009804
1.16181 -0.368844 0.23321804
1.16356 -0.36024398 0.23186505
1.16826 -0.353172 0.23396903
1.17048 -0.34789798 0.23160003
1.16513 -0.37702203 0.22104806
1.16073 -0.368139 0.22688203
1.16391 -0.36023 0.22477505
1.16669 -0.35214299 0.22779103
1.1717401 -0.348591 0.22418003
1.16562 -0.37720501 0.21360202
1.1600599 -0.36759603 0.22019401
1.16448 -0.36009899 0.21769504
1.1672 -0.35239699 0.22073203
1.17141 -0.34842399 0.21752205
1.1641899 -0.37818199 0.20640904
1.16231 -0.36825699 0.21131603
1.16536 -0.35926899 0.21136802
1.1670899 -0.35208902 0.21413903
1.17276 -0.349208 0.21004501
1.16835 -0.38560298 0.19677705
1.1652501 -0.37345099 0.20089604
1.16448 -0.36085099 0.20531902
1.1680501 -0.35275701 0.20706901
1.17142 -0.348665 0.20377304
1.16826 -0.38582298 0.19094002
1.16085 -0.37110999 0.19730103
1.16476 -0.36317402 0.19717705
1.16748 -0.35331199 0.20015804
1.17092 -0.34879398 0.19674903
1.16161 -0.37138802 0.19145103
1.16487 -0.363047 0.19036503
1.16526 -0.35291198 0.19313602
1.17 -0.34824401 0.18984902
1.16295 -0.37025902 0.18384403
1.16343 -0.35894403 0.18653004
1.16527 -0.35113603 0.18617104
1.16959 -0.34729901 0.18330804
1.16324 -0.36906898 0.17633201
1.16311 -0.358585 0.17985302
1.16395 -0.349529 0.18075603
1.16405 -0.36676702 0.16826004
1.1629901 -0.36046001 0.17222904
1.1673501 -0.35313702 0.17160203
1.16801 -0.34621701 0.17048702
1.16248 -0.36507598 0.16322403
1.165 -0.359813 0.16346401
1.16854 -0.35177299 0.16363804
1.16362 -0.36509898 0.15656501
1.16694 -0.353259 0.15761302
1.16329 -0.364234 0.14867301
1.17934 -0.39191502 0.35956001
1.1790299 -0.39270401 0.35272202
1.17127 -0.373474 0.35939705
1.1751 -0.386031 0.34845802
1.16642 -0.36637199 0.35546401
1.16638 -0.35405999 0.35557804
1.16934 -0.34571099 0.35631004
1.17389 -0.34214297 0.35584104
1.18191 -0.401301 0.33810702
1.17476 -0.38525701 0.34146005
1.1653299 -0.36711499 0.34901005
1.16652 -0.35682499 0.34819102
1.16837 -0.3459 0.35005504
1.17238 -0.34143102 0.34988904
1.1792901 -0.391727 0.33327103
1.16348 -0.36645699 0.34156501
1.1666 -0.35363603 0.34268704
1.16503 -0.34306198 0.34496203
1.17155 -0.34116 0.34350705
1.17709 -0.38632703 0.32800603
1.15965 -0.36143199 0.33708405
1.16213 -0.354689 0.33755302
1.1656899 -0.34473097 0.33789104
1.17048 -0.340532 0.33719802
1.17721 -0.38687301 0.32075906
1.1614701 -0.36350602 0.33040005
1.16002 -0.35053399 0.333193
1.1619899 -0.34323299 0.33204103
1.17003 -0.34102601 0.33013102
1.17849 -0.38859099 0.31277505
1.1648101 -0.36723599 0.32160905
1.16044 -0.35187599 0.32695806
1.16449 -0.344318 0.32506505
1.17071 -0.34116799 0.32195702
1.1667299 -0.367432 0.31383404
1.16275 -0.35326803 0.31925705
1.16725 -0.345099 0.31712902
1.1719 -0.34072301 0.31487805
1.17163 -0.37534499 0.302946
1.1680599 -0.356617 0.30903903
1.17212 -0.346964 0.30850002
1.17607 -0.34311599 0.30763602
1.17015 -0.37392899 0.29622802
1.16871 -0.36134103 0.30029306
1.17013 -0.34987301 0.30221105
1.1741999 -0.34366599 0.30149102
1.1675299 -0.36722401 0.29283303
1.16713 -0.35572398 0.29631504
1.1727999 -0.34983501 0.29440102
1.17715 -0.34511003 0.29227403
1.1681501 -0.37036201 0.284886
1.1706901 -0.358504 0.28825301
1.17417 -0.349834 0.28626004
1.1799099 -0.34658101 0.28509101
1.1748201 -0.38749999 0.27275804
1.1716599 -0.376095 0.27581203
1.17072 -0.35993001 0.27941403
1.1704201 -0.348306 0.28150403
1.17863 -0.34694803 0.27893203
1.1655201 -0.36800098 0.27214703
1.16767 -0.35797799 0.27391502
1.1710601 -0.35027 0.27473304
1.17875 -0.34735098 0.27070504
1.17442 -0.38498402 0.25987303
1.16193 -0.36532101 0.26757404
1.16637 -0.357182 0.26824704
1.17048 -0.34801999 0.26772404
1.18109 -0.347855 0.26268104
1.16475 -0.364739 0.26056305
1.16933 -0.354761 0.26046702
1.17582 -0.34953201 0.25948703
1.18152 -0.34755 0.25611702
1.1691899 -0.372612 0.24925202
1.16694 -0.357169 0.25353006
1.17485 -0.35025901 0.25273001
1.18309 -0.34894198 0.24938804
1.1665699 -0.360704 0.24590302
1.16957 -0.35089502 0.24675602
1.1797 -0.34829101 0.24365303
1.1627201 -0.36263302 0.24087901
1.1642801 -0.35445899 0.24104603
1.1712 -0.34927899 0.23918003
1.1624 -0.35892898 0.23375203
1.16877 -0.35503799 0.23287404
1.17609 -0.350831 0.22953305
1.1599 -0.35916197 0.22693203
1.17028 -0.35771802 0.22358002
1.17329 -0.34949601 0.22369602
1.16624 -0.366382 0.21562801
1.16916 -0.358776 0.21529804
1.1705899 -0.35035098 0.21880302
1.16817 -0.36804298 0.20774101
1.16241 -0.35432702 0.21318401
1.17107 -0.35091701 0.21136203
1.16652 -0.35724998 0.20561302
1.17388 -0.35073602 0.20214103
1.16623 -0.36884499 0.19316703
1.16886 -0.35834703 0.19656304
1.17212 -0.350146 0.19648002
1.16574 -0.359025 0.19098003
1.17195 -0.35187 0.18988903
1.16287 -0.36174402 0.14493302
1.18715 -0.40818599 0.35483205
1.18441 -0.405489 0.35258004
1.1766 -0.39089298 0.35750103
1.18018 -0.400832 0.34907302
1.17662 -0.39093199 0.35188404
1.17053 -0.375 0.35613304
1.17231 -0.35895801 0.35845402
1.18365 -0.35128799 0.35673603
1.18742 -0.344796 0.35657105
1.1807599 -0.40094501 0.34131905
1.1745 -0.38751599 0.34667304
1.1693801 -0.368559 0.35047704
1.17398 -0.36024502 0.35065103
1.1766 -0.350467 0.35174903
1.19029 -0.34662497 0.34957504
1.18284 -0.40182099 0.33467603
1.17671 -0.391029 0.33890903
1.1705101 -0.374156 0.34251201
1.1698201 -0.35644901 0.34511003
1.18072 -0.34868699 0.34433001
1.1961499 -0.34795702 0.34151304
1.17462 -0.38551497 0.33308902
1.16662 -0.36595699 0.33714005
1.1655999 -0.35191301 0.33894503
1.1734201 -0.347179 0.33913901
1.18112 -0.34267798 0.33926305
1.1745501 -0.38417301 0.32531703
1.1667299 -0.36960801 0.32951504
1.16596 -0.35513699 0.33153403
1.16846 -0.34550202 0.33437604
1.1759501 -0.34278598 0.33253101
1.17159 -0.37964699 0.31923303
1.1660299 -0.36505499 0.32305703
1.16488 -0.35124299 0.32519203
1.16948 -0.34522498 0.32760605
1.1776 -0.34308201 0.32366103
1.1737599 -0.381363 0.309863
1.1676201 -0.36910701 0.31577405
1.1713901 -0.35953701 0.31524205
1.1736901 -0.34767801 0.31815103
1.1828901 -0.34683701 0.31508201
1.17568 -0.38518602 0.30075204
1.1679901 -0.368521 0.30796704
1.17224 -0.35853499 0.30795503
1.17345 -0.34970298 0.31120205
1.18083 -0.34672201 0.30904201
1.17488 -0.38874999 0.29312405
1.17336 -0.37773201 0.29681504
1.17108 -0.36076999 0.30071804
1.17713 -0.35222599 0.30297104
1.18197 -0.34791198 0.29977104
1.1737599 -0.38789901 0.28790104
1.16995 -0.37159801 0.29157203
1.1693699 -0.35835603 0.29527301
1.17766 -0.353228 0.29445404
1.1866001 -0.34864399 0.29040605
1.1778901 -0.39846098 0.27772903
1.17235 -0.38508499 0.28255403
1.1682 -0.37051201 0.28445002
1.17301 -0.36060297 0.28782704
1.18318 -0.35378799 0.28424504
1.1775399 -0.39922699 0.26869804
1.1720099 -0.38518101 0.27521804
1.1665699 -0.369376 0.27924404
1.17256 -0.36027801 0.27955106
1.17812 -0.351228 0.27962103
1.17697 -0.39908001 0.26126403
1.1736901 -0.38812101 0.26604301
1.16777 -0.36945301 0.27289605
1.1709599 -0.35929501 0.27376002
1.17948 -0.35332 0.27258903
1.1692901 -0.37231201 0.26416203
1.1720901 -0.36006099 0.26746804
1.17127 -0.37369901 0.25562704
1.17216 -0.36033198 0.25976303
1.17985 -0.35408902 0.25607502
1.1722699 -0.37458098 0.24707603
1.17441 -0.36116502 0.25053504
1.17221 -0.37621602 0.23934303
1.1712101 -0.37236401 0.23399803
1.16851 -0.35912701 0.19289002
1.20474 -0.34025502 0.32587606
1.1901799 -0.35241699 0.33496803
1.19551 -0.34673199 0.33488101
1.1890399 -0.35214502 0.33061004
1.1909 -0.347734 0.32965702
1.19028 -0.35327399 0.32526204
1.19531 -0.34706602 0.32128304
