# .PCD v0.7 - Point Cloud Data file format
VERSION 0.7
FIELDS x y z
SIZE 4 4 4
TYPE F F F
COUNT 1 1 1
WIDTH 894
HEIGHT 1
VIEWPOINT 0 0 0 1 0 0 0
POINTS 894
DATA ascii
1.93284 -0.37768298 0.272315
1.93133 -0.37597901 0.26509202
1.9094901 -0.348234 0.27607301
1.9338299 -0.37845698 0.25396195
1.91418 -0.353028 0.26566795
1.9380001 -0.38355401 0.24140999
1.9154899 -0.35499501 0.25425598
1.9247999 -0.373494 0.23677596
1.90328 -0.34435999 0.24847901
1.91739 -0.366254 0.22989295
1.8886099 -0.33429798 0.24513397
1.88976 -0.334409 0.23433898
1.89702 -0.33562303 0.22061196
1.88693 -0.270816 0.214058
1.89134 -0.317357 0.19261795
1.89065 -0.271521 0.20310502
1.89828 -0.260766 0.19969101
1.92656 -0.259648 0.18708596
1.8937 -0.317476 0.18305001
1.89359 -0.27224702 0.19155701
1.9032 -0.26162601 0.187529
1.8885601 -0.299694 0.17773697
1.8886099 -0.28540799 0.18201599
1.8964 -0.27220801 0.17927597
1.8984801 -0.26028901 0.17824402
1.89297 -0.298803 0.16433296
1.8932899 -0.28621998 0.16923699
1.89823 -0.27325401 0.16744401
1.90746 -0.26470399 0.16303696
1.89245 -0.29793301 0.15368995
1.89332 -0.28581199 0.15844299
1.8964599 -0.27232599 0.15754502
1.90838 -0.26444301 0.152183
1.89454 -0.29856399 0.14178696
1.8948599 -0.28607902 0.14681701
1.9046299 -0.27453899 0.14262596
1.8932099 -0.298453 0.13142097
1.8964101 -0.28639701 0.13429497
1.90418 -0.274647 0.13179901
1.8959399 -0.30001199 0.11948197
1.89046 -0.28647 0.12651199
1.8976101 -0.27523699 0.12487701
1.90793 -0.265679 0.12158196
1.89863 -0.30079201 0.10754097
1.89 -0.28528202 0.11690201
1.89832 -0.27406701 0.11393097
1.9101 -0.26615199 0.10827401
1.8958701 -0.299597 0.098026961
1.89219 -0.28547502 0.10523796
1.89756 -0.27314198 0.10334801
1.9072099 -0.26476899 0.098517001
1.9005799 -0.3017 0.084692992
1.8936701 -0.28614798 0.093608014
1.89991 -0.27396402 0.091177978
1.9074299 -0.26421601 0.087755963
1.90222 -0.30214399 0.072626956
1.8928701 -0.28541699 0.082860947
1.9011 -0.27361602 0.079159014
1.9077001 -0.26418 0.077871017
1.89731 -0.29964501 0.064097978
1.89406 -0.285162 0.070550002
1.89297 -0.27052701 0.073384017
1.9004401 -0.261419 0.071045987
1.8927699 -0.285117 0.059825972
1.89907 -0.273397 0.060593948
1.90403 -0.261453 0.056678999
1.88685 -0.28186399 0.052259978
1.89369 -0.27046901 0.052490007
1.9089999 -0.26222301 0.043949965
1.8932201 -0.28583801 0.036240004
1.8952299 -0.270641 0.040919952
1.8924201 -0.28527299 0.026500015
1.89509 -0.270919 0.029799957
2.01017 -0.28616899 0.32872695
2.0114999 -0.29902598 0.32718894
2.01649 -0.311075 0.32458901
2.02279 -0.28017101 0.322629
2.01208 -0.29809901 0.31719893
2.01282 -0.315889 0.31416595
2.0111201 -0.284154 0.31066695
2.01161 -0.29539001 0.307163
2.0190699 -0.308698 0.30670395
2.0067899 -0.28382501 0.29933
2.0137398 -0.29467699 0.29860902
2.02283 -0.306862 0.29738799
2.0204699 -0.32412201 0.29682702
1.99894 -0.27236602 0.28872299
2.01161 -0.28076899 0.29210395
2.0181501 -0.292422 0.29069597
2.0237801 -0.305159 0.28868303
2.02545 -0.32099301 0.28770798
1.9628799 -0.271 0.26902398
1.98883 -0.27332899 0.27672294
2.0108001 -0.27980101 0.28262597
2.0178301 -0.29347 0.28192794
2.0216999 -0.30795601 0.27897498
2.0308299 -0.32033297 0.27956796
2.0290101 -0.33581799 0.27387497
1.9581 -0.27237499 0.26172996
1.9865899 -0.271056 0.26736802
2.0050199 -0.27918601 0.27103195
2.0163 -0.292193 0.27268997
2.02333 -0.304279 0.27013001
2.03035 -0.31863099 0.26986802
2.02772 -0.33790198 0.26361597
1.95698 -0.271878 0.25594497
1.99271 -0.26798201 0.25853798
1.9985601 -0.27980301 0.25937095
2.01736 -0.29049399 0.26227403
2.02369 -0.30618298 0.261911
2.0265899 -0.321078 0.25871697
1.9613299 -0.25326002 0.24196701
1.9686999 -0.26452899 0.243554
1.99422 -0.26886401 0.250552
2.01105 -0.27726701 0.25389099
2.0123801 -0.291976 0.24976601
2.0255098 -0.30368602 0.25347099
2.0235 -0.32175401 0.248032
1.97112 -0.25874701 0.236595
1.9841701 -0.26833799 0.238611
2.0056798 -0.27707601 0.24254699
2.0162101 -0.288706 0.24180801
2.0183899 -0.305233 0.24092202
2.0155299 -0.325351 0.23541595
2.0081301 -0.34525201 0.228824
1.96436 -0.25024998 0.22742897
1.9733901 -0.259298 0.22873795
1.99655 -0.264981 0.231996
2.0111599 -0.27679399 0.23392296
2.01737 -0.29048401 0.23393501
2.0176699 -0.30632201 0.23039696
2.01578 -0.32542899 0.22523201
2.0019801 -0.34794399 0.21842301
1.95986 -0.25172701 0.21773101
1.9782001 -0.25735399 0.22096695
1.99885 -0.26282102 0.22372001
2.00545 -0.27509701 0.22327301
2.0178301 -0.28748599 0.22475098
2.0171001 -0.30562699 0.22016495
2.01565 -0.32232499 0.21593796
2.01526 -0.33924198 0.21397698
1.96381 -0.24932501 0.21260795
2.00314 -0.26370201 0.21600997
2.01246 -0.27444598 0.21664199
2.01197 -0.29073098 0.21241401
2.0190401 -0.30477601 0.210868
2.0077 -0.32777101 0.20422897
1.99569 -0.27059299 0.20281295
2.00668 -0.27755299 0.20519195
2.01404 -0.29048002 0.20237702
2.0141299 -0.30866101 0.19957398
2.01 -0.326395 0.19618301
2.00934 -0.33750001 0.19336098
2.0128901 -0.275931 0.196381
2.0157499 -0.28745702 0.19409996
2.0190001 -0.300345 0.192454
2.0145199 -0.31863201 0.18851395
2.00579 -0.27923402 0.18391494
2.01583 -0.286863 0.18507302
2.01759 -0.301945 0.18187501
2.0197599 -0.31389201 0.17896095
2.01108 -0.27767402 0.17600998
2.0154901 -0.289078 0.17349701
2.02107 -0.301319 0.17326194
2.0176802 -0.31430599 0.16820496
2.00792 -0.27881202 0.16406395
2.0104601 -0.28954801 0.16243996
2.0190699 -0.30019301 0.16259795
2.01652 -0.31429002 0.15924698
2.0165401 -0.285519 0.15547295
2.0202901 -0.29856801 0.15193795
2.0187299 -0.31207702 0.15112297
2.00927 -0.27680501 0.145914
2.0177801 -0.285806 0.14469399
2.0206599 -0.298163 0.14319099
2.0240901 -0.30794299 0.14239898
2.0099299 -0.27638999 0.13503899
2.0220599 -0.28228101 0.13717896
2.0222301 -0.29599002 0.13505897
2.02141 -0.30921102 0.13044196
2.0141702 -0.27303699 0.12720399
2.01771 -0.28411099 0.12595597
2.02249 -0.29722401 0.12527199
2.0218999 -0.30888501 0.12052597
2.00945 -0.274786 0.11619301
2.0114701 -0.28595501 0.112221
2.0209701 -0.296473 0.11511101
2.0203102 -0.30900201 0.11003098
2.01037 -0.28499401 0.102174
2.0237801 -0.29396701 0.10485802
2.01952 -0.30891001 0.100448
2.01578 -0.283829 0.09437599
2.0252399 -0.293322 0.095951997
2.0224199 -0.306319 0.092209011
2.0115099 -0.27276 0.087061003
2.01209 -0.284098 0.082287982
2.0220001 -0.29395398 0.085554965
2.0186901 -0.30778 0.07967598
2.0134499 -0.27073699 0.077537
2.0080299 -0.28462401 0.071131974
2.0182199 -0.29505301 0.072711945
2.0146999 -0.309762 0.068677977
2.00752 -0.27352101 0.064345017
2.01366 -0.28334498 0.064642943
2.02002 -0.293374 0.062431946
2.01827 -0.306871 0.061006013
2.0050302 -0.27344701 0.052129973
2.0167799 -0.28045902 0.056408003
2.0225799 -0.29094401 0.053709947
2.02121 -0.30468699 0.050989989
2.0089998 -0.27074 0.044140015
2.01653 -0.27965599 0.044970017
2.0193701 -0.294029 0.042610016
2.0211799 -0.30512899 0.040879976
2.0090401 -0.27072999 0.034359969
2.0211098 -0.27616701 0.037439957
2.0211401 -0.289446 0.034349974
2.02619 -0.30080199 0.032890014
2.01052 -0.26954901 0.025239944
2.02001 -0.27670699 0.02824997
2.02405 -0.289029 0.025800018
2.0169501 -0.30520901 0.018789979
2.0048499 -0.27153799 0.015469971
2.0195398 -0.277511 0.019789962
2.0216901 -0.29140499 0.016809998
2.02039 -0.30384299 0.013069992
1.9931901 -0.27377301 0.32789695
2.0010099 -0.28313199 0.32968399
2.0172501 -0.30846101 0.32805297
1.98918 -0.274629 0.31865799
2.0004601 -0.281427 0.32034501
2.0085001 -0.29499599 0.320113
2.00998 -0.311847 0.31695703
1.9914 -0.27473199 0.30993599
2.0058601 -0.282401 0.31239495
2.0065401 -0.295941 0.31044197
2.0172601 -0.30663601 0.31060395
1.99325 -0.273132 0.30023399
2.00332 -0.28105602 0.30266801
2.0108399 -0.29384801 0.30282798
2.0181899 -0.30711201 0.30124101
2.02229 -0.32162103 0.30096298
1.99261 -0.27235499 0.29082596
1.9982899 -0.28062999 0.29261598
2.0053201 -0.29193199 0.29233199
2.02162 -0.302147 0.29421294
1.9922501 -0.272383 0.28218696
1.99957 -0.28140801 0.28291497
2.0148399 -0.291881 0.28509095
2.0221701 -0.305509 0.28453597
2.02825 -0.319426 0.28347999
1.9907001 -0.2723 0.27222693
2.00612 -0.27928001 0.27469102
2.0062499 -0.29231301 0.27434197
2.01752 -0.303229 0.27470002
2.0285499 -0.314899 0.27534699
2.03233 -0.32871601 0.27384093
1.9924899 -0.26782 0.26310501
2.0018401 -0.27748302 0.264254
2.0144701 -0.289947 0.26688898
2.02285 -0.304506 0.26653802
2.0291901 -0.317283 0.266837
2.02369 -0.33330798 0.26183295
1.96466 -0.26526502 0.247789
1.99351 -0.265576 0.255178
2.0032101 -0.27505502 0.25567397
2.0129402 -0.28659001 0.256782
2.0213599 -0.30149201 0.25649795
2.0262499 -0.31730801 0.25718299
2.0178499 -0.33545101 0.25034499
1.97377 -0.258553 0.24132095
1.99584 -0.264851 0.247462
2.00878 -0.274654 0.24847199
2.02002 -0.287415 0.24870697
2.0259299 -0.29982501 0.24907799
2.0225799 -0.316659 0.24612999
1.99885 -0.34402001 0.23425598
1.99491 -0.35853601 0.229701
1.95927 -0.25016099 0.23061997
1.9691 -0.25725099 0.23099098
1.9991601 -0.261785 0.23861298
2.0142 -0.274313 0.24020401
2.02232 -0.28715301 0.23982498
2.02543 -0.30036199 0.24060898
2.0165601 -0.32026699 0.23313302
1.9844999 -0.353266 0.21983697
1.96055 -0.24933501 0.22342895
1.9787199 -0.255559 0.22577401
2.0021 -0.26019999 0.23043801
2.0105901 -0.27103001 0.23090194
2.0202799 -0.28431499 0.23041199
2.02407 -0.30098301 0.22974899
2.01214 -0.32263401 0.221604
1.9962699 -0.34414101 0.21481201
1.9600301 -0.24992001 0.21647598
2.00703 -0.26116899 0.22311798
2.0128 -0.272829 0.22250694
2.01545 -0.285855 0.21891998
2.02262 -0.29788402 0.22058296
2.01915 -0.31615299 0.21542397
2.0015299 -0.339463 0.20788398
2.0002298 -0.352579 0.20505096
2.00317 -0.26574302 0.211652
2.01085 -0.27355102 0.21297599
2.01806 -0.28398702 0.21111999
2.0202999 -0.29861298 0.21005501
2.02177 -0.31400299 0.20647401
2.01143 -0.335078 0.20091996
2.01601 -0.34591702 0.20067497
2.0145299 -0.27405199 0.20389701
2.0184 -0.286042 0.20318002
2.0150499 -0.30188599 0.19852898
2.0174699 -0.31689799 0.19586197
2.01092 -0.33481601 0.19146499
2.0187299 -0.344212 0.19381897
2.00878 -0.27688199 0.190523
2.0161901 -0.286237 0.19327995
2.0148499 -0.30163601 0.18896194
2.0150001 -0.31581101 0.18583398
2.0106599 -0.34704199 0.18418495
2.00562 -0.277661 0.18049096
2.00966 -0.288609 0.17994095
2.0155499 -0.30156001 0.17998695
2.0160301 -0.312435 0.17652595
2.00526 -0.277872 0.17151099
2.0153799 -0.28565201 0.17096595
2.01425 -0.30032399 0.16988602
2.0160699 -0.31106701 0.16773796
2.0053899 -0.27809399 0.160505
2.0190899 -0.28424498 0.16316795
2.0241201 -0.294166 0.16453995
2.0179701 -0.308741 0.15959197
2.0088201 -0.27502501 0.15148994
2.0148199 -0.284794 0.15296295
2.0213699 -0.29538602 0.15460701
2.0234802 -0.30583599 0.15091598
2.0093501 -0.284897 0.14103097
2.0207 -0.294862 0.14459999
2.0223501 -0.305657 0.14035599
2.00933 -0.27351102 0.13465096
2.0118899 -0.28357401 0.132062
2.01934 -0.294485 0.13352096
2.02476 -0.304497 0.13138497
2.0100799 -0.27329901 0.12439895
2.0146301 -0.28462401 0.12377495
2.0211 -0.295652 0.12421997
2.0233099 -0.305213 0.121166
2.0119801 -0.28256801 0.11341797
2.0186601 -0.29486799 0.11315101
2.0137801 -0.30840799 0.10863999
2.0090699 -0.272163 0.10461296
2.0164301 -0.282579 0.104991
2.0183201 -0.29485598 0.10324997
2.0225799 -0.30390498 0.102836
2.01949 -0.27847299 0.096926957
2.0196002 -0.29310501 0.094134979
2.02509 -0.302304 0.094103009
2.0102301 -0.27065301 0.085523985
2.01858 -0.28045699 0.086494982
2.0183001 -0.29350799 0.083913952
2.0253301 -0.301162 0.08441101
2.00085 -0.27347299 0.071931988
2.0150399 -0.27885598 0.075896986
2.02477 -0.28910699 0.077397004
2.0267599 -0.30045301 0.073973008
2.00757 -0.27147999 0.064675979
2.0197001 -0.278862 0.068369977
2.0269899 -0.289354 0.067053989
2.0272701 -0.300381 0.064807966
2.0076401 -0.27076399 0.054938965
2.0164001 -0.27992499 0.057291947
2.01841 -0.292052 0.054927979
2.0058999 -0.270089 0.047399979
2.0160601 -0.277421 0.050059967
2.0239899 -0.288077 0.051039964
1.99149 -0.283355 0.32376999
2.0028501 -0.29248899 0.32594696
2.0074499 -0.30523801 0.32574096
2.01671 -0.31594899 0.32413498
1.9865899 -0.28211799 0.31190896
1.9972501 -0.29173401 0.315485
2.00723 -0.30355498 0.31737098
2.01122 -0.316531 0.31365195
1.9648399 -0.27650401 0.29834497
1.98169 -0.28184402 0.30265197
1.99282 -0.29035401 0.305895
2.0045199 -0.301925 0.30722198
2.01159 -0.31515399 0.30533698
1.96513 -0.27502701 0.28992096
1.97918 -0.28079501 0.29453498
1.99468 -0.28988099 0.29751596
2.00844 -0.302683 0.29794702
2.0141702 -0.31607801 0.298311
1.9603 -0.27504802 0.27947494
1.98235 -0.28030398 0.286102
2.0032401 -0.29017901 0.289693
2.0146401 -0.300093 0.29125899
2.01917 -0.31292999 0.29101196
1.96181 -0.27363199 0.27162597
1.9802499 -0.27853301 0.275915
2.0011001 -0.28703502 0.27974296
2.0153599 -0.29986501 0.28274497
2.0260801 -0.31312501 0.28341094
2.0262301 -0.32648399 0.28123298
1.96644 -0.27236098 0.26405495
1.98824 -0.27798599 0.26899797
2.0111501 -0.28373399 0.27402002
2.01387 -0.29699799 0.27240294
2.0256 -0.31006598 0.274757
2.0308099 -0.32387799 0.27485901
1.9633099 -0.27137601 0.253786
1.98103 -0.27721599 0.25793496
2.0032301 -0.28544101 0.26316598
2.0137 -0.29772699 0.262508
2.02231 -0.30879399 0.26533797
2.0286798 -0.32276401 0.26484099
1.94538 -0.263789 0.23811096
1.97058 -0.26730201 0.24615395
1.99132 -0.27581 0.25186598
2.0080199 -0.28575599 0.25529099
2.01458 -0.29744101 0.25354996
2.0215499 -0.31020001 0.25638101
2.0199099 -0.32655498 0.25209901
1.96513 -0.25737801 0.23735298
1.96954 -0.26571301 0.23796096
1.9889301 -0.27237099 0.24229698
2.00776 -0.283402 0.24601799
2.0108399 -0.2987 0.24308197
2.01686 -0.311827 0.24566399
2.01969 -0.32609698 0.242864
2.0062199 -0.34409401 0.23538399
1.96558 -0.257929 0.22945999
1.9756399 -0.264568 0.231977
1.9963299 -0.273148 0.23458
2.01264 -0.28455001 0.23729897
2.0115402 -0.29984301 0.23438996
2.01635 -0.312013 0.23620896
2.0149601 -0.32795501 0.23213296
2.00302 -0.34632701 0.22532395
1.98808 -0.26331699 0.22640397
1.99897 -0.27293301 0.22558601
2.0101402 -0.282722 0.22791496
2.01894 -0.29483402 0.22884399
2.01162 -0.313896 0.22447701
2.0026901 -0.334544 0.21816796
1.9961799 -0.350687 0.21352096
2.00019 -0.272672 0.21772796
2.0099499 -0.28156999 0.21912201
2.01899 -0.29194501 0.22097397
2.0179501 -0.30701301 0.217613
2.01316 -0.32571203 0.21240601
2.00332 -0.34535199 0.20735198
2.0023 -0.27438998 0.20894501
2.0115199 -0.28093702 0.21132897
2.0145299 -0.29410499 0.21004799
2.01631 -0.30993798 0.20695595
2.0181501 -0.32353401 0.20465499
2.0100999 -0.34021801 0.20046897
2.0099299 -0.353122 0.19869301
2.01247 -0.28389299 0.20162201
2.01425 -0.297474 0.19947197
2.0141599 -0.312583 0.19684899
2.01419 -0.32701999 0.19536094
2.0169799 -0.33950299 0.19434395
2.02385 -0.348786 0.19534302
2.0151401 -0.28377301 0.19143997
2.0171499 -0.293262 0.192406
2.01896 -0.30609801 0.19021195
2.01736 -0.32207698 0.18759796
2.0000999 -0.35774201 0.18056099
2.01055 -0.28552699 0.18006401
2.0171099 -0.293883 0.183228
2.0144601 -0.30849302 0.17839798
2.0153301 -0.31999299 0.17710701
2.0085201 -0.286015 0.16970696
2.0176401 -0.29385701 0.17379501
2.0158 -0.30690899 0.16924095
2.0210099 -0.31687599 0.16954598
2.0109501 -0.283806 0.16126801
2.0158999 -0.29415399 0.162919
2.0195799 -0.30678901 0.16156998
2.0176001 -0.31805301 0.15915795
2.0056798 -0.28433201 0.151352
2.0112901 -0.29251802 0.15194298
2.0176699 -0.30391398 0.15200195
2.0237601 -0.31477201 0.15200996
2.0127699 -0.28234801 0.14561996
2.01579 -0.29266101 0.14398201
2.0185599 -0.30546498 0.14192902
2.01846 -0.31658801 0.14081794
2.01366 -0.28324401 0.13537498
2.0168099 -0.29378501 0.13499901
2.0183201 -0.30527601 0.13175698
2.0225501 -0.314558 0.13368995
2.0081501 -0.28347901 0.12242699
2.0146499 -0.29370898 0.124291
2.01898 -0.30521899 0.122957
2.02263 -0.313853 0.12451302
2.0097799 -0.29250899 0.11231995
2.0179899 -0.30332199 0.11405601
2.0214701 -0.313595 0.11468399
2.01898 -0.28870702 0.10723396
2.0177 -0.30083299 0.10472099
2.0232601 -0.311811 0.10455498
2.00876 -0.28160298 0.095490955
2.0169501 -0.28957799 0.097442016
2.02215 -0.301599 0.09642601
2.0221601 -0.314226 0.092072986
2.0139101 -0.27989098 0.087668002
2.01911 -0.29117799 0.08783295
2.02021 -0.304447 0.086152956
2.0217299 -0.31561601 0.082896955
2.0018201 -0.33356202 0.072034985
2.00594 -0.28179398 0.075657956
2.0162802 -0.289179 0.077657014
2.0223501 -0.30275801 0.078259967
2.01773 -0.318535 0.073209003
2.0114901 -0.279827 0.070935972
2.01721 -0.288324 0.07125099
2.02244 -0.298812 0.071427003
2.02547 -0.31280002 0.070597991
2.0035 -0.33305001 0.059062958
1.9557401 -0.276766 0.32124496
1.98007 -0.28187799 0.32825294
1.95582 -0.27640599 0.31223801
1.97449 -0.28254998 0.31762001
1.9948599 -0.291269 0.32253295
2.00647 -0.303821 0.324543
1.9555401 -0.27520299 0.30349702
1.9690199 -0.28272802 0.30720299
1.9888999 -0.291484 0.31196594
2.00069 -0.30259001 0.31475297
2.0136499 -0.31426999 0.31607696
1.9542799 -0.274919 0.29515496
1.9658501 -0.28204301 0.29759696
1.98228 -0.29123199 0.30130997
2.00401 -0.30160001 0.30642098
2.01226 -0.31574699 0.30579102
1.9549699 -0.27542299 0.28649101
1.9818801 -0.28065002 0.29351798
1.99283 -0.29191899 0.29577696
2.0053301 -0.30309001 0.29653594
2.01122 -0.316825 0.29714194
1.95681 -0.274822 0.27692696
1.9782201 -0.27963302 0.28415099
1.99112 -0.29027399 0.28638801
2.0103998 -0.29912999 0.28906196
2.01425 -0.31330299 0.28943595
1.95576 -0.27429599 0.26714402
1.9777901 -0.28068501 0.27457902
2.0021899 -0.28889999 0.28075698
2.0081398 -0.30121002 0.28005698
2.01688 -0.31398401 0.28085297
2.0259101 -0.32517299 0.28100097
1.95894 -0.272571 0.26025498
1.9724201 -0.279724 0.26283601
2.00141 -0.28822201 0.27129897
2.0120699 -0.30185899 0.27213502
2.0194199 -0.314161 0.273022
2.02753 -0.323232 0.27288795
1.95921 -0.27152202 0.25206199
1.9754 -0.27776599 0.25441596
1.99332 -0.28664699 0.259262
2.00893 -0.29834101 0.26254395
2.0203199 -0.31198701 0.26417395
2.0313699 -0.32273799 0.26637101
2.01951 -0.335906 0.25972694
1.94182 -0.26224101 0.23618302
1.96366 -0.26862201 0.24307396
1.98541 -0.27744401 0.24903099
2.0067701 -0.287067 0.25404495
2.01597 -0.29989299 0.25538895
2.0231102 -0.310853 0.25647399
2.02193 -0.32390299 0.25452501
2.0174601 -0.33646703 0.24965401
1.9611599 -0.25725701 0.23653801
1.9833701 -0.27478799 0.24032798
2.00069 -0.284872 0.24364997
2.01299 -0.297492 0.24531998
2.0222502 -0.31046301 0.24824196
2.01846 -0.325223 0.24322495
1.93532 -0.26273599 0.22238602
1.99511 -0.27432501 0.23403595
2.0074301 -0.28616399 0.23639099
2.0151701 -0.29717699 0.23767395
2.01983 -0.30938101 0.2379
2.01808 -0.32351601 0.23390496
2.01158 -0.33686298 0.23061097
1.98525 -0.26840001 0.22297196
1.9925901 -0.275325 0.22415298
2.00577 -0.284336 0.22675996
2.01594 -0.29662001 0.23029999
2.0141001 -0.311389 0.22656898
2.0144 -0.32494801 0.22410095
2.0139799 -0.33575001 0.22146095
1.99989 -0.27530599 0.21768394
2.00704 -0.28560498 0.21765098
2.0153 -0.29659402 0.22087601
2.01473 -0.31184098 0.21749
2.01319 -0.326078 0.21442002
2.0122099 -0.33757302 0.21125495
1.99611 -0.277511 0.20683296
2.0059299 -0.285227 0.20891395
2.0127401 -0.29766399 0.21008401
2.01529 -0.31293198 0.20813301
2.0163698 -0.326626 0.20616294
2.0128798 -0.33822799 0.20245895
1.9920399 -0.28964701 0.19483101
2.0081301 -0.295977 0.20018196
2.0165601 -0.307414 0.200504
2.0181 -0.32185501 0.19854698
2.0166099 -0.33562401 0.19600998
1.9872301 -0.29278201 0.18247299
2.0129299 -0.296186 0.19274499
2.0098701 -0.31097001 0.18872498
2.0171299 -0.32337299 0.18898994
2.0149 -0.33546901 0.186231
1.98823 -0.291767 0.17321998
2.0100601 -0.297952 0.18155296
2.0145102 -0.31124499 0.181624
2.0131199 -0.32412398 0.17829201
2.0159299 -0.33390301 0.17630501
2.00424 -0.29694799 0.16978401
2.0132799 -0.30919501 0.17209099
2.0142999 -0.32303602 0.169374
2.01091 -0.33437902 0.16504699
2.0139701 -0.29676399 0.163983
2.01771 -0.30988002 0.164235
2.0127001 -0.32366699 0.15934998
2.00489 -0.336633 0.15368797
2.00717 -0.29593301 0.15224899
2.01861 -0.30809602 0.154458
2.01249 -0.32455003 0.14994797
2.0147099 -0.296128 0.14571594
2.0214 -0.30663902 0.14650398
2.0188799 -0.319628 0.14316696
2.00542 -0.335318 0.13773201
2.0090799 -0.29618299 0.13448097
2.0134101 -0.30807698 0.13553795
2.01807 -0.318941 0.13359794
2.01407 -0.33102903 0.13057198
2.00983 -0.294462 0.12524498
2.0167201 -0.30638099 0.12777801
2.0202301 -0.31875098 0.12546395
2.0122499 -0.331772 0.11925201
2.01367 -0.305994 0.11659095
2.0183401 -0.31939802 0.11487099
2.0084701 -0.33317798 0.10805801
2.0093 -0.294889 0.10753495
2.01478 -0.30689698 0.10667999
2.01717 -0.320214 0.104338
2.0097799 -0.33258498 0.10013595
2.01423 -0.307428 0.097107999
2.0188301 -0.31912801 0.09693794
2.0117102 -0.33105201 0.093065947
2.0107601 -0.293836 0.09143196
2.0146401 -0.306173 0.090709992
2.01882 -0.31801701 0.090737
2.0128 -0.32998699 0.086971968
1.9696001 -0.27773398 0.32420197
1.9706799 -0.27756798 0.31568396
1.98912 -0.286158 0.31973898
2.0002699 -0.29729199 0.32103196
2.0076101 -0.30935299 0.32254297
1.96935 -0.27695999 0.306923
1.98006 -0.28479201 0.30887902
1.9945101 -0.295104 0.31156799
2.0013001 -0.308267 0.31224295
1.96847 -0.27733901 0.29865098
1.9874699 -0.285193 0.30159301
2.0004101 -0.29725599 0.30453795
2.00647 -0.31054398 0.304721
1.9724801 -0.27743399 0.29051101
1.99104 -0.28381699 0.29317299
1.99589 -0.29482499 0.29528701
2.0116701 -0.319949 0.29659697
1.98127 -0.275754 0.28324699
1.9870399 -0.284253 0.28427598
1.99799 -0.29462999 0.287063
2.0129099 -0.30776301 0.28914794
2.01773 -0.32102001 0.29011795
1.97808 -0.274939 0.27274498
1.98918 -0.28436399 0.27656198
2.0068099 -0.296175 0.28022301
2.0120499 -0.30799901 0.28053796
2.0207601 -0.31986099 0.28201798
1.9770399 -0.27414399 0.264189
1.98604 -0.282309 0.26645195
2.0025599 -0.293194 0.26981995
2.0158999 -0.30693099 0.27363998
2.02402 -0.318735 0.27474296
2.02684 -0.33108798 0.27392295
1.98175 -0.27361 0.25708297
1.99771 -0.28195101 0.26182199
2.00543 -0.292184 0.26182297
2.01546 -0.30458599 0.26387298
2.0237801 -0.318248 0.26689896
2.02966 -0.32997 0.26514298
1.9558501 -0.26455298 0.23861802
1.97504 -0.27219498 0.244505
1.99734 -0.28214702 0.25274599
2.01333 -0.292887 0.25649697
2.01583 -0.30528298 0.25455499
2.0238099 -0.31757501 0.25769997
2.0185299 -0.33174199 0.25245094
1.9656 -0.263138 0.23536895
1.9729201 -0.27195102 0.23574997
2.0006399 -0.27942401 0.24433999
2.01074 -0.292725 0.24720696
2.0125501 -0.305316 0.24579498
2.02054 -0.317204 0.24716096
2.01494 -0.33254501 0.24216896
1.97867 -0.27098301 0.23051201
1.99641 -0.279277 0.233806
2.0126801 -0.28942901 0.23942398
2.01757 -0.303599 0.23940101
2.0092301 -0.321365 0.23337799
2.0097702 -0.33402002 0.23212196
2.0176699 -0.34175399 0.23545502
1.99534 -0.270596 0.226027
2.0020599 -0.27949399 0.22710198
2.01178 -0.290887 0.22928399
2.0151899 -0.30641299 0.22864799
2.0142901 -0.31991699 0.22628494
2.00756 -0.33270699 0.22407997
2.01318 -0.34160399 0.22448601
1.9813 -0.27437401 0.212155
2.0096099 -0.279349 0.22123794
2.0156701 -0.29071599 0.221175
2.0179501 -0.302288 0.22188598
2.01634 -0.31577399 0.21936898
2.0125799 -0.33058399 0.21688195
2.0094299 -0.34214401 0.21290696
2.00596 -0.28060699 0.21078201
2.0076602 -0.29039499 0.21105698
2.0134499 -0.30308902 0.21142799
2.0162001 -0.31769198 0.21033196
2.0114799 -0.33198002 0.206697
2.01015 -0.34262601 0.20376396
2.0027201 -0.28341401 0.200242
2.0143201 -0.29141 0.20406395
2.0151801 -0.30569801 0.20253098
2.0121601 -0.32016701 0.200308
2.0118699 -0.33190399 0.19734497
2.0111399 -0.34224603 0.19608696
2.0086701 -0.29320899 0.19239998
2.0130701 -0.30293801 0.19396301
2.01721 -0.31621599 0.193395
2.00929 -0.330589 0.18727402
2.00881 -0.29431599 0.18216896
2.01419 -0.30349198 0.18538399
2.0141098 -0.31735 0.18240899
2.0132601 -0.33111501 0.17974296
2.0162399 -0.34025699 0.18028802
2.00542 -0.295093 0.17223595
2.0136099 -0.304364 0.17451897
2.0174999 -0.31832501 0.17446098
2.0105801 -0.33128503 0.17050301
2.01474 -0.33966401 0.170746
2.0111301 -0.294056 0.16504997
2.01213 -0.30490899 0.16421799
2.0200901 -0.31472901 0.16752197
2.0134599 -0.32921502 0.163452
2.0140901 -0.33946702 0.16062194
2.0049801 -0.29283702 0.15237801
2.0127699 -0.30299899 0.15593597
2.01634 -0.316378 0.15690102
2.0116401 -0.33069402 0.15351601
2.0092399 -0.30130699 0.14627799
2.01963 -0.31259099 0.14877395
2.01315 -0.32919103 0.14465401
2.0023599 -0.28975001 0.13608199
2.01211 -0.30142799 0.13779098
2.0201199 -0.31576699 0.13918495
2.0089998 -0.33271 0.132631
2.0141001 -0.29048902 0.13170898
2.01647 -0.30034301 0.129702
2.0172601 -0.31254199 0.12894799
2.01543 -0.32756001 0.12684998
2.01564 -0.29194099 0.12351502
2.01494 -0.30233699 0.12064896
2.0098801 -0.31739402 0.11757698
2.0125201 -0.33028197 0.11732895
2.0144901 -0.29262698 0.115709
2.0172999 -0.30125201 0.11518196
2.0142999 -0.31367901 0.11273102
2.01335 -0.32940498 0.111008
1.9299099 -0.379632 0.32601798
1.9570301 -0.384446 0.30898696
1.9293 -0.38014901 0.31599602
1.89422 -0.34959701 0.32352296
1.96314 -0.38343799 0.29612702
1.9397701 -0.377924 0.30305594
1.9150101 -0.371079 0.31018394
1.9641401 -0.380485 0.28610498
1.92972 -0.37941897 0.298011
1.9156799 -0.37075901 0.30100998
1.9042701 -0.36027801 0.30465797
1.9280701 -0.38082901 0.29164398
1.9725599 -0.38196602 0.26096496
1.98233 -0.38826698 0.24942902
1.9691401 -0.38306999 0.25327095
1.96954 -0.38237399 0.24346901
1.8930401 -0.34096298 0.255869
1.97024 -0.37849799 0.23094597
1.92013 -0.377455 0.24370697
1.90666 -0.36977199 0.24750298
1.90065 -0.35485101 0.24798599
1.89179 -0.343335 0.25052893
1.97121 -0.375449 0.21962196
1.9349899 -0.37517399 0.23135398
1.91198 -0.36720699 0.23799996
1.90723 -0.35156798 0.236885
1.89546 -0.34167099 0.24110496
1.9778399 -0.37194598 0.20813896
1.9479699 -0.36930099 0.215821
1.91733 -0.36652303 0.22627297
1.90521 -0.35555401 0.229562
1.90204 -0.33823001 0.22787598
1.9669501 -0.37258703 0.20204896
1.9419099 -0.36869401 0.206847
1.9205 -0.364353 0.21412697
1.90916 -0.351329 0.21729995
1.9119201 -0.32976002 0.213284
1.9436901 -0.36779597 0.196493
1.9319 -0.35812101 0.198899
1.91099 -0.352988 0.20656502
1.90927 -0.33628601 0.20436996
1.9854801 -0.35514599 0.16702202
1.9319701 -0.35941398 0.18862098
1.9175 -0.34893799 0.19261497
1.9069 -0.34038699 0.19320999
1.92387 -0.35918301 0.18126801
1.9117199 -0.35001799 0.18433297
1.91102 -0.339082 0.18184601
1.9474699 -0.35925099 0.162949
1.9270599 -0.358787 0.17054
1.91547 -0.350624 0.17298897
1.9232001 -0.35895801 0.16299301
1.91101 -0.35382801 0.16564399
1.90236 -0.35846502 0.16251594
1.93882 -0.37810001 0.32291496
1.9483399 -0.37592399 0.310038
1.95024 -0.37625501 0.29986495
1.9240601 -0.37278098 0.30871299
1.9081 -0.36389703 0.31273896
1.95523 -0.375967 0.289069
1.9260899 -0.37212199 0.29953203
1.979 -0.38231 0.26973495
1.95599 -0.37726602 0.27957496
1.9790601 -0.38238898 0.26045799
1.9803599 -0.396503 0.25090799
1.9649299 -0.39061999 0.25675994
1.97567 -0.38681999 0.24409896
1.94445 -0.375312 0.32749
1.9421099 -0.37605 0.31824195
1.94987 -0.37653801 0.30556703
1.9587101 -0.38752401 0.29435799
1.9381 -0.37804499 0.30149201
1.91655 -0.37032199 0.30804002
1.96284 -0.38826501 0.28428102
1.94276 -0.37839401 0.29231995
1.94312 -0.367212 0.32757896
1.9609599 -0.390304 0.31333801
1.9493401 -0.37715697 0.31761903
1.9614501 -0.390885 0.30230096
1.9456301 -0.378492 0.30915999
1.9600799 -0.39292499 0.29388297
1.95815 -0.37851399 0.29514396
1.92636 -0.37303397 0.30784997
1.96575 -0.39015302 0.28465301
1.94707 -0.38053799 0.29295295
2.00687 -0.32625198 0.26221496
2.0194299 -0.33527002 0.26924995
2.01511 -0.334236 0.25798798
2.01039 -0.326033 0.24760498
1.99911 -0.32332802 0.23520897
2.02074 -0.33758098 0.24314797
2.0162301 -0.327382 0.23357201
2.0208099 -0.338534 0.23524895
2.01267 -0.32707599 0.223722
2.0184901 -0.328067 0.21609199
2.0190899 -0.33570203 0.21837997
2.0174899 -0.32938001 0.20662895
2.00999 -0.328848 0.19478294
2.00455 -0.32697701 0.18382996
2.0046799 -0.32682702 0.17586297
2.0075901 -0.33476698 0.17726798
2.00669 -0.32771701 0.16803497
2.0127401 -0.32862702 0.16101998
2.0190499 -0.33743501 0.16528496
2.0139301 -0.32831201 0.15354301
2.01212 -0.32749099 0.14671798
2.0241098 -0.33725497 0.152631
