# .PCD v0.7 - Point Cloud Data file format
VERSION 0.7
FIELDS x y z
SIZE 4 4 4
TYPE F F F
COUNT 1 1 1
WIDTH 73
HEIGHT 1
VIEWPOINT 0 0 0 1 0 0 0
POINTS 73
DATA ascii
2.1911199 -0.66985202 3.5906501
2.25141 -0.65038401 3.7195098
2.2516701 -0.64886904 3.70327
2.2534301 -0.66108704 3.7093701
2.2530601 -0.64639801 3.6882
2.2542 -0.65871501 3.6942499
2.25191 -0.64674103 3.6793399
2.2478302 -0.64797699 3.74211
2.24931 -0.64611799 3.7237799
2.2488999 -0.66073096 3.7345099
2.2485201 -0.66039497 3.71893
2.2476199 -0.64408201 3.6939199
2.24892 -0.65867597 3.7023699
2.2452099 -0.64547205 3.6802099
2.2490401 -0.65667999 3.6849601
2.24915 -0.64318603 3.6626599
2.2512701 -0.65511596 3.6655302
2.2434499 -0.64859498 3.6554801
2.2511001 -0.64640802 3.7548699
2.2587299 -0.65381598 3.7510598
2.2591701 -0.665806 3.75474
2.2502799 -0.65737098 3.7439599
2.2614799 -0.666242 3.7335598
2.2553101 -0.655128 3.7203202
2.25316 -0.65407598 3.70522
2.2515299 -0.67130601 3.7172699
2.25688 -0.68110001 3.71772
2.25156 -0.65314502 3.6903901
2.2542 -0.66698599 3.6987698
2.24581 -0.65487999 3.6815901
2.2544 -0.663463 3.6784799
2.2420199 -0.644894 3.66838
2.24893 -0.65396899 3.6658802
2.25699 -0.66061699 3.65906
2.24124 -0.64392602 3.6509299
2.24471 -0.65469497 3.65522
2.2429399 -0.666354 3.6590202
2.2308199 -0.63917196 3.5653698
2.23227 -0.63666201 3.5509799
2.2374401 -0.64555097 3.5497999
2.2511201 -0.656084 3.7536399
2.2600701 -0.666435 3.7454801
2.2497098 -0.65701103 3.7386701
2.2613401 -0.66724199 3.7293298
2.2632101 -0.67761594 3.7333801
2.2564101 -0.65476698 3.7151198
2.2595899 -0.66830999 3.7174599
2.2569098 -0.65364599 3.6993299
2.2564199 -0.66725999 3.70714
2.2564199 -0.67935699 3.71294
2.2525501 -0.65260297 3.68817
2.2571001 -0.66489798 3.69151
2.2500401 -0.65032202 3.67414
2.2567399 -0.66290301 3.6711199
2.2421601 -0.64247 3.6633499
2.2485299 -0.653377 3.6605599
2.2606001 -0.66210401 3.6506798
2.26017 -0.673545 3.6568201
2.21469 -0.64276499 3.67471
2.2520301 -0.65274 3.6432502
2.2567399 -0.66272795 3.6403601
2.25822 -0.67383301 3.64484
2.2172899 -0.65122801 3.6647501
2.24822 -0.66529799 3.6354599
2.2271299 -0.63906401 3.5875702
2.25688 -0.65129399 3.7617998
2.2581799 -0.66019899 3.7604198
2.2553599 -0.65067595 3.7490702
2.2695301 -0.65344501 3.73474
2.27127 -0.66184098 3.7354901
2.23699 -0.65507501 3.5610299
2.23718 -0.63351601 3.5406702
2.2408199 -0.64288497 3.5411401
