# .PCD v0.7 - Point Cloud Data file format
VERSION 0.7
FIELDS x y z
SIZE 4 4 4
TYPE F F F
COUNT 1 1 1
WIDTH 1610
HEIGHT 1
VIEWPOINT 0 0 0 1 0 0 0
POINTS 1610
DATA ascii
1.9960201 -0.49831101 2.4836199
2.0052001 -0.48632401 2.48402
1.98158 -0.52259701 2.47294
1.99095 -0.50864398 2.4744902
2.00737 -0.48430699 2.4745798
2.03581 -0.481929 2.48019
1.96597 -0.550071 2.4607198
1.9747701 -0.53898001 2.4632299
1.97752 -0.52413499 2.46366
1.98549 -0.50816202 2.46453
1.99367 -0.49413699 2.46608
1.99787 -0.47997898 2.4635801
2.0211799 -0.47559503 2.4689901
1.97286 -0.54115301 2.45542
1.97743 -0.50415403 2.4549699
1.99052 -0.49194402 2.4558702
1.99823 -0.47821 2.45486
1.9873101 -0.489537 2.4468699
1.9977499 -0.47837299 2.4470701
1.99963 -0.47755 2.4381499
2.01107 -0.46680501 2.44116
1.99929 -0.476421 2.4275298
2.00401 -0.46802101 2.4300799
1.99752 -0.47439602 2.41957
2.00702 -0.46900001 2.4212
1.99931 -0.55056703 2.41201
1.99595 -0.474778 2.41342
2.01088 -0.469758 2.4153399
1.98487 -0.538764 2.39148
1.9793401 -0.53562301 2.3818099
1.97691 -0.52568001 2.3722
1.9831901 -0.52505404 2.36343
1.9965301 -0.53792 2.3562
1.97765 -0.51853001 2.3448
1.97335 -0.505265 2.34412
1.98647 -0.51921099 2.33552
1.97261 -0.50291401 2.3350098
1.9634399 -0.487914 2.3339701
1.9792399 -0.50493002 2.32669
1.9711 -0.48877999 2.32584
1.98217 -0.50720799 2.31883
1.9788699 -0.48852101 2.30777
1.9798501 -0.50338399 2.2999701
1.97733 -0.48713002 2.2980099
1.9806501 -0.47395599 2.29933
1.97218 -0.499183 2.2901402
1.9757 -0.48584402 2.2898099
1.9790699 -0.47409803 2.2911999
1.96979 -0.49998701 2.28163
1.9724699 -0.48708999 2.2822001
1.97758 -0.47328401 2.2822101
1.97307 -0.50042498 2.2740202
1.9721299 -0.48567501 2.2726998
1.98013 -0.47104698 2.2728798
1.97264 -0.48608199 2.26299
1.97685 -0.47272098 2.2629299
1.98252 -0.460682 2.2648499
1.96807 -0.49517101 2.2558799
1.97168 -0.48479301 2.25457
1.97443 -0.47183299 2.2534199
1.9815199 -0.45948502 2.25405
1.97001 -0.495242 2.2473402
1.97304 -0.484418 2.24593
1.9788001 -0.470429 2.24489
1.98186 -0.45591599 2.2451599
1.97655 -0.485149 2.2369399
1.97164 -0.46930802 2.2358401
1.97883 -0.45640498 2.2363601
1.96899 -0.48147097 2.22772
1.97567 -0.468326 2.22858
1.9728301 -0.48718798 2.21907
1.97094 -0.467547 2.2191901
1.96569 -0.46792999 2.2016199
1.96104 -0.466286 2.19223
1.96205 -0.48153302 2.1833701
1.96416 -0.46711498 2.1836898
1.96443 -0.45571098 2.1835001
2.0182002 -0.53789401 2.7113299
2.01088 -0.56822103 2.7031901
2.00893 -0.549501 2.7019598
2.0111301 -0.56965697 2.69449
2.0160499 -0.56775796 2.6862702
2.00753 -0.54813802 2.6787798
2.01825 -0.534293 2.68241
2.0074401 -0.56119502 2.6726699
2.0108199 -0.55036199 2.6701899
2.0109398 -0.53441 2.6690698
2.0069098 -0.56018698 2.66276
2.0065 -0.54725701 2.6598301
2.0045099 -0.53117102 2.6565399
2.0169702 -0.52284998 2.6619
2.00137 -0.557109 2.6512799
2.00069 -0.54383397 2.6483099
1.99883 -0.52873701 2.6451199
2.0067 -0.51929498 2.6486297
1.99675 -0.55424303 2.6389599
1.9992999 -0.54234701 2.63884
1.99709 -0.52796102 2.6356101
2.0034301 -0.55852902 2.6296301
2.00137 -0.52735502 2.62781
2.00928 -0.51839197 2.6292799
2.0011399 -0.55834204 2.6199601
2.0079501 -0.517757 2.6198301
2.0003099 -0.55710799 2.6106701
1.99155 -0.539895 2.6077802
1.9959199 -0.55547696 2.5801599
1.9849 -0.54977602 2.5681798
1.99659 -0.49483898 2.5666001
2.01334 -0.48881999 2.5695398
1.9936999 -0.55228198 2.5595798
1.9862399 -0.53664201 2.55897
2.0042 -0.49703899 2.5590501
1.9848801 -0.53572798 2.5483701
2.0052001 -0.499194 2.5499499
1.98797 -0.53794497 2.54038
1.98814 -0.53677201 2.5295401
1.97997 -0.517838 2.52584
1.98561 -0.50268298 2.5255899
2.00581 -0.49658403 2.52859
1.97357 -0.51720101 2.51512
1.9886999 -0.50646299 2.5177
2.0000401 -0.49371701 2.5190198
1.9785899 -0.53232402 2.5092599
1.9806501 -0.51667601 2.5072498
1.99271 -0.50297797 2.5093398
2.0112901 -0.49357399 2.5122299
1.97928 -0.53209996 2.49983
1.9771899 -0.51487201 2.4967799
1.98985 -0.50323302 2.4993801
2.0039399 -0.493276 2.5023398
1.97991 -0.53304696 2.4914
1.97803 -0.51800901 2.4882801
1.98694 -0.50332403 2.4892101
2.0058 -0.49345401 2.493
1.97825 -0.53072298 2.48118
1.9718801 -0.51568401 2.4773099
1.98112 -0.50353098 2.4786501
1.99552 -0.49018902 2.4802799
2.0194299 -0.485378 2.4856901
1.97271 -0.52753603 2.4695899
1.9758099 -0.51450998 2.4686
1.99084 -0.50169498 2.4707499
2.00105 -0.48873502 2.4711599
2.0090499 -0.47882801 2.4727099
1.9732201 -0.53912103 2.46138
1.97341 -0.52733201 2.4607699
1.9753799 -0.51500803 2.46018
1.98329 -0.50253999 2.4600599
1.9947701 -0.48841301 2.46158
2.00717 -0.47610599 2.4627299
1.96509 -0.52314204 2.4516699
1.98077 -0.51685202 2.45349
1.97483 -0.49915099 2.44959
1.9879401 -0.48826998 2.45119
2.0032601 -0.47633898 2.45327
2.01423 -0.46240899 2.4531701
1.97741 -0.512169 2.4438801
1.9800999 -0.496553 2.44151
1.99066 -0.48352599 2.44274
1.9752699 -0.49575999 2.4314501
1.9841901 -0.483419 2.4324601
2.00104 -0.47219199 2.4356899
1.97377 -0.49435502 2.42239
1.9812199 -0.48422298 2.42273
1.9946699 -0.47125301 2.4247999
1.97558 -0.49163899 2.41313
1.98655 -0.481475 2.41432
1.99832 -0.47063401 2.41592
2.0108001 -0.464403 2.4156399
1.9710699 -0.48828301 2.4036999
1.98272 -0.48168701 2.4054601
1.99374 -0.47174901 2.4061401
1.9838001 -0.48011398 2.3970599
1.99718 -0.47238299 2.39657
1.98847 -0.47863999 2.3861098
1.99812 -0.47142899 2.3859701
1.99009 -0.46790901 2.3766401
2.01296 -0.46589199 2.3794498
1.99269 -0.45812401 2.3690701
1.9535099 -0.44241601 2.3503301
1.97886 -0.51192403 2.3257
1.97454 -0.50117201 2.31163
1.9941001 -0.51754099 2.30586
1.97315 -0.49949902 2.3015499
1.97001 -0.49555197 2.2910199
1.97021 -0.492982 2.2820301
1.96253 -0.47797698 2.2812099
1.9704201 -0.491763 2.27387
1.96903 -0.47846803 2.2741599
1.9681101 -0.47827899 2.2661898
1.9684 -0.47674999 2.2567098
1.97254 -0.48912102 2.2478199
1.97075 -0.476302 2.24684
1.96163 -0.461851 2.24771
1.97101 -0.477741 2.23823
1.97156 -0.465747 2.2384701
1.96549 -0.48916399 2.2282
1.96469 -0.47391602 2.2289801
1.9624001 -0.46135899 2.2288902
1.9694099 -0.478392 2.2201099
1.9603599 -0.47446901 2.2023802
1.9731599 -0.49583697 2.1942899
1.97346 -0.5122 2.1765201
2.1217899 -0.74204499 3.2632799
2.0462301 -0.67837799 3.0930099
2.0471201 -0.67876703 3.0850298
2.0486701 -0.67947197 3.07517
2.0525799 -0.69556296 3.07078
2.0502601 -0.679425 3.0641799
2.0548201 -0.68230402 3.0462899
2.04673 -0.67990196 3.0329602
2.05106 -0.69403803 3.0285902
2.0088 -0.57305098 2.7192101
2.0127299 -0.57330298 2.7120397
2.0137899 -0.55184102 2.6983399
2.0204802 -0.53881198 2.69871
2.00962 -0.56695902 2.6916299
2.00758 -0.55079103 2.6868
2.0158799 -0.53788602 2.6879499
2.00616 -0.562352 2.67939
2.00968 -0.549196 2.6773701
2.0081501 -0.53176099 2.6744099
2.0003901 -0.55834299 2.6662798
2.0061998 -0.54582 2.66607
2.0006101 -0.52844602 2.6630797
2.0055299 -0.56215197 2.65745
2.00209 -0.54727 2.6553302
2.0048301 -0.53185201 2.655
2.00686 -0.51899302 2.6524
1.9991001 -0.55794203 2.6454999
1.9989301 -0.54265302 2.6446099
2.0024002 -0.52843398 2.6442199
2.0031199 -0.560247 2.6355798
2.00176 -0.54652196 2.6358802
2.0093 -0.563362 2.6281202
2.00488 -0.56121701 2.6182799
1.9956501 -0.544622 2.61324
2.0244 -0.480634 2.5851502
2.02054 -0.47964299 2.5773199
1.9967999 -0.493545 2.53966
1.9897701 -0.53793097 2.5316498
1.9796201 -0.51717603 2.5289099
1.98809 -0.50262797 2.53088
2.00437 -0.49716899 2.5324399
1.97469 -0.51545602 2.5174201
1.9862 -0.504336 2.5209599
1.9919299 -0.49233001 2.5207701
1.9732499 -0.51447499 2.50791
1.98409 -0.50181502 2.5099499
1.9986 -0.49485803 2.51245
1.97545 -0.52950698 2.5012
1.9722501 -0.51070803 2.4988401
1.9858299 -0.50121301 2.5
1.98648 -0.48915699 2.5009999
1.98115 -0.53393298 2.49401
1.97647 -0.51750898 2.49088
1.97369 -0.49909002 2.4888799
1.98971 -0.49129501 2.4907198
1.9755701 -0.53089696 2.4820299
1.97366 -0.51432902 2.48032
1.9776801 -0.49835899 2.4797699
1.9899899 -0.48730099 2.47895
1.9726 -0.52976602 2.4714401
1.97618 -0.51333302 2.4706299
1.9856 -0.499221 2.4719601
1.98455 -0.48233601 2.46843
2.01245 -0.479058 2.47244
1.9739101 -0.54528499 2.4630899
1.9700799 -0.528072 2.4609301
1.97666 -0.514741 2.4619799
1.9828501 -0.50024396 2.46229
1.98737 -0.48315102 2.45944
2.00511 -0.47319198 2.4630001
1.96912 -0.54283601 2.4527299
1.969 -0.526954 2.4512
1.97549 -0.51393104 2.4535301
1.98209 -0.498651 2.4521499
1.98804 -0.48368698 2.45017
2.0009301 -0.471026 2.4528899
1.9692 -0.54279596 2.4444299
1.97233 -0.53005797 2.4432299
1.9750199 -0.512573 2.4433498
1.9814301 -0.49685001 2.4428799
1.98787 -0.48451099 2.4414301
1.99465 -0.47022203 2.4424
1.9728501 -0.529365 2.43397
1.9826601 -0.49893001 2.43314
1.98944 -0.48088199 2.43311
2.0047801 -0.470339 2.43539
1.97726 -0.49643099 2.4211299
1.9896001 -0.483237 2.42363
2.0032699 -0.47062197 2.42574
1.9748501 -0.49501202 2.41117
1.9885001 -0.48339599 2.4138801
1.9991499 -0.47210398 2.4161799
2.01208 -0.46321702 2.41661
1.97611 -0.495424 2.40219
1.9809599 -0.47960499 2.4031301
2.0068099 -0.474493 2.4079499
1.9706399 -0.50582403 2.39575
1.9791 -0.49609101 2.39486
1.98228 -0.48098901 2.39342
2.00405 -0.47204 2.39713
1.9739101 -0.491465 2.3862901
1.9789599 -0.47824201 2.3828001
1.99589 -0.46948898 2.3858099
2.0222502 -0.46701401 2.3903301
1.9706501 -0.48739898 2.3756199
1.97463 -0.476576 2.37324
2.0128901 -0.463909 2.37957
1.9896899 -0.45333803 2.36696
1.9611 -0.45320401 2.3531599
1.98429 -0.45056197 2.35707
1.9679401 -0.44379002 2.34027
1.9638699 -0.485468 2.2750599
1.9641401 -0.48577201 2.2686899
1.9597701 -0.48270699 2.2610002
1.96474 -0.47597399 2.2613299
1.96523 -0.48531699 2.2525001
1.9718699 -0.478991 2.25314
1.96469 -0.48457599 2.2423201
1.9740801 -0.47931099 2.24476
1.9664999 -0.48741299 2.2326598
1.96694 -0.47687098 2.2347999
1.9691701 -0.47981098 2.22439
1.9629899 -0.47720298 2.2143202
1.9599299 -0.47656101 2.20697
1.9780999 -0.49887699 2.20157
2.0100999 -0.55804503 2.7127399
2.0162001 -0.54816002 2.7132599
2.00898 -0.56019098 2.70503
2.01439 -0.54773998 2.7045898
2.0074301 -0.55348802 2.6834302
2.0091 -0.54378104 2.6821301
2.0064199 -0.55265301 2.6733003
2.0090199 -0.54357797 2.6705701
2.0034499 -0.55028099 2.6620502
2.0033901 -0.54018903 2.6583397
2.00138 -0.548823 2.65082
2.0016401 -0.53850603 2.6475
2.0039701 -0.550668 2.6402698
2.00054 -0.53852999 2.6378601
2.00741 -0.552957 2.6219201
2.0067701 -0.49705002 2.5844202
2.0129402 -0.48269901 2.57495
2.00033 -0.490868 2.5628901
1.98209 -0.534881 2.55301
1.9899899 -0.54000998 2.54388
2.0026901 -0.492641 2.5439
1.9945799 -0.54353404 2.5350599
1.9965301 -0.49319303 2.53352
1.98421 -0.50654101 2.52038
1.9953799 -0.492616 2.52211
1.98745 -0.53897798 2.5164099
1.9831901 -0.52209902 2.5129199
1.98689 -0.50431097 2.51086
1.99835 -0.49284598 2.5127299
2.0056 -0.48317501 2.5132601
1.9757299 -0.53163898 2.50424
1.98142 -0.52025902 2.5022399
1.98265 -0.50226396 2.4992199
1.9975901 -0.49203399 2.50318
2.0123801 -0.48612899 2.50509
1.97378 -0.52990699 2.4934199
1.9707 -0.51341301 2.4893501
1.9797701 -0.49973202 2.4890699
1.99615 -0.49138001 2.4923501
2.01196 -0.485309 2.49578
1.97006 -0.52890199 2.48154
1.9727901 -0.51643103 2.48086
1.97637 -0.50095797 2.4793501
1.9905299 -0.48801601 2.4812598
2.0100601 -0.481848 2.48417
1.97369 -0.51812303 2.47153
1.9760201 -0.500072 2.4688699
1.98798 -0.48741001 2.4707999
2.00353 -0.47597802 2.4728701
1.9732201 -0.53436601 2.46188
1.9726 -0.51408404 2.4612
1.97744 -0.50032198 2.4609101
1.9849299 -0.48824799 2.46101
2.00123 -0.47564802 2.4619498
1.97341 -0.536928 2.451
1.97497 -0.51783001 2.4521201
1.9802099 -0.50177699 2.4534998
1.99203 -0.48900199 2.4523699
1.9902201 -0.46829799 2.44893
1.9739 -0.517748 2.44186
1.98377 -0.50319302 2.4442599
1.9841 -0.48216802 2.4404399
1.99252 -0.46884701 2.4407601
1.9730901 -0.55258596 2.4368398
1.9783299 -0.49975899 2.4323699
1.98324 -0.482252 2.4303901
1.9901601 -0.46673599 2.43152
1.98309 -0.50607198 2.42328
1.98147 -0.485695 2.4215899
1.98754 -0.46917802 2.4212501
1.97701 -0.497401 2.41219
1.98244 -0.48164299 2.4124699
1.98627 -0.465891 2.41065
2.0046 -0.46052501 2.4128098
1.9800501 -0.48132598 2.4015801
1.9886501 -0.46806899 2.40172
2.0029202 -0.46171701 2.4030299
1.9727499 -0.495583 2.39149
1.9774801 -0.48049802 2.3916299
1.9871401 -0.46803799 2.3920701
2.00441 -0.46237701 2.3940301
1.9719701 -0.51087302 2.38292
1.9646001 -0.49257401 2.3814001
1.9772501 -0.48151901 2.38236
1.9829201 -0.46468699 2.3801899
2.0042 -0.46156502 2.38464
1.96733 -0.49407199 2.3731201
1.99345 -0.45477402 2.3726199
1.9629201 -0.45399201 2.3606799
1.9923199 -0.45316002 2.3645899
2.0109501 -0.45027801 2.3664799
1.9944501 -0.45420301 2.3585899
2.0852799 -0.49417701 2.3664799
2.0558801 -0.45950601 2.36362
2.0757 -0.462639 2.3580699
2.0839999 -0.47635502 2.35502
2.0871899 -0.49410999 2.3569801
2.07973 -0.514117 2.36008
2.0650001 -0.45504102 2.3519399
2.0736799 -0.46394199 2.3486199
2.08729 -0.47373903 2.34445
2.08621 -0.49369702 2.3473799
2.0857699 -0.51104099 2.34902
2.0747099 -0.53082901 2.35465
2.0766401 -0.46103299 2.3380499
2.0857 -0.474603 2.33535
2.09093 -0.48858398 2.3373899
2.00594 -0.45049199 2.3406401
2.09585 -0.46610099 2.3158898
2.0981901 -0.48207501 2.3055201
2.0640402 -0.44724301 2.2908599
2.04826 -0.441185 2.2843101
2.0685201 -0.44289503 2.2808499
2.0713902 -0.45892102 2.2816501
2.08038 -0.474383 2.27988
2.0478799 -0.43987998 2.2747698
2.06566 -0.44436601 2.27178
2.0704699 -0.46264702 2.2718301
2.0783999 -0.47693002 2.27157
2.0643799 -0.44368401 2.2625699
2.0703001 -0.45726398 2.26126
2.0775399 -0.47448003 2.2617998
2.05668 -0.43426201 2.2530301
2.0627298 -0.444199 2.2544
2.0768499 -0.45182702 2.2502601
2.07777 -0.46971199 2.2509699
2.05847 -0.43203202 2.24265
2.0633299 -0.443555 2.2444601
2.07603 -0.45570099 2.2407899
2.0727 -0.47647399 2.2427499
2.0511901 -0.43508399 2.2354002
2.0622501 -0.443335 2.2337
2.0771201 -0.453978 2.2306299
2.07479 -0.47277698 2.2325399
2.0555298 -0.432129 2.22628
2.06229 -0.44066799 2.2236898
2.0704801 -0.452434 2.2228501
2.0829201 -0.46424598 2.22136
2.0515199 -0.43437901 2.21737
2.06513 -0.44064799 2.21419
2.0750799 -0.45304501 2.2129099
2.05093 -0.43377998 2.2065799
2.0667 -0.441387 2.20439
2.04652 -0.43113399 2.1961601
2.0555 -0.44191501 2.19646
2.02037 -0.42695099 2.19011
2.05094 -0.42890099 2.1874399
2.04228 -0.42975 2.1803699
2.08342 -0.47451302 2.1547799
2.05726 -0.42151001 2.1377299
2.05897 -0.41985902 2.1217802
2.0661099 -0.430951 2.12099
2.08161 -0.45923197 2.3683901
2.06582 -0.45738202 2.36567
2.07814 -0.46027902 2.3626199
2.06744 -0.45535001 2.3575599
2.07234 -0.46241403 2.3547599
2.06845 -0.45423302 2.3475199
2.07182 -0.462291 2.34464
2.0959001 -0.47033101 2.31299
2.0947199 -0.47040698 2.30494
2.0650702 -0.45496899 2.2815201
2.0766702 -0.47915101 2.28
2.07096 -0.46347401 2.2715299
2.07534 -0.47570202 2.27106
2.0696201 -0.46389198 2.2630799
2.0690699 -0.47993001 2.2629299
2.066 -0.452452 2.25337
2.0639999 -0.46832401 2.2551401
2.06897 -0.47982398 2.25388
2.0737901 -0.47399101 2.2436199
2.03035 -0.44591001 2.23893
2.07266 -0.460691 2.2328298
2.07599 -0.47159001 2.2344298
2.05619 -0.44747102 2.2257099
2.0670099 -0.46031103 2.2242899
2.0776401 -0.47086602 2.22364
2.0148499 -0.438945 2.2254899
2.0597401 -0.44732103 2.21664
2.0756102 -0.45591599 2.21385
2.0139701 -0.43869099 2.2149498
2.04387 -0.43940398 2.2100999
2.06445 -0.44740799 2.2070701
2.0752499 -0.45885101 2.2063498
2.0046101 -0.44122601 2.2067499
2.0322502 -0.44055501 2.2027299
2.05481 -0.446235 2.19943
2.01127 -0.438115 2.19648
2.0313001 -0.442366 2.19434
2.00389 -0.44081798 2.18837
2.0364501 -0.43619499 2.1731598
2.02284 -0.42886201 2.1664
2.0434301 -0.43243599 2.1533098
2.05338 -0.43048501 2.1434798
2.04548 -0.429281 2.1364601
2.05142 -0.43109402 2.12761
2.05862 -0.44332802 2.1254101
2.0662501 -0.45413399 2.1236899
2.06075 -0.44416401 2.1173501
2.06845 -0.45433301 2.1140699
2.06422 -0.45805401 2.1060801
2.0769999 -0.46043 2.27756
2.06932 -0.46328801 2.2708199
2.0835199 -0.47401199 2.26998
2.0690899 -0.451285 2.2629001
2.0791001 -0.458278 2.2609
2.08079 -0.471376 2.26143
2.0745399 -0.46058899 2.2534299
2.0808299 -0.47352001 2.2534602
2.0702901 -0.44943199 2.2457199
2.0799301 -0.45753899 2.24213
2.0785999 -0.47315601 2.24475
2.0725999 -0.447963 2.2363601
2.07516 -0.45796001 2.2342801
2.08235 -0.47044998 2.2335801
2.0713401 -0.44766301 2.22769
2.0725901 -0.45951 2.2265501
2.06828 -0.448347 2.2183001
2.0694399 -0.461454 2.2191198
2.0683 -0.44662201 2.20908
2.0753901 -0.457596 2.20977
2.0287399 -0.43806499 2.17735
2.03177 -0.43907601 2.17062
2.04844 -0.42832002 2.1396699
2.05969 -0.439989 2.13871
2.0481799 -0.428545 2.13164
2.06457 -0.44035998 2.1287398
2.0546899 -0.49015999 2.1286001
2.04846 -0.42875901 2.1226101
2.06095 -0.43904001 2.1199501
2.06585 -0.454377 2.1194999
2.05931 -0.487151 2.1215301
2.06007 -0.440135 2.11183
2.06372 -0.45440701 2.1109099
2.0597799 -0.485219 2.11221
2.0724001 -0.46774799 2.2719901
2.0775199 -0.48130798 2.2722502
2.0662301 -0.471885 2.26599
2.07511 -0.46761501 2.2557299
2.07828 -0.47865102 2.25348
2.0727901 -0.46682203 2.2467301
2.0737 -0.48101601 2.2460101
2.0681798 -0.45716998 2.2393999
2.0724499 -0.46857601 2.23736
2.0666001 -0.45814097 2.2304401
2.0750599 -0.466315 2.2272
2.0673101 -0.45737597 2.2207301
2.0680001 -0.45589402 2.2113199
2.0705199 -0.46682203 2.2130599
2.0683401 -0.45477903 2.2033401
2.0713401 -0.465397 2.2035699
2.0951099 -0.47929299 2.1719
2.0413001 -0.444756 2.1502199
2.0408001 -0.44488898 2.1449099
2.0480499 -0.44163102 2.13728
2.0583701 -0.44922799 2.1342199
2.0722098 -0.48893902 2.13325
2.06514 -0.448513 2.12464
2.0483999 -0.43918201 2.11866
2.0648801 -0.44734201 2.11711
2.0589101 -0.448264 2.11025
2.0674 -0.48902598 2.1077099
2.0564899 -0.447925 2.1015799
2.0947399 -0.46189702 2.3162301
2.0929601 -0.46233898 2.3100998
2.09411 -0.47319001 2.3109798
2.0771201 -0.47708902 2.2795701
2.06651 -0.46790901 2.2743299
2.0701301 -0.47784501 2.2657199
2.0346899 -0.46175599 2.2620499
2.06832 -0.47753501 2.25617
2.05879 -0.46520501 2.2409101
2.07496 -0.47494599 2.23791
2.06952 -0.46282902 2.2300799
2.0729499 -0.46017799 2.2205498
2.06441 -0.45158198 2.21418
2.07076 -0.462329 2.21331
2.0599699 -0.45053601 2.2063799
2.0671401 -0.45950902 2.2053199
2.0576899 -0.450436 2.1988699
2.07199 -0.45838299 2.1962202
2.0643601 -0.44858897 2.1296499
2.05936 -0.449195 2.1210001
2.07393 -0.483601 2.11958
2.05181 -0.50036299 2.1209099
2.0573301 -0.44860801 2.1130199
2.06358 -0.457259 2.11357
2.0715199 -0.48357201 2.1123199
2.05439 -0.44905299 2.1061201
2.06232 -0.457477 2.1054401
2.06072 -0.49577498 2.10498
2.07076 -0.70964402 2.9898102
2.0146499 -0.66405195 2.9756799
2.0583501 -0.69928902 2.9651399
2.0502601 -0.699067 2.9500701
2.0292501 -0.65875 2.9500599
2.0501602 -0.698282 2.93892
2.0267799 -0.64227796 2.9010699
2.06387 -0.67638201 2.8957899
2.0865901 -0.69091201 2.8666198
1.9453399 -0.54607397 2.37551
1.95149 -0.54140204 2.35851
1.9560601 -0.52664298 2.35956
1.95599 -0.511805 2.36093
1.95372 -0.53986502 2.35045
1.95602 -0.52583402 2.3500299
1.9527099 -0.51126802 2.35291
1.95924 -0.53639597 2.3421202
1.9531599 -0.52723902 2.34056
1.95639 -0.53710699 2.33166
1.9576 -0.52283597 2.3333099
1.9568801 -0.53730202 2.3223999
1.9538699 -0.52714902 2.32265
1.95732 -0.53632402 2.31352
1.9548801 -0.526384 2.3143499
1.9507699 -0.53951299 2.30422
1.9505701 -0.52862 2.3063002
1.95158 -0.52879202 2.2994201
1.95179 -0.51315802 2.2542701
1.94892 -0.51430398 2.2478299
1.95061 -0.52491701 2.23965
1.9527099 -0.51170802 2.2410002
1.9499401 -0.526788 2.2305999
1.9493099 -0.51131803 2.23142
1.98722 -0.46220797 2.2372298
1.9525599 -0.506733 2.22242
1.9751101 -0.47511399 2.2268898
1.95184 -0.523772 2.2151301
1.94646 -0.51012301 2.2133701
1.9616499 -0.48395303 2.21577
1.9540801 -0.52186 2.20578
1.9454401 -0.52723098 2.1957901
1.94533 -0.51020998 2.1975298
1.9408001 -0.51118201 2.18923
1.96066 -0.46562099 2.19134
1.96123 -0.531192 2.43975
1.96104 -0.52869999 2.4307199
1.96424 -0.55195802 2.42242
1.9653 -0.537314 2.4225099
1.96764 -0.55094701 2.41359
1.9651401 -0.53761697 2.41325
1.9635201 -0.54062903 2.4045701
1.96755 -0.53457296 2.3963799
1.9618201 -0.52284503 2.3782401
1.9809599 -0.57467902 2.3694
1.95959 -0.52225298 2.3691399
1.9724499 -0.50236899 2.37134
1.96007 -0.55631602 2.3563001
1.95841 -0.52417499 2.36093
1.95481 -0.509727 2.36061
1.9586999 -0.53849202 2.3501198
1.95552 -0.52424401 2.35149
1.9471 -0.50887102 2.35028
1.9675 -0.55051303 2.3399999
1.9618601 -0.536439 2.34284
1.9540401 -0.52250701 2.3420501
1.9443699 -0.51178199 2.34076
1.9636301 -0.551112 2.3307199
1.9514999 -0.52226299 2.3333099
2.00844 -0.56348997 2.3266299
1.9679899 -0.55195099 2.3226199
1.9588001 -0.53899103 2.3239
1.95416 -0.52322602 2.32409
2.00861 -0.56155103 2.3191299
1.98452 -0.55770302 2.3157401
1.9617599 -0.53727299 2.31517
1.9755 -0.43722498 2.3218501
1.9584399 -0.535851 2.30597
1.95478 -0.51041102 2.3066599
1.9762501 -0.43621799 2.3150699
1.96087 -0.53553998 2.29667
1.9570799 -0.53699797 2.28743
1.9549201 -0.52349204 2.2881598
1.9548 -0.50924498 2.28915
1.98935 -0.550129 2.28107
1.95581 -0.51993901 2.27967
1.947 -0.51172 2.2797401
1.9560699 -0.52185398 2.2701101
1.95162 -0.51029801 2.27193
1.9630001 -0.51805997 2.2623401
1.95583 -0.50911599 2.2625999
1.9537399 -0.50895303 2.25383
1.9574499 -0.51853502 2.2437
1.95327 -0.50854802 2.2457399
1.95866 -0.53406298 2.23455
1.9540499 -0.52223802 2.2343099
1.9520799 -0.509673 2.2365699
1.94985 -0.524005 2.22472
1.94442 -0.51310998 2.2258
1.9575599 -0.53401399 2.21666
1.94742 -0.50969499 2.2170999
1.95196 -0.51926601 2.2081199
1.9443099 -0.50847197 2.2077799
1.96446 -0.46114498 2.20856
1.95926 -0.48159802 2.2019699
1.9499201 -0.520899 2.18963
1.9445 -0.50692499 2.1917601
1.94388 -0.48947102 2.1926
1.94607 -0.52351099 2.18062
1.9666001 -0.55894601 2.5359299
1.96399 -0.562006 2.52616
1.96277 -0.534352 2.4603798
1.9599099 -0.53395903 2.4456398
1.9658099 -0.531434 2.4389701
1.9751899 -0.58814502 2.4268501
1.9633099 -0.54679602 2.42922
1.9648801 -0.53191 2.4301
1.96734 -0.54262102 2.4212301
2.0065501 -0.48114899 2.4315598
1.9728 -0.53758001 2.41396
1.9939901 -0.48460799 2.4207602
1.9888999 -0.47185099 2.41992
1.9731599 -0.55547202 2.40253
1.9706799 -0.53916699 2.40435
1.9709899 -0.52215403 2.4042699
1.9915601 -0.46894902 2.41187
1.98423 -0.46017799 2.4118099
1.96838 -0.54274297 2.3951101
1.9695101 -0.49150503 2.3994999
1.9899601 -0.469551 2.40271
1.9921899 -0.45651999 2.40451
1.96479 -0.51112002 2.3880899
1.97006 -0.49184102 2.3908701
1.99606 -0.46605098 2.39639
1.99347 -0.455502 2.3970499
1.9667799 -0.53974897 2.37606
1.96209 -0.51018202 2.37851
1.98906 -0.48159802 2.38746
2.01369 -0.45860499 2.39329
1.9628301 -0.51032901 2.3695099
1.9737101 -0.56655997 2.3576598
1.95803 -0.51234198 2.3606799
1.96656 -0.55698895 2.3485801
1.9616499 -0.54291898 2.3490899
1.95181 -0.51266497 2.3508401
1.9658501 -0.55630404 2.3400099
1.9642501 -0.53945804 2.3405199
1.95455 -0.52739203 2.34233
1.96183 -0.54260999 2.3313
1.9605099 -0.52436501 2.3336999
2.0107 -0.56069201 2.32743
1.9659101 -0.540016 2.3225501
1.95666 -0.528256 2.3241699
1.96593 -0.53861302 2.31499
1.96582 -0.442146 2.32094
2.0307899 -0.55468798 2.3148699
1.9655 -0.53827 2.3069501
1.9568601 -0.52525902 2.3056099
2.0492399 -0.550529 2.3111498
1.9611599 -0.537857 2.2888699
1.9543099 -0.52515501 2.2894399
1.95752 -0.50933397 2.28952
2.0088 -0.436755 2.3007898
1.9578999 -0.49718899 2.28303
2.0088 -0.43535599 2.29089
1.9564199 -0.52540797 2.2699599
1.95663 -0.50961399 2.2721398
1.96103 -0.49582902 2.2748098
1.9629101 -0.52275598 2.2628601
1.95364 -0.51070702 2.26248
1.9612199 -0.52325499 2.2544
1.95401 -0.50884199 2.2539001
1.96472 -0.47986001 2.2573998
1.9659101 -0.52196497 2.2467699
1.9550799 -0.51131302 2.24616
1.9660699 -0.478017 2.2488401
1.95952 -0.52307701 2.2384901
1.95667 -0.50696898 2.2374299
1.96263 -0.47731498 2.2402399
1.9897901 -0.543966 2.2285001
1.9602499 -0.521608 2.2293
1.9523399 -0.50878203 2.22861
1.96376 -0.476906 2.2319801
1.95463 -0.478576 2.22103
1.9459701 -0.51057798 2.2096701
1.95739 -0.474379 2.21346
1.97229 -0.55174601 2.2024601
1.9544901 -0.52176201 2.20209
1.94513 -0.51054001 2.2018399
1.94178 -0.49688801 2.2023802
1.95722 -0.52513301 2.1936898
1.9475101 -0.510355 2.1937602
1.94295 -0.49594501 2.1944501
1.9433299 -0.480176 2.1956799
1.97243 -0.54888898 2.1772299
2.00754 -0.62032002 2.8172901
2.01266 -0.61823797 2.8132598
2.0088601 -0.60711402 2.8120301
2.04021 -0.56751001 2.8236499
2.0147901 -0.61529601 2.8066998
2.01053 -0.600012 2.7957401
2.03075 -0.55154997 2.7881598
2.0129402 -0.56820399 2.77262
2.0351899 -0.54862803 2.78141
1.98906 -0.58186698 2.4472299
1.9759599 -0.554914 2.3977799
1.97198 -0.545026 2.39696
1.9931101 -0.55993801 2.3892601
1.97495 -0.53986597 2.3879499
1.9992599 -0.55896801 2.3826499
1.9766499 -0.53817797 2.38046
1.99184 -0.56014401 2.37379
1.97632 -0.53834897 2.3717599
1.9533299 -0.51980799 2.3695998
1.97211 -0.54034597 2.3617301
1.99098 -0.56330299 2.3547201
1.99729 -0.56218302 2.3388898
1.9715101 -0.496557 2.3382699
2.0148399 -0.55886197 2.3326998
2.0348301 -0.55891103 2.32809
1.9704801 -0.53754801 2.3198199
1.96523 -0.524634 2.3200102
2.0455701 -0.55716497 2.32336
1.9798399 -0.54708499 2.31164
1.9697 -0.53770101 2.3114998
1.96839 -0.52193403 2.31124
1.97172 -0.49308801 2.31371
1.97189 -0.53378999 2.30264
1.9691401 -0.49216703 2.3048801
1.99788 -0.55408102 2.2944698
1.98726 -0.54631901 2.2939701
1.9687101 -0.52105701 2.29443
1.96875 -0.50457799 2.29614
1.97567 -0.485946 2.29686
1.99999 -0.55404401 2.28778
1.98949 -0.54727197 2.28739
1.96866 -0.52323502 2.28493
1.9676199 -0.506428 2.2866399
1.98041 -0.47111198 2.28935
1.98991 -0.54477298 2.27988
1.96196 -0.50917304 2.2765
1.9811301 -0.46878701 2.2807701
1.99067 -0.541704 2.27004
1.9734399 -0.52140999 2.2694399
1.95904 -0.50959402 2.2672999
1.96767 -0.49059898 2.2695
1.97683 -0.47219002 2.2727399
1.9862399 -0.54276502 2.2608399
1.96619 -0.52116501 2.2593699
1.9622099 -0.50524598 2.2598701
1.9656799 -0.48873502 2.2604899
1.97347 -0.47090098 2.2635801
1.96261 -0.52382702 2.25032
1.9611 -0.509372 2.2513299
1.96474 -0.492322 2.25245
1.9688699 -0.47395802 2.25316
1.9631101 -0.50560498 2.2440701
1.96357 -0.48987499 2.2436898
1.97039 -0.47303799 2.24544
1.96132 -0.52214003 2.2340798
1.9629101 -0.47650102 2.2372
1.9639599 -0.52145803 2.2259798
1.9570799 -0.47903198 2.22627
1.96083 -0.52175897 2.2174299
1.95916 -0.50779098 2.2181399
1.9576499 -0.49182597 2.21766
1.95985 -0.47499099 2.2177601
1.98068 -0.54802501 2.19151
1.9623399 -0.52084702 2.1917
1.94682 -0.47956902 2.1917498
1.9669 -0.52019298 2.1758399
1.99692 -0.403864 2.1631598
1.9853799 -0.44944698 2.15675
1.9922999 -0.41538897 2.15448
2.00967 -0.39801601 2.1540799
1.9999299 -0.41055501 2.1456299
2.0058401 -0.39824599 2.14573
1.9888 -0.41389802 2.1366401
2.00824 -0.397654 2.1374099
1.9899499 -0.41249299 2.12796
2.00612 -0.39770001 2.1289201
1.98869 -0.41226399 2.1192598
1.99655 -0.40075099 2.12061
2.0064499 -0.40548098 2.1117098
1.9914399 -0.40191701 2.1119099
1.9802201 -0.40472001 2.1054599
2.0639 -0.68244004 3.0834997
2.0596099 -0.684484 3.0704401
2.04795 -0.68910003 3.05387
2.0572701 -0.67566496 3.05005
2.0608599 -0.67410302 3.04109
2.05337 -0.67432702 3.02687
2.02157 -0.66040605 2.97224
2.0571299 -0.69658303 2.9760602
2.02597 -0.62852103 2.8869097
2.0655401 -0.54670697 2.8670502
2.0239301 -0.63589501 2.78548
2.0167799 -0.63587898 2.77438
2.0145299 -0.622742 2.76439
2.0116901 -0.61089599 2.76565
2.0048399 -0.58021098 2.7258301
1.9687101 -0.49461201 2.3622999
1.9608999 -0.49696401 2.3554499
1.9792501 -0.54559499 2.31112
2.00295 -0.54974604 2.3064001
1.95895 -0.53921598 2.3024299
2.0074999 -0.54811001 2.3
1.9785899 -0.54410303 2.2973599
1.9531399 -0.52533299 2.28581
1.9663401 -0.52124804 2.2797699
1.96824 -0.52037603 2.2709298
1.9672999 -0.517416 2.2611001
1.9818201 -0.53635198 2.2536001
1.96943 -0.527022 2.2542701
1.9672 -0.51450402 2.2532899
1.95569 -0.50722802 2.2528
1.96603 -0.51536298 2.24576
1.9625599 -0.50340903 2.24547
1.9852901 -0.53774202 2.2374899
1.9594799 -0.49045601 2.23576
1.96632 -0.51485902 2.2294099
1.9626199 -0.48704299 2.2284601
1.9630799 -0.475685 2.22837
1.96755 -0.51323301 2.2209198
1.96412 -0.49768901 2.22051
1.96463 -0.48369598 2.2216699
1.96146 -0.47159198 2.22017
1.96472 -0.51188898 2.2121601
1.9616901 -0.484128 2.21295
1.95629 -0.48361599 2.19646
1.96071 -0.51497102 2.1873801
1.97754 -0.448163 2.1552701
1.9891 -0.403308 2.1569099
1.9798599 -0.44551998 2.1468799
1.9852699 -0.414884 2.14834
1.9850999 -0.40403199 2.14886
1.9730999 -0.44800597 2.1387
1.9924699 -0.41247699 2.1400499
1.98597 -0.40368098 2.14153
1.97375 -0.43277401 2.1311998
1.9944 -0.41312802 2.1322601
1.9878 -0.40363899 2.13345
1.9904801 -0.41432899 2.1236498
1.99489 -0.40202701 2.1252799
1.98677 -0.413973 2.11536
1.9833299 -0.40510601 2.11674
1.99511 -0.410712 2.1091599
1.99024 -0.40349603 2.10989
2.13147 -0.74126601 3.2508199
2.1449599 -0.72584802 3.2269201
2.1420798 -0.71573305 3.1961901
2.1349401 -0.71827102 3.1906703
2.1284399 -0.713332 3.1618099
2.09657 -0.733778 3.17452
2.1221099 -0.69278097 3.1320601
2.09025 -0.72279197 3.1577802
2.11097 -0.70528704 3.1317103
2.0557899 -0.606197 3.1547699
2.10712 -0.703933 3.1227801
2.0629101 -0.68126404 3.08693
2.03321 -0.67074203 3.0963001
2.05478 -0.68084198 3.0814502
2.0425 -0.67088205 3.0808702
2.0555799 -0.68154299 3.07166
2.03953 -0.67001295 3.0731001
2.0567 -0.681445 3.06095
2.0578301 -0.68194902 3.0499299
2.0442901 -0.66982198 3.04792
2.04006 -0.65494597 3.0395701
2.0418501 -0.66649002 3.0385902
2.0492599 -0.68019897 3.0345199
2.03301 -0.64829499 3.03333
2.04408 -0.66906899 3.0265398
2.03669 -0.65799201 3.02246
2.03758 -0.66841698 3.0197496
2.03901 -0.657332 3.0090601
2.02495 -0.62700701 2.8973701
2.0051699 -0.61354303 2.8793299
2.0046899 -0.61449599 2.8685498
1.99923 -0.61328703 2.86148
2.00787 -0.62625802 2.8582199
1.99971 -0.60113096 2.8519299
2.0049 -0.61483598 2.8508201
2.00334 -0.62900698 2.8507502
1.99274 -0.60062701 2.8464899
2.0004499 -0.61367297 2.8433399
1.99631 -0.59927499 2.8359399
2.00317 -0.61423802 2.8312299
1.9968699 -0.599962 2.8257198
2.0015199 -0.61218601 2.8225203
2.0046301 -0.62534201 2.8220599
1.9999299 -0.60022801 2.81479
2.00278 -0.61367399 2.8136702
2.0004499 -0.60172296 2.8055298
2.00494 -0.61509401 2.80444
2.0016999 -0.59742701 2.7957098
2.0000601 -0.61286199 2.7971697
2.0028701 -0.57550997 2.7837
2.00017 -0.58626997 2.7880099
1.99982 -0.59940398 2.7876501
1.99707 -0.61417001 2.7886
1.9969299 -0.58738601 2.77969
1.99459 -0.60180402 2.7813201
2.0002699 -0.58591497 2.7685101
1.99625 -0.60073102 2.7713201
2.00684 -0.58452803 2.7186401
2.0199599 -0.54424798 2.7041602
1.98325 -0.58586103 2.70452
2.0122099 -0.56321096 2.6823599
1.98971 -0.58258498 2.6939802
1.9718 -0.554793 2.4395499
1.9631701 -0.53373402 2.43574
1.97252 -0.54289299 2.4331598
1.97368 -0.55505401 2.43189
1.96829 -0.53257704 2.4268501
1.9703799 -0.542934 2.42641
1.97523 -0.55498004 2.42329
1.96597 -0.53145099 2.4195101
1.96851 -0.54150003 2.4187598
1.9763299 -0.55444902 2.4146299
1.96935 -0.53144699 2.4113898
1.9698 -0.54174101 2.4098101
1.97377 -0.55423099 2.4070199
1.97006 -0.531896 2.4031799
1.96817 -0.54181302 2.4019401
1.96907 -0.53208196 2.3951399
1.9732201 -0.53155702 2.38587
1.98146 -0.54034901 2.38203
1.97632 -0.53157902 2.3768399
1.97966 -0.54174304 2.3745899
2.0086701 -0.58058602 2.3677001
1.9810899 -0.531856 2.3669801
1.9805701 -0.54108 2.36724
1.99305 -0.567056 2.3639801
1.9862801 -0.53073198 2.3571801
1.98868 -0.55354398 2.3573301
1.99045 -0.53001702 2.34904
1.99659 -0.55447698 2.34689
2.0087299 -0.56667596 2.3450599
1.9983901 -0.60070997 2.3483498
1.9846001 -0.53069901 2.3433399
1.9826 -0.531039 2.3354399
1.97763 -0.54038799 2.3346801
1.9725 -0.53064096 2.31232
1.97373 -0.53059202 2.3043101
1.9726199 -0.53046298 2.2886899
1.9739101 -0.53021997 2.2804801
1.9718601 -0.52661401 2.25772
1.96593 -0.52769399 2.2344
2.1391599 -0.74979401 3.2428999
2.12534 -0.70519304 3.24138
2.1277499 -0.75041395 3.2409101
2.12655 -0.70432699 3.21311
2.09164 -0.71820605 3.2132001
2.1003799 -0.73158205 3.19312
2.09569 -0.62280297 3.18659
2.0771499 -0.60890901 3.1891699
2.1024799 -0.59753901 3.1598599
2.0671201 -0.67409402 3.1827199
2.1238 -0.703161 3.1429801
2.06955 -0.67384696 3.1726398
2.11904 -0.69382697 3.13642
2.1213999 -0.70259696 3.1347899
2.1104801 -0.70375901 3.1327899
2.1084101 -0.70215601 3.1225598
2.0688901 -0.66369003 3.1297102
2.0461199 -0.67711604 3.0893202
2.02953 -0.662319 3.09202
2.04512 -0.67600501 3.0809798
2.05162 -0.676808 3.0674701
2.0385599 -0.66326696 3.04462
2.0478201 -0.67564005 3.0379102
2.0350599 -0.66245598 3.0359101
2.04568 -0.67672205 3.0302002
2.01999 -0.65098298 3.0364001
2.03965 -0.66204906 3.0213201
2.03895 -0.67547095 3.0245001
2.0228999 -0.65132898 3.0218298
2.0376699 -0.661856 3.0129998
2.0390501 -0.67448503 3.0134301
2.04076 -0.66184402 3.0017998
2.0312099 -0.63206899 2.8995397
2.02637 -0.633331 2.8917201
2.00617 -0.61754 2.8846803
2.00542 -0.60391498 2.8743899
2.0079401 -0.61782598 2.8749702
1.9989101 -0.605178 2.8679101
2.0081701 -0.618343 2.8651397
2.0035698 -0.61694002 2.8569698
1.99402 -0.60334599 2.8521099
2.00193 -0.61761397 2.8477201
1.9979401 -0.60448802 2.8407001
2.0064199 -0.61851799 2.83602
1.99931 -0.60567302 2.8313699
2.00582 -0.61904204 2.8264501
1.99709 -0.60320699 2.8227999
2.00401 -0.61731899 2.8172197
1.9999299 -0.60361898 2.81146
2.00265 -0.61649603 2.8088598
2.0015299 -0.60455 2.8011701
1.9989101 -0.58948302 2.7952802
1.99928 -0.60319197 2.7922997
2 -0.58925599 2.7853401
1.9992599 -0.60194302 2.7834198
1.99743 -0.58943599 2.77758
2.0020599 -0.60429299 2.7732801
2.0009398 -0.60323203 2.7640803
1.99063 -0.58908498 2.6976299
1.98007 -0.575827 2.5975299
1.97638 -0.58769 2.5992701
1.9796699 -0.57681501 2.5887597
1.9825901 -0.57765096 2.5796697
1.98103 -0.57743597 2.57094
1.9891 -0.551566 2.5432899
1.97164 -0.53154302 2.44577
1.96912 -0.53032202 2.43979
1.9736 -0.54208499 2.43927
1.96699 -0.54152197 2.4326801
1.96381 -0.53010702 2.4261999
1.9727299 -0.54298902 2.42348
1.96796 -0.54228598 2.41661
1.96929 -0.54165602 2.4075201
1.9678799 -0.53037101 2.40042
1.96631 -0.54343897 2.4014502
1.9739 -0.555691 2.39837
1.9569701 -0.51904601 2.3964
1.9705499 -0.52954799 2.3909299
1.9694099 -0.54281503 2.39288
1.9588699 -0.51849401 2.3877299
1.96103 -0.51874399 2.3791599
1.97571 -0.54245496 2.37327
1.9963901 -0.570894 2.3694601
1.97426 -0.53024298 2.36729
1.9737101 -0.54092497 2.36602
1.97052 -0.52862704 2.3603001
1.97515 -0.541875 2.3583701
1.9864399 -0.55666804 2.3554699
1.9888999 -0.55671602 2.3469601
1.9769299 -0.520046 2.33356
1.98755 -0.54327601 2.33217
1.96812 -0.52908599 2.3117199
1.97683 -0.54328603 2.3106101
1.96603 -0.51786399 2.30422
1.9730499 -0.52994996 2.27894
1.96821 -0.517524 2.27228
1.96849 -0.517313 2.26419
1.96196 -0.52715403 2.2650199
1.96803 -0.52749699 2.25613
1.9647099 -0.52674097 2.24874
1.97483 -0.51397097 2.23927
1.96629 -0.52603 2.2409601
1.96903 -0.51486802 2.23365
1.9714 -0.51489103 2.2258201
1.9727299 -0.51536399 2.21698
2.13537 -0.73357302 3.2496901
2.0767601 -0.71982402 3.2273998
2.1284101 -0.70161796 3.1842499
2.07636 -0.72002196 3.21696
2.07388 -0.72050697 3.20648
2.0741701 -0.71991098 3.1945002
2.0667601 -0.60516298 3.1965199
2.0797999 -0.72018301 3.1791499
2.0743101 -0.60678798 3.1802099
2.0775199 -0.71998805 3.1698198
2.1268201 -0.70088899 3.1266
2.1131201 -0.70186597 3.1247497
2.06427 -0.59743398 3.1549299
2.1027901 -0.703403 3.1210299
2.05516 -0.632034 3.1274798
2.0383101 -0.65730304 3.1238699
2.0459499 -0.60905397 3.1129301
2.0616901 -0.69013298 3.0763099
2.0598099 -0.68738097 3.06741
2.03162 -0.67090398 3.0777001
2.0579901 -0.68617499 3.0581598
2.0404999 -0.67050302 3.0602601
2.0365899 -0.66941297 3.0516698
2.0365601 -0.65982002 3.0436401
2.0413401 -0.67184097 3.0303998
2.0352001 -0.66100502 3.0214601
2.04301 -0.671817 3.01864
2.02826 -0.65938002 3.0164001
2.0406199 -0.67054904 3.0089099
2.02846 -0.65809405 3.0065801
2.0023699 -0.61111701 2.88504
2.00913 -0.61336499 2.8715601
2.0113699 -0.62566 2.8694201
1.99982 -0.608033 2.8673499
2.0048699 -0.62264401 2.8635497
2.0030401 -0.60992098 2.85636
2.0094001 -0.62284201 2.8513098
1.99701 -0.59740102 2.85197
2.0023501 -0.61051297 2.8471899
2.0065501 -0.62443399 2.8434198
2.00228 -0.61092401 2.8371601
2.0041702 -0.624143 2.83585
1.9967999 -0.60845602 2.8302002
2.0038002 -0.62332499 2.8271999
1.9986999 -0.596829 2.8217599
1.99975 -0.610753 2.8197699
1.99691 -0.59681499 2.8131702
2.00367 -0.60997504 2.8077302
1.9980201 -0.596304 2.80338
2.00331 -0.60879201 2.7992201
1.9978501 -0.58296502 2.79513
2.00088 -0.59712899 2.79386
2.0009 -0.60982496 2.7922299
2.0204899 -0.56998503 2.7756701
1.9984699 -0.58041 2.7850702
1.99611 -0.59532398 2.78755
2.0046 -0.568959 2.7745001
1.99761 -0.59467602 2.7767799
1.99524 -0.60937399 2.7760401
1.99394 -0.597633 2.7687201
2.0652499 -0.58084798 2.7185102
2.0261099 -0.53146803 2.70241
2.01981 -0.57536399 2.6501501
2.01336 -0.57554799 2.6464398
2.03406 -0.61180001 2.6114502
1.9483299 -0.55204302 2.60899
1.97637 -0.57659101 2.5987399
1.95375 -0.551727 2.59904
1.97449 -0.56474704 2.5920899
1.9785 -0.57767099 2.5892701
1.95087 -0.55045599 2.5918
1.9711 -0.56363302 2.58445
1.9829201 -0.57985801 2.57845
1.96771 -0.55319101 2.5778399
1.97386 -0.56427503 2.5654402
1.97263 -0.56410301 2.55774
1.9717799 -0.561207 2.5499799
1.98041 -0.54017198 2.5404899
1.97157 -0.53167701 2.4389799
1.9685899 -0.53051996 2.43361
1.97356 -0.53527403 2.4240198
1.9746001 -0.547548 2.42274
1.9603599 -0.530819 2.4198799
1.9743299 -0.54681098 2.4149401
1.9660001 -0.53414202 2.40943
1.97095 -0.548163 2.40729
1.97464 -0.53464198 2.3986299
1.9657201 -0.54564399 2.4015899
1.97455 -0.53371602 2.39098
1.9766099 -0.53661203 2.3746099
1.98313 -0.55014801 2.3722298
1.9726501 -0.53256303 2.3683999
1.97403 -0.53212297 2.3601
1.9921299 -0.56394899 2.3542199
1.9752001 -0.53390098 2.3513699
1.9851601 -0.54939401 2.3482101
1.97209 -0.52198797 2.34427
1.98946 -0.55039901 2.33881
1.97184 -0.511271 2.3355401
1.9750999 -0.52211899 2.3359199
1.9783701 -0.53453398 2.3341601
1.9732201 -0.53275901 2.3113101
1.9774899 -0.510611 2.3025501
1.96907 -0.53369802 2.30352
1.97015 -0.52040201 2.2793398
1.9667 -0.51798201 2.2734399
1.9647701 -0.51899999 2.2663901
1.9751401 -0.519355 2.2253399
1.9728199 -0.51992697 2.2172298
2.13955 -0.73547798 3.24753
2.14026 -0.74238998 3.2475703
2.1336901 -0.70166296 3.2349403
2.1294501 -0.70001101 3.1824501
2.06899 -0.71454298 3.2267301
2.12462 -0.70164198 3.17349
2.0796402 -0.71539199 3.2070599
2.1313698 -0.69268304 3.16047
2.11888 -0.70397401 3.1671801
2.1194601 -0.703049 3.1568298
2.09448 -0.71394801 3.17523
2.13973 -0.68084997 3.1340899
2.12234 -0.70184898 3.1435299
2.09705 -0.71266699 3.1616998
2.1252902 -0.69124395 3.1333001
2.1217501 -0.70263803 3.13412
2.11216 -0.70268703 3.1309099
2.05212 -0.61228901 3.15453
2.05162 -0.61959702 3.1468201
2.0409801 -0.66555297 3.1061201
2.04969 -0.67623496 3.0904102
2.0345399 -0.66171098 3.09306
2.05036 -0.67782402 3.0792499
2.0527401 -0.67866498 3.0672801
2.05494 -0.68135804 3.0444901
2.0422699 -0.67603797 3.0441198
2.0459499 -0.677665 3.0315599
2.03655 -0.66718501 3.02596
2.04849 -0.67926103 3.0180199
2.04439 -0.66856903 3.0113099
2.03947 -0.66683096 3.0042799
2.02759 -0.64644504 2.9521999
2.0194199 -0.64562798 2.9477899
2.0225401 -0.64643598 2.93749
2.0236099 -0.64661795 2.9272602
2.0057402 -0.59911996 2.8703601
2.0078199 -0.60840201 2.86885
2.0023899 -0.60880697 2.86147
2.00263 -0.61098403 2.8514001
2.0118201 -0.62286496 2.84565
1.9991601 -0.59959799 2.8456202
2.0030601 -0.61356604 2.84233
2.0086999 -0.62444699 2.8385301
1.99879 -0.61024201 2.8353
2.0053101 -0.62482101 2.8303101
2.00384 -0.61339802 2.8226199
2.00067 -0.62602901 2.8228302
1.99814 -0.59929901 2.81826
2.00086 -0.61181903 2.81462
2.0011599 -0.60042399 2.8066299
2.00565 -0.59961396 2.7944098
1.99804 -0.612441 2.79831
2.0023501 -0.59847999 2.78778
2.0009201 -0.59830797 2.77965
1.9992999 -0.61193401 2.77966
2.0010099 -0.58561999 2.77228
1.99755 -0.59816599 2.7709997
1.98703 -0.582362 2.59688
1.97821 -0.568995 2.5938299
1.97929 -0.57919902 2.5921202
1.97814 -0.56898803 2.58636
1.9758201 -0.57830399 2.5847101
1.9763901 -0.56888598 2.5782897
1.9769299 -0.56675303 2.56861
1.97651 -0.56564802 2.5596201
1.97463 -0.56392699 2.5525501
2.06147 -0.49211299 2.5252199
1.97952 -0.544635 2.46737
1.9806399 -0.55347002 2.4665399
1.97786 -0.55423701 2.4603999
1.97201 -0.53383601 2.4175799
1.9684 -0.53524202 2.4117899
1.97255 -0.537736 2.4019899
1.9752001 -0.54779303 2.4014301
1.97209 -0.53768998 2.39487
1.9713901 -0.54700804 2.3943398
1.9752201 -0.53881699 2.38659
1.97787 -0.562181 2.3838899
1.98989 -0.57376999 2.3797801
1.97677 -0.53824699 2.3764799
1.99358 -0.575804 2.3707099
1.9719 -0.53442103 2.3694499
1.98049 -0.54853404 2.3676
1.9803599 -0.53748399 2.3601699
1.98015 -0.55188203 2.3599
1.99946 -0.56931996 2.3552499
1.97346 -0.53240502 2.35379
1.9789901 -0.51056898 2.3438499
1.98051 -0.53516996 2.3443
1.9819 -0.52219099 2.33743
1.9836501 -0.53726298 2.33481
1.9935001 -0.55313897 2.33266
1.97772 -0.55040699 2.31282
1.9686999 -0.51893502 2.3050299
1.9692501 -0.50872099 2.29194
1.9641 -0.51806301 2.27492
1.97041 -0.52017802 2.26651
1.9623801 -0.50705898 2.25844
1.96881 -0.51809603 2.25894
1.9632499 -0.517591 2.25208
1.96573 -0.518076 2.2428501
1.96479 -0.51968402 2.2348099
1.96409 -0.51756597 2.2274499
1.94274 -0.50367403 2.2214799
1.9617101 -0.518426 2.2195501
1.98092 -0.510001 2.19923
2.10829 -0.69014299 3.2017798
2.0799 -0.71040201 3.21875
2.07691 -0.71971399 3.2216799
2.07952 -0.72055495 3.2092102
2.08128 -0.72136003 3.1956701
2.0976501 -0.62405401 3.1891601
2.12182 -0.69326401 3.1577101
2.0792799 -0.71923798 3.1867199
2.082 -0.719374 3.1733499
2.1114199 -0.69867998 3.1438897
2.0789599 -0.721219 3.1647601
2.13222 -0.68980199 3.1206298
2.1216099 -0.69933403 3.1260498
2.0782499 -0.72003001 3.1548798
2.1118 -0.70112699 3.1216199
2.0943999 -0.71076399 3.1317401
2.1178598 -0.69974101 3.1066799
2.1044099 -0.71148801 3.1148498
2.10747 -0.71099299 3.1017199
2.0580499 -0.59417999 3.12078
2.0283098 -0.66017503 3.0918398
2.0248499 -0.66142702 3.0783701
2.04281 -0.66878301 3.04689
2.04037 -0.65543294 3.0384698
2.0341299 -0.65557998 3.03195
2.0404401 -0.66846496 3.0278001
2.0204101 -0.65462703 3.03038
2.03912 -0.66915804 3.0179801
2.03845 -0.66991597 3.0079498
2.0374 -0.66904604 2.99687
2.00194 -0.59888399 2.82672
2.00844 -0.60975099 2.8227801
2.0021698 -0.60956401 2.8157501
2.00054 -0.59812498 2.80987
2.00069 -0.61069196 2.8067799
1.9935601 -0.59682 2.8039503
2.0116498 -0.57329601 2.78793
1.9938999 -0.59732699 2.7943499
1.99569 -0.58284003 2.7870502
2.00212 -0.59926301 2.7807
2.0097899 -0.57189798 2.7726002
2.0037801 -0.584207 2.7733002
2.0028701 -0.60041302 2.7703698
1.99695 -0.598176 2.7646801
2.0002999 -0.65049696 2.7567599
1.98982 -0.58014703 2.5884101
1.98472 -0.580046 2.5820398
1.9809899 -0.568775 2.5675702
1.9897 -0.54231 2.53778
1.9872999 -0.54182303 2.5247099
1.97835 -0.551929 2.51017
1.97929 -0.55272204 2.49104
1.97435 -0.54884499 2.4749699
1.9681799 -0.53751099 2.4697299
1.97321 -0.54867601 2.4681501
1.97804 -0.550951 2.4576499
1.9739799 -0.53986597 2.45122
1.97558 -0.56053197 2.45011
1.97932 -0.54018801 2.3896101
1.97571 -0.53080702 2.38344
1.97843 -0.54084402 2.3824499
1.98169 -0.53351998 2.37515
1.97809 -0.54157001 2.3738999
1.96056 -0.51284599 2.3710899
1.97554 -0.53101701 2.3687
1.97263 -0.539487 2.36656
1.97552 -0.54032701 2.3573
1.95916 -0.485834 2.3584399
1.9738901 -0.52950197 2.3515399
1.98235 -0.54315901 2.34723
1.9832699 -0.50625098 2.3425798
1.9817599 -0.53217202 2.34149
1.98715 -0.54699999 2.33724
1.97858 -0.517286 2.33619
1.98726 -0.53487498 2.3317699
1.9959199 -0.55203497 2.32762
1.9892 -0.53784901 2.3228698
1.9781799 -0.50733799 2.31091
1.96672 -0.50551802 2.3051801
1.9741499 -0.545591 2.3008001
1.9725101 -0.53265595 2.2948098
1.9719701 -0.53191698 2.28632
1.9483399 -0.497136 2.2821798
1.96664 -0.52749401 2.2781899
1.9554801 -0.49957803 2.2735801
1.9577699 -0.51020503 2.2646399
1.96201 -0.51295203 2.2555399
1.96099 -0.50119901 2.23875
1.9626199 -0.51111102 2.2309101
1.96483 -0.52531999 2.2302999
1.96313 -0.50209099 2.2233801
1.9680099 -0.51485699 2.2228699
1.9691901 -0.514552 2.2143202
1.9790699 -0.50546902 2.20472
1.98015 -0.49377799 2.1910698
2.0071099 -0.568057 2.32725
2.03268 -0.56449902 2.3206298
2.0060201 -0.56332701 2.30581
2.0082099 -0.56238401 2.2962799
1.9998699 -0.55241299 2.29286
1.9849499 -0.54248899 2.2867599
2.01367 -0.55760503 2.2876899
1.99352 -0.55131 2.2757001
2.0150499 -0.55424196 2.2754998
1.99403 -0.55160499 2.26438
1.9926699 -0.537072 2.2665501
2.01862 -0.55231798 2.26581
1.9986501 -0.54923403 2.25684
1.9947301 -0.53671002 2.2554998
1.99886 -0.54795504 2.2446399
1.99194 -0.53549802 2.2423599
1.97463 -0.50671798 2.1919901
1.9682499 -0.47212398 2.1886301
1.9657201 -0.45918399 2.19087
2.0107899 -0.55744803 2.3121798
2.00736 -0.55759996 2.2985198
1.99955 -0.54729098 2.2969501
1.98498 -0.53709203 2.2880301
2.0184 -0.55352199 2.29373
1.9992399 -0.54798597 2.2839599
2.01963 -0.552607 2.2834699
2.0032301 -0.54601198 2.2737
1.9913601 -0.53592896 2.2675102
2.0134101 -0.553298 2.2674799
2.00471 -0.54408801 2.2628
1.98867 -0.53437597 2.2553899
2.0616901 -0.55645102 2.2720399
2.0158601 -0.55124998 2.2565699
2.0012901 -0.54326701 2.2490399
1.98918 -0.53208804 2.2450199
2.05124 -0.55844396 2.2572799
1.99049 -0.53401697 2.23281
1.97932 -0.50205302 2.2100201
1.9726801 -0.50554299 2.19347
1.9676601 -0.50889999 2.1789799
1.9717599 -0.49319699 2.18472
1.99805 -0.46111402 2.2107599
1.98232 -0.45622298 2.2032402
2.0163801 -0.56295103 2.3206701
1.9876199 -0.54804701 2.3032598
2.0179601 -0.56162703 2.3122001
1.9958299 -0.555821 2.2976999
1.9847599 -0.54548699 2.29092
1.9803799 -0.53671098 2.2911201
2.0179601 -0.559102 2.3006299
1.99944 -0.55206102 2.2888801
1.98414 -0.53365797 2.2825201
1.99748 -0.55277699 2.27705
1.9902699 -0.54212397 2.2735801
1.9954201 -0.55061799 2.2622001
1.98666 -0.53903598 2.2585001
2.0039701 -0.54884398 2.2547901
1.98834 -0.540865 2.2464099
1.9851899 -0.52554798 2.24913
2.0023501 -0.55061799 2.24104
1.9904801 -0.540582 2.2344699
1.99001 -0.54213601 2.22279
1.99286 -0.53960901 2.21399
1.98153 -0.509606 2.2016098
1.9784501 -0.51142001 2.1886399
1.9746699 -0.496057 2.18906
1.9830201 -0.54734904 2.4925201
1.9890801 -0.54377997 2.4857399
2.00175 -0.58503401 2.47528
1.99336 -0.585513 2.4554801
1.9892399 -0.55958301 2.4575799
1.99385 -0.55510896 2.4497399
1.9897301 -0.55602902 2.4209299
1.98427 -0.54023898 2.39254
1.98209 -0.54025799 2.3780499
1.9661599 -0.49587199 2.37362
1.98041 -0.53944403 2.36463
1.96636 -0.49842 2.36201
1.9605401 -0.48460603 2.36114
1.97826 -0.525325 2.3550999
1.97764 -0.51012403 2.35848
1.9694 -0.49664199 2.35408
2.0116301 -0.557926 2.2946699
1.9848801 -0.54136503 2.2769599
2.0119801 -0.55642104 2.28424
1.9924099 -0.54935902 2.2716
1.9746201 -0.52942801 2.2606001
1.99589 -0.54870802 2.2639799
1.9866099 -0.53830099 2.2582002
1.95636 -0.520863 2.24053
2.0003998 -0.54564399 2.2551401
1.9821401 -0.53751302 2.24301
1.97226 -0.51525903 2.23961
1.99494 -0.545609 2.2389498
1.96687 -0.51386499 2.2228899
1.9858299 -0.53517401 2.22282
1.97571 -0.49319401 2.19979
1.9686199 -0.52449203 2.17608
1.9742 -0.49256697 2.18835
1.9694999 -0.56697899 2.5383599
1.9786501 -0.54029101 2.5394299
1.96233 -0.51616502 2.5266199
1.9857001 -0.551157 2.53141
1.98357 -0.53603601 2.5322099
1.9830099 -0.51242197 2.5323
1.98692 -0.52176899 2.5220399
1.99752 -0.50891799 2.5306001
1.97866 -0.55392396 2.4979398
2.0109599 -0.58980596 2.4884799
1.99511 -0.58096904 2.4778399
1.99669 -0.59235197 2.4650099
1.99871 -0.578264 2.4702201
1.99123 -0.57892901 2.45123
1.9951401 -0.56360298 2.4161201
1.9949299 -0.52041304 2.4116499
2.0011001 -0.56248403 2.39624
1.98847 -0.54912001 2.38709
2.0035899 -0.57090598 2.3856599
1.9987301 -0.55955702 2.3827801
1.9865199 -0.547759 2.3737099
1.9811 -0.533759 2.3690701
1.96987 -0.48948601 2.3686299
1.9877 -0.558474 2.36426
1.9823899 -0.53255999 2.3580899
1.98401 -0.51783401 2.36322
1.9772099 -0.50379103 2.3627999
1.9644501 -0.49038202 2.3541
1.98123 -0.544415 2.34815
