# .PCD v0.7 - Point Cloud Data file format
VERSION 0.7
FIELDS x y z
SIZE 4 4 4
TYPE F F F
COUNT 1 1 1
WIDTH 559
HEIGHT 1
VIEWPOINT 0 0 0 1 0 0 0
POINTS 559
DATA ascii
2.0879202 -0.47490799 2.34199
2.0957699 -0.49617901 2.26302
2.0864701 -0.479794 2.2093799
2.1257 -0.47452599 2.1785901
2.0978701 -0.47616199 2.1886301
2.12027 -0.47729197 2.17342
2.08022 -0.456433 2.18471
2.0948701 -0.461959 2.1758201
2.1063099 -0.471452 2.17068
2.1175501 -0.47782502 2.1640201
2.0870101 -0.45155799 2.1652398
2.0994799 -0.45919898 2.1605101
2.1034501 -0.47153801 2.1600199
2.0950201 -0.48992199 2.16926
2.08286 -0.45221999 2.1545999
2.09132 -0.461393 2.15295
2.09793 -0.47199699 2.15065
2.0775101 -0.454896 2.1459899
2.08483 -0.464627 2.1449099
2.1410699 -0.54751098 2.33671
2.1352601 -0.56831503 2.34762
2.09955 -0.50424099 2.34484
2.1424601 -0.52830201 2.3196201
2.1307201 -0.54993099 2.3350899
2.13781 -0.56404001 2.3352299
2.1438301 -0.58235097 2.3369799
2.1488001 -0.599244 2.3399301
2.15804 -0.61180001 2.3354299
2.10269 -0.50280601 2.3284199
2.1441901 -0.50828499 2.30075
2.1337199 -0.53057599 2.31581
2.12538 -0.55386198 2.3280401
2.13416 -0.570131 2.3287101
2.1427901 -0.58261502 2.32708
2.1486301 -0.59707499 2.3283498
2.1431501 -0.62128502 2.33834
2.11762 -0.50001204 2.3041501
2.13606 -0.51045102 2.2966399
2.12222 -0.53588301 2.3127799
2.11395 -0.55753201 2.32353
2.1205299 -0.571392 2.32586
2.1338999 -0.58653301 2.32514
2.1406701 -0.60200602 2.32565
2.0921099 -0.49357498 2.3073099
2.11321 -0.49896899 2.2932801
2.1261001 -0.50942403 2.2894502
2.10642 -0.548733 2.31517
2.1052999 -0.56116998 2.31848
2.1166101 -0.49694002 2.27806
2.1286399 -0.50397599 2.2704499
2.09483 -0.55472201 2.3132
2.0996401 -0.56229299 2.3111701
2.1132801 -0.49798098 2.2671399
2.13006 -0.50189704 2.25506
2.09711 -0.55164999 2.30108
2.0911601 -0.49192199 2.2676198
2.1155 -0.49591801 2.25194
2.0978401 -0.48780602 2.24913
2.1446099 -0.492834 2.2171798
2.1017399 -0.48573899 2.2332599
2.1333399 -0.48604 2.21123
2.1390901 -0.49499902 2.21048
2.11851 -0.48061198 2.2076101
2.13555 -0.48331401 2.19765
2.13485 -0.495004 2.20239
2.11447 -0.48073199 2.1977701
2.12588 -0.485376 2.1923401
2.1094298 -0.47900599 2.1873701
2.12607 -0.48142397 2.1757598
2.08798 -0.46939099 2.1860499
2.1059999 -0.47788101 2.1761701
2.11743 -0.48410597 2.16905
2.0811701 -0.45525301 2.1746099
2.0929401 -0.46752203 2.16997
2.10181 -0.47883499 2.1668799
2.09745 -0.49336898 2.17276
2.0734899 -0.43017301 2.1586301
2.0847502 -0.45504799 2.1598699
2.0973198 -0.465857 2.15571
2.0849001 -0.48532599 2.1668301
2.0866001 -0.46795201 2.1507001
2.08096 -0.46724302 2.14046
2.15257 -0.50348002 2.33829
2.1580701 -0.50006098 2.3239498
2.1675701 -0.50479698 2.31867
2.1375599 -0.56350899 2.3515399
2.16102 -0.49871799 2.3113902
2.15464 -0.51080602 2.31914
2.13994 -0.55904901 2.3391399
2.1516399 -0.56974 2.3336999
2.15871 -0.58539504 2.3335199
2.16256 -0.59988099 2.3341501
2.1640699 -0.61451304 2.33622
2.15714 -0.50033998 2.30319
2.1436701 -0.51908797 2.31528
2.1257401 -0.54712898 2.3351901
2.1336799 -0.56187999 2.3336701
2.1502199 -0.57105702 2.3245599
2.1561098 -0.58352 2.3254499
2.1628399 -0.59842098 2.32406
2.14568 -0.507191 2.30041
2.1299698 -0.528184 2.3146899
2.1245 -0.54886401 2.3253698
2.1292799 -0.56252104 2.32358
2.1391401 -0.57395804 2.32231
2.14977 -0.587098 2.31847
2.1610801 -0.602202 2.3147199
2.1359801 -0.51000196 2.29459
2.12252 -0.52810699 2.3064098
2.11763 -0.54903102 2.31657
2.1233099 -0.56531298 2.3173599
2.13061 -0.57816398 2.3180201
2.1292701 -0.594486 2.3235099
2.1403999 -0.60831499 2.3211899
2.09097 -0.50524199 2.30954
2.1217399 -0.51152903 2.2906399
2.1098101 -0.53355998 2.30515
2.1090801 -0.54940301 2.3108301
2.11375 -0.565786 2.3148599
2.12397 -0.57882601 2.3129401
2.09709 -0.505907 2.29392
2.11376 -0.51504004 2.2862201
2.0996699 -0.535402 2.30194
2.08915 -0.50366098 2.28617
2.1013 -0.51507199 2.28297
2.09425 -0.49944901 2.2685699
2.1005599 -0.493494 2.2470701
2.1024101 -0.491539 2.2317901
2.08811 -0.48583803 2.2295599
2.1035202 -0.49077401 2.21837
2.0949299 -0.483089 2.21261
2.1017799 -0.49058497 2.2070301
2.0892 -0.48239899 2.20349
2.1052299 -0.48780498 2.1911199
2.0959899 -0.479348 2.18448
2.1064501 -0.48755401 2.17766
2.08797 -0.46746898 2.1753199
2.10201 -0.47654203 2.16658
2.1031599 -0.48866299 2.1689701
2.07829 -0.45495701 2.16677
2.0911701 -0.46430802 2.15961
2.10146 -0.47435102 2.15394
2.0977201 -0.48913899 2.16064
2.0914102 -0.46383598 2.1473501
2.0971301 -0.47614202 2.14624
2.08442 -0.49358898 2.1582999
2.0802698 -0.45306399 2.14011
2.0878201 -0.46635899 2.1391501
2.0947399 -0.47673401 2.13588
2.07897 -0.466506 2.1189599
2.1142302 -0.49773997 2.3334799
2.0801301 -0.43689799 2.33599
2.0813699 -0.44928902 2.3369601
2.0887802 -0.46344799 2.33516
2.1099501 -0.49988097 2.3271499
2.0639799 -0.43937501 2.3396101
2.0906799 -0.45962799 2.3231599
2.11221 -0.499277 2.3143601
2.1303701 -0.50367296 2.2996299
2.11731 -0.49832401 2.2986498
2.1321001 -0.50480402 2.2864599
2.1236401 -0.49957198 2.28126
2.1264799 -0.50800598 2.2785299
2.1161001 -0.50024199 2.2722399
2.1150599 -0.51128101 2.27584
2.1058199 -0.50054801 2.2666399
2.1094701 -0.51211601 2.2674601
2.1019001 -0.50206202 2.25825
2.10027 -0.515549 2.26457
2.10537 -0.49635899 2.2398901
2.09111 -0.51927799 2.2632899
2.08705 -0.48955101 2.2409
2.1055999 -0.494275 2.2264099
2.09044 -0.487818 2.22521
2.09811 -0.49660301 2.21962
2.0888901 -0.48781201 2.2136898
2.09395 -0.49763 2.2101998
2.0868299 -0.488011 2.2026401
2.0896401 -0.49877799 2.2021301
2.0926499 -0.48451802 2.18594
2.0872099 -0.47069699 2.17448
2.0989199 -0.47830898 2.16611
2.0805399 -0.45730001 2.1644099
2.0944099 -0.46744999 2.1565299
2.1014199 -0.47611499 2.1516299
2.0832 -0.45815602 2.1508799
2.0950999 -0.46787101 2.1452498
2.0977299 -0.47694901 2.1426499
2.0873199 -0.46880999 2.1391501
2.0885401 -0.47977901 2.1373401
2.0832601 -0.48203 2.12974
2.1602299 -0.51410198 2.34799
2.1347599 -0.51387298 2.36077
2.1535401 -0.51610398 2.3448501
2.14625 -0.50993198 2.3394098
2.13606 -0.52088797 2.3504
2.1405401 -0.51085299 2.32987
2.1334701 -0.52178901 2.3403199
2.1489301 -0.58468199 2.3333099
2.16292 -0.59603 2.32599
2.1387801 -0.51138502 2.3188
2.1227698 -0.52661496 2.3346601
2.1270101 -0.57441503 2.33834
2.1427 -0.58417302 2.3289599
2.15433 -0.59522498 2.3241699
2.1624801 -0.608248 2.32061
2.1015801 -0.460457 2.32307
2.0892 -0.476803 2.33869
2.12362 -0.51610297 2.3189001
2.11391 -0.53212798 2.3299398
2.1178701 -0.56074405 2.33288
2.1226301 -0.57445502 2.3318899
2.13695 -0.58354598 2.3234398
2.14484 -0.59843898 2.3235199
2.1434801 -0.61506003 2.3285499
2.0983 -0.46027198 2.3158801
2.08988 -0.473409 2.3252702
2.1140199 -0.51307899 2.31183
2.1098499 -0.53130102 2.32059
2.1112399 -0.546606 2.3248701
2.1094501 -0.56226999 2.32811
2.1091499 -0.57644099 2.3322001
2.11901 -0.51057702 2.2941401
2.1092598 -0.52786201 2.30705
2.11028 -0.54439902 2.3113101
2.0966902 -0.563815 2.32653
2.0953701 -0.50172299 2.3006001
2.1158099 -0.510948 2.28564
2.0994401 -0.53453803 2.3050399
2.09097 -0.55018103 2.3136201
2.09814 -0.50041401 2.2846601
2.1161201 -0.50667703 2.2701998
2.0840101 -0.541749 2.3054998
2.0771999 -0.55260599 2.30966
2.10341 -0.49827302 2.2664399
2.1164901 -0.50550002 2.25841
2.1028399 -0.49710602 2.25302
2.1075201 -0.50744301 2.2544999
2.10379 -0.495666 2.2390299
2.1087198 -0.50568503 2.2402999
2.10939 -0.49258998 2.2223802
2.1043899 -0.506392 2.2293
2.10534 -0.49476701 2.21419
2.0963202 -0.51063001 2.2216902
2.1015 -0.49724603 2.2046299
2.08833 -0.51415199 2.2181699
2.0994101 -0.49590501 2.1929002
2.0863099 -0.51308 2.20943
2.0875599 -0.48411998 2.18852
2.0966902 -0.49583301 2.18294
2.0871601 -0.51067603 2.19648
2.0985899 -0.48121798 2.1672599
2.1064401 -0.491797 2.1621599
2.0848 -0.51043099 2.1889999
2.0953 -0.46700802 2.1575201
2.1062899 -0.47680199 2.14855
2.1052499 -0.49058202 2.15325
2.09045 -0.46648601 2.1486099
2.10622 -0.475593 2.1370499
2.10218 -0.49101698 2.14358
2.0917001 -0.46754101 2.13556
2.0996401 -0.47969398 2.13271
2.09165 -0.49506101 2.1393399
2.0792599 -0.46812999 2.1323199
2.09044 -0.48028702 2.12725
2.07955 -0.49844399 2.13622
2.0838201 -0.48398101 2.1206799
2.08729 -0.47373903 2.34445
2.06972 -0.45056999 2.3410499
2.0766401 -0.46103299 2.3380499
2.0857 -0.474603 2.33535
2.09093 -0.48858398 2.3373899
2.09798 -0.50196302 2.3362598
2.11358 -0.507644 2.33166
2.08055 -0.45849401 2.32691
2.09287 -0.471499 2.3248599
2.09603 -0.48706502 2.3272698
2.10706 -0.49845001 2.3243301
2.12484 -0.50170201 2.3196499
2.0880702 -0.45296699 2.31512
2.09585 -0.46610099 2.3158898
2.10361 -0.482048 2.31499
2.1154201 -0.49414599 2.3136399
2.12797 -0.49852797 2.3107002
2.0664799 -0.44777 2.31112
2.0845301 -0.45531899 2.3066399
2.09744 -0.46534699 2.30656
2.0981901 -0.48207501 2.3055201
2.1087501 -0.493278 2.30496
2.0783 -0.45452899 2.2987299
2.0917799 -0.46693698 2.29755
2.0971301 -0.483275 2.2962399
2.1043501 -0.49412701 2.2944
2.0795798 -0.45638901 2.2900801
2.08586 -0.471396 2.2886899
2.0953999 -0.48441899 2.2862
2.10288 -0.49418998 2.2855999
2.0928299 -0.49836102 2.2787101
2.11392 -0.48504001 2.2671099
2.0829201 -0.46424598 2.22136
2.0873199 -0.46506801 2.2110701
2.1125998 -0.46796903 2.20557
2.08025 -0.452728 2.2026
2.0964501 -0.46264303 2.2002499
2.12163 -0.463413 2.19642
2.12713 -0.472435 2.1951401
2.0882499 -0.46140701 2.19225
2.12079 -0.461732 2.188
2.11222 -0.48047298 2.1879301
2.0747199 -0.433433 2.18504
2.0889699 -0.44418401 2.1819298
2.10797 -0.45325401 2.1809399
2.11624 -0.46431401 2.1790202
2.1005499 -0.48637402 2.18085
2.0713699 -0.43353403 2.1757801
2.0931199 -0.440961 2.1708601
2.0977201 -0.45752499 2.1733899
2.10379 -0.46890202 2.1714799
2.0598099 -0.425466 2.1687899
2.0798299 -0.43015498 2.1636999
2.09413 -0.44060099 2.1617
2.10344 -0.452384 2.1628501
2.0871699 -0.47483501 2.1633499
2.0621002 -0.42541599 2.15835
2.0801001 -0.427562 2.15429
2.0884299 -0.439071 2.1538198
2.09512 -0.454081 2.1538401
2.08342 -0.47451302 2.1547799
2.0611901 -0.42442599 2.1480401
2.08092 -0.42819199 2.1463299
2.0850401 -0.44233599 2.1454101
2.09658 -0.45126998 2.14379
2.0702801 -0.43205798 2.1379099
2.0777299 -0.44574299 2.1368399
2.0836401 -0.44037202 2.1278601
2.07476 -0.44056302 2.1209199
2.0698299 -0.42826301 2.1145899
2.0803001 -0.46022499 2.3241901
2.0945799 -0.46825501 2.32042
2.1300399 -0.48316202 2.31109
2.07354 -0.45252201 2.31828
2.0885301 -0.45881698 2.3136702
2.0959001 -0.47033101 2.31299
2.1047099 -0.481516 2.3109798
2.1159899 -0.49018398 2.30791
2.0777099 -0.45066699 2.30721
2.0887499 -0.45750701 2.3052099
2.0947199 -0.47040698 2.30494
2.0998101 -0.485423 2.3039498
2.1255701 -0.484707 2.2988198
2.0732501 -0.45158499 2.2987602
2.0806398 -0.460962 2.2982399
2.08778 -0.474819 2.2962601
2.09793 -0.485367 2.296
2.0887301 -0.48645601 2.2874
2.10566 -0.470074 2.2011302
2.1261201 -0.46037301 2.1844599
2.0894201 -0.45039299 2.1838698
2.0977399 -0.46175802 2.1847298
2.1273201 -0.45940101 2.17782
2.0873802 -0.43659699 2.1754198
2.1047201 -0.44404599 2.17275
2.1124299 -0.45440301 2.17377
2.1268699 -0.459887 2.1698098
2.07301 -0.43592 2.16855
2.09689 -0.44442099 2.16501
2.1131101 -0.45377401 2.16414
2.1284599 -0.45878699 2.1612899
2.0818601 -0.43591899 2.1581101
2.09672 -0.44589698 2.1561098
2.1080999 -0.45402899 2.1562202
2.12007 -0.461151 2.1542599
2.0708599 -0.437852 2.1499398
2.09233 -0.446082 2.14849
2.10304 -0.456413 2.1486599
2.09655 -0.47156399 2.1489
2.08442 -0.44821399 2.1403799
2.09691 -0.45726898 2.14094
2.0838001 -0.461092 2.13304
2.08266 -0.45984 2.1234601
2.1099801 -0.48046902 2.2788901
2.1227601 -0.48607102 2.27721
2.0920401 -0.47282398 2.2757699
2.0954599 -0.485111 2.2753201
2.12217 -0.48492298 2.2713499
2.09079 -0.48563001 2.2690601
2.1183999 -0.48439801 2.26475
2.08865 -0.481922 2.2505
2.09161 -0.47970599 2.24055
2.09166 -0.480066 2.2320099
2.08354 -0.469174 2.22399
2.0905299 -0.48072702 2.22277
2.09147 -0.46698397 2.21435
2.1066701 -0.47565201 2.21053
2.1157899 -0.48250198 2.21012
2.09235 -0.46701598 2.2049701
2.1208401 -0.46984401 2.20065
2.1194601 -0.48115599 2.2012701
2.0927801 -0.46377799 2.1958001
2.1203201 -0.467861 2.1927199
2.1155701 -0.48174998 2.19346
2.0840101 -0.45290002 2.18925
2.10392 -0.45997602 2.1858201
2.1312799 -0.462266 2.1818202
2.07971 -0.44292599 2.1819999
2.0994298 -0.44707501 2.1779401
2.1166701 -0.454276 2.1747401
2.1297901 -0.46076599 2.17349
2.08746 -0.43866798 2.17115
2.1061001 -0.44444999 2.1688001
2.1167901 -0.45140302 2.1661201
2.1228199 -0.46086898 2.1663599
2.0715101 -0.43833402 2.1637399
2.09835 -0.444803 2.1617401
2.0985801 -0.457093 2.1605599
2.09108 -0.44535702 2.15311
2.0952799 -0.45676699 2.15099
2.0736001 -0.439403 2.1461201
2.0885699 -0.447925 2.1447699
2.0884101 -0.45857799 2.1428599
2.07898 -0.44976398 2.1368699
2.0818701 -0.462695 2.1347201
2.09835 -0.45048901 2.2983
2.09971 -0.46145803 2.2981701
2.09179 -0.47663701 2.29457
2.09584 -0.490053 2.2925599
2.12286 -0.49267399 2.2867701
2.0873101 -0.47830898 2.28758
2.0897501 -0.49296001 2.28598
2.11519 -0.49507099 2.2821898
2.1097999 -0.49568698 2.27528
2.10132 -0.48713401 2.2315798
2.1017001 -0.48469898 2.22349
2.1018898 -0.49685201 2.22471
2.1010401 -0.48350799 2.2152801
2.1006701 -0.48192501 2.20543
2.0906899 -0.472875 2.19944
2.109 -0.47789398 2.1952
2.0819502 -0.462075 2.1928399
2.0974 -0.47028801 2.1896601
2.1195099 -0.47337502 2.18523
2.0852499 -0.449379 2.1847799
2.09095 -0.458933 2.1826
2.1128302 -0.464672 2.17889
2.1248901 -0.47129399 2.17716
2.08448 -0.44950199 2.1761401
2.10482 -0.454115 2.1714699
2.1112399 -0.46460801 2.1712101
2.0951099 -0.47929299 2.1719
2.0945001 -0.44550702 2.1656101
2.09689 -0.45494401 2.1637101
2.10286 -0.465186 2.1635699
2.09009 -0.447101 2.15657
2.0996401 -0.45576 2.15536
2.1035202 -0.46600601 2.15396
2.0843301 -0.44689998 2.1477599
2.09287 -0.45688099 2.1480401
2.1006598 -0.466333 2.1475
2.08641 -0.482373 2.1477098
2.08409 -0.45832402 2.14043
2.09905 -0.467067 2.1398098
2.0809801 -0.485468 2.1400399
2.0861001 -0.472087 2.1323402
2.0822201 -0.47169998 2.1245599
2.07883 -0.47310698 2.11657
2.07725 -0.45623901 2.3195701
2.0947399 -0.46189702 2.3162301
2.09497 -0.47299001 2.31635
2.10021 -0.48436299 2.31457
2.1428199 -0.492138 2.3052599
2.1586099 -0.49727198 2.30217
2.0929601 -0.46233898 2.3100998
2.09411 -0.47319001 2.3109798
2.1025801 -0.48439997 2.3080099
2.13271 -0.490888 2.30111
2.1428599 -0.50023997 2.3003399
2.0850201 -0.46513999 2.30283
2.0964501 -0.47368801 2.3025599
2.10548 -0.48582298 2.3006501
2.13451 -0.49062002 2.2927701
2.13638 -0.50040001 2.29427
2.0962899 -0.48567402 2.29494
2.14379 -0.49108002 2.2832
2.13327 -0.50232297 2.2857001
2.13415 -0.493691 2.2781799
2.1166601 -0.50649297 2.2804999
2.1130099 -0.495675 2.2743499
2.09706 -0.51006502 2.2769401
2.09953 -0.49643099 2.2679999
2.0941801 -0.49673802 2.2590301
2.0879099 -0.48761398 2.25313
2.0896599 -0.49678099 2.25139
2.0880001 -0.48157701 2.2261701
2.0857699 -0.48125899 2.21786
2.0917199 -0.47891998 2.2086499
2.1015601 -0.47451198 2.19942
2.0846801 -0.46769002 2.1937499
2.0831599 -0.456002 2.18574
2.10166 -0.463377 2.1809499
2.07831 -0.446706 2.1792901
2.0987802 -0.45306 2.17415
2.1111901 -0.46223998 2.1719401
2.12708 -0.46723801 2.1702201
2.0843699 -0.445696 2.16889
2.09866 -0.452088 2.1666
2.1084499 -0.46181199 2.1647401
2.12446 -0.46814701 2.16383
2.0820799 -0.44498003 2.1598401
2.0961399 -0.45300499 2.1591001
2.1118701 -0.46153599 2.15608
2.11852 -0.46960899 2.1564798
2.07623 -0.44558102 2.1528299
2.0905399 -0.45279899 2.1508701
2.1048701 -0.46148899 2.1502299
2.1076899 -0.47198102 2.1491299
2.07863 -0.44485801 2.1444099
2.0838799 -0.455107 2.1433799
2.10219 -0.46227798 2.1426101
2.0976899 -0.47430697 2.14116
2.0883901 -0.46570098 2.1354599
2.0905199 -0.47652301 2.1334298
2.08342 -0.469006 2.1279402
2.0812399 -0.48032102 2.1265399
2.09848 -0.57649899 2.35133
2.08341 -0.570265 2.3494201
2.0776899 -0.58178502 2.34216
2.07284 -0.57278299 2.34231
2.0855498 -0.57870501 2.3353601
2.06691 -0.57333499 2.3344698
2.09778 -0.57479596 2.33004
2.0652699 -0.57120603 2.32616
2.1006501 -0.57375503 2.35497
2.1196499 -0.59969103 2.3480599
2.10074 -0.58643103 2.34741
2.0666599 -0.57630301 2.3453798
2.1412499 -0.622657 2.3416898
2.12186 -0.61387801 2.34038
2.11268 -0.60021001 2.3405099
2.10935 -0.58462203 2.34113
2.0789199 -0.57554001 2.33883
2.1335599 -0.62423998 2.33357
2.1222501 -0.61288798 2.3331599
2.1089699 -0.60208201 2.3322201
2.11375 -0.58703202 2.33359
2.0864401 -0.57631999 2.33179
2.07248 -0.56342602 2.3317499
2.1359801 -0.62473798 2.3252399
2.12837 -0.61467898 2.3250101
2.12059 -0.60018396 2.3253298
2.1117101 -0.58626902 2.32549
2.13396 -0.571881 2.3275001
2.09182 -0.56127399 2.3278899
2.13434 -0.62478101 2.31639
2.12905 -0.61340404 2.31709
2.1378 -0.59894902 2.319
2.12605 -0.585989 2.31989
2.14817 -0.62240702 2.31038
2.1440499 -0.61225396 2.3111999
2.1484599 -0.62303501 2.3045099
