# .PCD v0.7 - Point Cloud Data file format
VERSION 0.7
FIELDS x y z
SIZE 4 4 4
TYPE F F F
COUNT 1 1 1
WIDTH 286
HEIGHT 1
VIEWPOINT 0 0 0 1 0 0 0
POINTS 286
DATA ascii
2.24892 -0.658925 4.1661801
2.24929 -0.65893501 4.1532998
2.2530499 -0.67322999 4.14533
2.25457 -0.66036201 4.1438999
2.2539101 -0.69074702 4.1342702
2.2613299 -0.674887 4.1394596
2.25213 -0.70002294 4.2271099
2.2813902 -0.53639501 4.1563501
2.2853301 -0.552378 4.15521
2.3208098 -0.73033601 4.2230301
2.3283701 -0.74342102 4.22645
2.3386199 -0.75346202 4.2266598
2.27544 -0.54242802 4.14502
2.27354 -0.56520301 4.1553798
2.27244 -0.581258 4.1631103
2.28614 -0.70439601 4.2174301
2.3029699 -0.71860999 4.2125502
2.3113902 -0.73154503 4.2131701
2.32162 -0.743119 4.21451
2.2627699 -0.57331598 4.1535301
2.2690198 -0.58441401 4.1533098
2.26981 -0.60184199 4.1567802
2.25967 -0.68170601 4.2157698
2.2669001 -0.69691598 4.2167702
2.2881799 -0.70594001 4.1998801
2.30022 -0.71982598 4.2003202
2.30146 -0.73786902 4.2112103
2.30602 -0.75271499 4.2183299
2.24983 -0.583673 4.1524601
2.2572999 -0.59368199 4.1502099
2.2584801 -0.61424303 4.1551199
2.2646 -0.62847501 4.1588802
2.25722 -0.68263602 4.2010999
2.27267 -0.69374102 4.1882501
2.28284 -0.706568 4.1871099
2.29232 -0.71892899 4.1894298
2.2423201 -0.589903 4.1472101
2.23949 -0.60973096 4.1567597
2.24739 -0.624852 4.1534801
2.25545 -0.63927102 4.15556
2.2516901 -0.66477203 4.1719499
2.2595599 -0.67928499 4.1763997
2.2690802 -0.69152498 4.17029
2.27617 -0.70566398 4.1739101
2.23651 -0.59426802 4.14117
2.2379601 -0.631383 4.14993
2.2461801 -0.64446294 4.14744
2.2490401 -0.66378194 4.1557097
2.2564001 -0.68020105 4.1604199
2.2653399 -0.69305605 4.1564302
2.26686 -0.70763296 4.1625299
2.24014 -0.65021402 4.1366801
2.2476799 -0.66303301 4.1370301
2.2546601 -0.67968804 4.1427302
2.2609701 -0.69262296 4.1403499
2.25226 -0.67902201 4.12465
2.27776 -0.54375499 4.1711898
2.2794001 -0.56001002 4.1743498
2.3039901 -0.71558297 4.2294903
2.3187199 -0.72301805 4.2223897
2.3259399 -0.73763704 4.2276497
2.3334501 -0.749479 4.2262502
2.2762101 -0.54304099 4.15523
2.2763801 -0.56209302 4.1607599
2.2694199 -0.58559901 4.17767
2.2703102 -0.60131097 4.1827998
2.27984 -0.69874603 4.22931
2.29843 -0.71345001 4.21735
2.31179 -0.72400004 4.2124901
2.3162501 -0.740448 4.2180901
2.3246601 -0.75271797 4.2189698
2.2642701 -0.55182499 4.1522799
2.26826 -0.56797099 4.1540699
2.2683501 -0.586128 4.1610699
2.2673199 -0.60492098 4.1719799
2.2624199 -0.69128197 4.2251201
2.27914 -0.70278502 4.2125301
2.2944601 -0.71295196 4.2005501
2.3013799 -0.72915196 4.20789
2.3078799 -0.74126506 4.2056203
2.3152201 -0.75281602 4.20823
2.26811 -0.54569304 4.12607
2.25895 -0.57421499 4.1484399
2.2590101 -0.593409 4.1548901
2.2644799 -0.60796797 4.15769
2.25616 -0.67564905 4.20294
2.2669401 -0.69053805 4.1978102
2.2811701 -0.70210403 4.1912498
2.2867999 -0.71548301 4.1906199
2.2921801 -0.73206496 4.1978397
2.2904 -0.75125802 4.21207
2.23838 -0.58655101 4.1563501
2.2467301 -0.59825701 4.1532903
2.25582 -0.61172795 4.1512098
2.25054 -0.63602698 4.1661501
2.2597001 -0.69113702 4.1849499
2.2725599 -0.70426202 4.1810398
2.2787499 -0.72207296 4.1876097
2.2864399 -0.73377198 4.1883497
2.2339101 -0.62980998 4.16429
2.2446799 -0.64206296 4.1544099
2.24789 -0.65801597 4.1615701
2.2588 -0.69107199 4.1677899
2.2685401 -0.70290601 4.1654601
2.2734699 -0.72094101 4.17694
2.2564399 -0.68924004 4.14852
2.25334 -0.68713099 4.1296601
2.29317 -0.54801297 4.1700196
2.3385899 -0.752289 4.2297301
2.28655 -0.53919798 4.1605396
2.28105 -0.55810601 4.1709199
2.3168499 -0.73046201 4.2209797
2.32424 -0.74378198 4.2231297
2.3291299 -0.75477999 4.2242699
2.3377399 -0.76453501 4.2251902
2.2804101 -0.54111898 4.1487899
2.27984 -0.5589 4.1564598
2.2709 -0.57995301 4.1728101
2.29742 -0.721286 4.2153797
2.31021 -0.73058701 4.2097001
2.3150399 -0.74314696 4.2130699
2.2783 -0.540999 4.1313601
2.2762899 -0.55917001 4.1435699
2.2734199 -0.57879102 4.15206
2.26706 -0.60069001 4.1666002
2.2629299 -0.62244499 4.1770101
2.2567799 -0.68451399 4.2236099
2.2646999 -0.69723099 4.22194
2.2825999 -0.70834297 4.2046499
2.2914701 -0.72308195 4.2037501
2.29901 -0.73515201 4.2065701
2.30251 -0.74544501 4.20719
2.2715299 -0.565476 4.1343598
2.2630401 -0.58704698 4.1495399
2.2675102 -0.599195 4.15063
2.26894 -0.61748004 4.1538801
2.26231 -0.641361 4.1710501
2.2562499 -0.68406194 4.20682
2.2652299 -0.69755501 4.2003002
2.2786701 -0.70846397 4.18748
2.2857499 -0.72212899 4.1918797
2.2906699 -0.73527497 4.1946201
2.2538099 -0.591443 4.14926
2.2558298 -0.60843897 4.1507702
2.2581899 -0.62560797 4.1512299
2.2586999 -0.64180899 4.1583099
2.25547 -0.68324399 4.1869502
2.2653599 -0.69613296 4.1788902
2.2748399 -0.70934403 4.1738601
2.2797201 -0.72434306 4.1816502
2.2811899 -0.73710704 4.18677
2.2472799 -0.63256598 4.1514201
2.25401 -0.64336801 4.1475501
2.24965 -0.66393799 4.1596203
2.26478 -0.69470596 4.1613903
2.2774401 -0.706424 4.1561699
2.2811401 -0.720644 4.1624098
2.2513599 -0.678743 4.14744
2.2511799 -0.67660302 4.12427
2.2916801 -0.5406 4.17102
2.31267 -0.73132896 4.2297001
2.3250999 -0.73889804 4.2229099
2.3355901 -0.76059896 4.2273402
2.2816 -0.54825002 4.1673298
2.28162 -0.56205398 4.17098
2.3104801 -0.728396 4.2141099
2.3169799 -0.74069101 4.2162299
2.3199899 -0.75277001 4.2211399
2.2813902 -0.54621202 4.15131
2.28052 -0.562765 4.1552701
2.27613 -0.58206797 4.1659498
2.27653 -0.59930003 4.1684203
2.2953401 -0.716322 4.2058301
2.3033099 -0.73036104 4.2045197
2.31006 -0.74249601 4.2077799
2.3039501 -0.757752 4.2213998
2.27033 -0.55186296 4.1463799
2.2730601 -0.56665301 4.1482902
2.2735 -0.58135802 4.15271
2.27191 -0.60052299 4.1595201
2.2692301 -0.61800498 4.1684098
2.2584801 -0.68074 4.2136302
2.2643402 -0.69595098 4.21628
2.28093 -0.70481402 4.19807
2.29024 -0.71662599 4.1935902
2.2955298 -0.72917503 4.1938701
2.30194 -0.74196601 4.1947799
2.2651501 -0.57120001 4.1430397
2.26389 -0.59015 4.14922
2.2643499 -0.60647798 4.1521397
2.2667899 -0.62023497 4.1560402
2.2647099 -0.638964 4.1651497
2.25685 -0.680044 4.1958098
2.2595301 -0.69512904 4.2002897
2.27683 -0.70301902 4.18047
2.2830498 -0.71851301 4.1837001
2.2874801 -0.73344201 4.1860199
2.2899299 -0.74488997 4.18893
2.2531199 -0.59317201 4.1500001
2.2574201 -0.60828799 4.1462398
2.2618101 -0.62281102 4.1448097
2.2650001 -0.63658404 4.1476302
2.25789 -0.658921 4.1634102
2.26246 -0.69301695 4.1751299
2.2738001 -0.70657301 4.1669297
2.2750101 -0.72424299 4.1775298
2.27823 -0.73605502 4.1801901
2.2448399 -0.63259202 4.1514497
2.25126 -0.64554 4.14784
2.2518699 -0.66229105 4.1515799
2.27037 -0.68821001 4.1454301
2.2737701 -0.72079599 4.1604199
2.2467101 -0.66180199 4.1408701
2.24963 -0.67248702 4.1183801
2.3354299 -0.74316102 4.22475
2.33915 -0.75395101 4.2235799
2.31093 -0.73490602 4.2227497
2.32324 -0.74424201 4.2171998
2.3308702 -0.75422096 4.21661
2.33289 -0.76679701 4.21979
2.2876 -0.54207003 4.1630497
2.2841001 -0.55903798 4.1713901
2.2768202 -0.57810903 4.1831799
2.27684 -0.59018999 4.1862297
2.316 -0.74234903 4.2056103
2.3222599 -0.755768 4.2080202
2.2825701 -0.54293001 4.1498199
2.28269 -0.55755001 4.15696
2.2837 -0.57280499 4.15838
2.2811501 -0.589073 4.1640701
2.2644601 -0.69770205 4.22791
2.2921 -0.72132301 4.2048802
2.30335 -0.73311305 4.1964202
2.3083999 -0.74715501 4.2012696
2.31392 -0.75828797 4.20123
2.27126 -0.54912102 4.1470199
2.2743499 -0.56284404 4.14885
2.2746601 -0.57969302 4.1526499
2.27426 -0.59459001 4.1556401
2.2686701 -0.60925597 4.1668701
2.2549698 -0.68670702 4.2176299
2.26087 -0.69761705 4.2123799
2.2885799 -0.72254205 4.1887102
2.2953 -0.734851 4.18683
2.30268 -0.74598998 4.1884699
2.2700999 -0.56257701 4.1321702
2.2704201 -0.57932901 4.1388001
2.2716401 -0.59342599 4.14256
2.27074 -0.60910302 4.1460099
2.26507 -0.62594301 4.1578999
2.2700799 -0.640109 4.1512098
2.25402 -0.68751603 4.2017198
2.2612901 -0.69887602 4.1957903
2.27426 -0.71094596 4.1816902
2.28563 -0.72190595 4.1719298
2.2914801 -0.73281097 4.1726999
2.29161 -0.74508303 4.1800699
2.25842 -0.58440602 4.1375799
2.26192 -0.59786999 4.1370997
2.2613099 -0.61319304 4.1413898
2.26405 -0.62843102 4.1421399
2.2691801 -0.64214498 4.1388698
2.26579 -0.65591794 4.1454802
2.2616601 -0.70052201 4.17946
2.2677 -0.71453005 4.171
2.2760801 -0.72335505 4.1666899
2.28497 -0.73297399 4.16114
2.2588699 -0.59742999 4.1232901
2.2547901 -0.61423898 4.1334901
2.2543402 -0.63446802 4.1383901
2.2565 -0.64871103 4.1409397
2.2583899 -0.66043699 4.1415801
2.26773 -0.66617399 4.1321301
2.26987 -0.72713697 4.1558599
2.26966 -0.73871201 4.1607599
2.2492599 -0.66310602 4.1399703
2.2609599 -0.731489 4.1468296
2.2667398 -0.73856199 4.1455998
2.2544999 -0.743357 4.1409202
2.2370598 -0.626275 4.1760597
2.23473 -0.627877 4.15974
2.23473 -0.61372101 4.1612797
2.2453899 -0.63953799 4.1504903
2.243 -0.62616801 4.1517
2.2411201 -0.61393499 4.1516299
2.2484901 -0.63735199 4.1430101
