# .PCD v0.7 - Point Cloud Data file format
VERSION 0.7
FIELDS x y z
SIZE 4 4 4
TYPE F F F
COUNT 1 1 1
WIDTH 68
HEIGHT 1
VIEWPOINT 0 0 0 1 0 0 0
POINTS 68
DATA ascii
1.9981101 -0.430509 0.67584997
2.0023 -0.439403 0.67004305
2.0018301 -0.38533902 0.74313599
2.00193 -0.38607702 0.74014604
2.0257299 -0.42620602 0.724944
2.01473 -0.41699201 0.72601998
2.0159299 -0.39960498 0.72603995
2.0204899 -0.38260102 0.72793794
1.9932801 -0.37927502 0.73210299
2.0142 -0.42869598 0.71992201
2.0044901 -0.418102 0.72064298
1.99159 -0.405424 0.72242296
1.9942 -0.390793 0.72373301
1.98183 -0.381524 0.72381699
2.0135801 -0.43930697 0.7126019
2.00828 -0.429766 0.71314698
2.0014999 -0.41986698 0.71381497
1.9932001 -0.408402 0.71456099
1.9813401 -0.393574 0.71570998
1.96069 -0.38100201 0.71815002
1.99561 -0.43245602 0.70771194
1.99476 -0.42105901 0.70763099
1.98651 -0.40735501 0.70687103
1.98198 -0.39283299 0.70540601
1.9693401 -0.380703 0.70862901
1.9891299 -0.41996801 0.70073503
1.9872099 -0.404562 0.69880402
1.98954 -0.38985598 0.69719696
1.98088 -0.37972099 0.69871992
1.99994 -0.38608602 0.689946
2.0041201 -0.37369499 0.68895894
1.99018 -0.38991502 0.74434996
2.0162601 -0.385544 0.73026794
1.99112 -0.38010201 0.73473096
2.0240099 -0.44329798 0.71837801
2.0132601 -0.433689 0.71983498
2.0258 -0.397084 0.72035199
1.9991499 -0.39009997 0.72468597
1.9903301 -0.380229 0.72527695
2.02984 -0.46226701 0.70967501
2.0121601 -0.44725201 0.71377295
2.0132201 -0.43245399 0.71346396
2.0091901 -0.41822398 0.71509993
2.0057001 -0.40273499 0.71571594
1.9907401 -0.391148 0.717614
1.9749299 -0.380303 0.71862
2.0214701 -0.46303901 0.70376605
2.02017 -0.44960499 0.70538801
2.0130701 -0.43595001 0.70612198
2.00647 -0.41898301 0.70712
2.0004699 -0.40249598 0.70868897
1.98295 -0.391449 0.71042693
1.9622501 -0.38149202 0.71234894
2.0191801 -0.46600699 0.69634795
2.0121698 -0.451157 0.69820696
2.00547 -0.43586299 0.69831103
2.01492 -0.418657 0.69680893
1.9973199 -0.403391 0.70164794
1.9759101 -0.39177898 0.70404899
1.9648399 -0.381634 0.70499605
2.0178199 -0.47719398 0.688034
2.0146799 -0.463166 0.68943197
2.0025899 -0.45065102 0.69049501
1.99283 -0.43822899 0.69071001
1.98621 -0.390432 0.696738
2.00543 -0.464479 0.68235797
1.99244 -0.42715901 0.68218595
2.0100601 -0.46671599 0.67478198
