# .PCD v0.7 - Point Cloud Data file format
VERSION 0.7
FIELDS x y z
SIZE 4 4 4
TYPE F F F
COUNT 1 1 1
WIDTH 153
HEIGHT 1
VIEWPOINT 0 0 0 1 0 0 0
POINTS 153
DATA ascii
2.1333201 -0.59766698 3.2152898
2.1314399 -0.58818698 3.20664
2.1403999 -0.59542298 3.1995802
2.12744 -0.60562003 3.2107301
2.1361301 -0.58571601 3.1928399
2.1203599 -0.59761798 3.2049401
2.1233702 -0.57588202 3.19186
2.1336999 -0.58368897 3.1837702
2.1262 -0.57505798 3.1795599
2.1152902 -0.58504701 3.1851301
2.1170499 -0.57591999 3.1753302
2.1068201 -0.58616 3.1802499
2.10182 -0.57769001 3.1754601
2.1025 -0.58711797 3.1730599
2.1073198 -0.58733499 3.1601501
2.0933099 -0.58538604 3.21737
2.08971 -0.57739103 3.21259
2.0982699 -0.58596301 3.2056398
2.0963099 -0.58641499 3.1974299
2.1007099 -0.58731902 3.18186
2.10566 -0.588126 3.1672399
2.18699 -0.58052301 3.2254603
2.1895399 -0.58926702 3.2229497
2.1833401 -0.56905299 3.22156
2.1965799 -0.58155 3.21065
2.1944299 -0.58971697 3.21155
2.17734 -0.567882 3.2164898
2.1905601 -0.580957 3.2065101
2.18647 -0.58894002 3.2088201
2.1479299 -0.54999399 3.23313
2.14712 -0.56030202 3.2298598
2.1852601 -0.58061701 3.2019401
2.1902299 -0.58960897 3.1973901
2.13955 -0.55234098 3.2262299
2.1348901 -0.56081599 3.2276502
2.1271501 -0.56741601 3.23349
2.18537 -0.58888698 3.1938899
2.1308701 -0.552544 3.2217999
2.1333599 -0.561656 3.2186599
2.1252799 -0.56997699 3.2235901
2.1372302 -0.56361598 3.2045701
2.12216 -0.57152998 3.21487
2.10622 -0.58010399 3.2248797
2.1349599 -0.56503999 3.1955099
2.1257 -0.57280701 3.2013898
2.1091399 -0.58175302 3.21228
2.1199899 -0.59236097 3.2027199
2.12204 -0.57350302 3.1944799
2.1103201 -0.58221197 3.2008898
2.0981901 -0.59210998 3.20753
2.10254 -0.57418096 3.1981201
2.10495 -0.585298 3.1931598
2.09881 -0.58495599 3.18854
2.1618202 -0.60785002 3.1975701
2.15347 -0.60706198 3.1965802
2.1621799 -0.61556703 3.18911
2.1463401 -0.620278 3.2001398
2.1426699 -0.60615897 3.1965301
2.1593299 -0.61751097 3.18208
2.1465199 -0.61722696 3.1823599
2.2096601 -0.59355801 3.1960602
2.19573 -0.58879501 3.20049
2.1989601 -0.598427 3.1956599
2.1657701 -0.576074 3.2177801
2.1803999 -0.59352601 3.20241
2.1912501 -0.60525602 3.1914599
2.1596899 -0.53473401 3.22051
2.15343 -0.54464197 3.22263
2.1278999 -0.55028802 3.2377801
2.12146 -0.558164 3.24034
2.1771002 -0.60409099 3.1917601
2.1449201 -0.53230596 3.22088
2.1514101 -0.54342198 3.2141001
2.1384699 -0.55260801 3.2194202
2.115 -0.55684799 3.2361298
2.1187398 -0.56720501 3.2307301
2.1561999 -0.601744 3.1963098
2.17029 -0.61329496 3.18345
2.1403399 -0.54329699 3.2112701
2.1407001 -0.55585402 3.20543
2.1228101 -0.56104803 3.21841
2.1310499 -0.59785801 3.2041998
2.14097 -0.60839295 3.1942902
2.13446 -0.55448699 3.1997299
2.1257401 -0.56337899 3.2037702
2.1005099 -0.56932598 3.2195098
2.1175799 -0.550538 3.20011
2.125 -0.562401 3.1941199
2.1100302 -0.57153398 3.20155
2.0875101 -0.57803899 3.2173901
2.1103699 -0.54884201 3.1968701
2.10906 -0.559282 3.1953499
2.1187899 -0.57572198 3.1832099
2.1025701 -0.58350104 3.19537
2.0847301 -0.59095699 3.20748
2.0900102 -0.54234004 3.2053602
2.1180298 -0.57544798 3.1745002
2.10813 -0.58328998 3.17853
2.10864 -0.57666701 3.1683199
2.1134701 -0.58678001 3.1615899
2.10588 -0.57810903 3.1589003
2.1056399 -0.58637404 3.1571801
2.11009 -0.597238 3.24909
2.10005 -0.59784698 3.2454498
2.1508999 -0.5589 3.2056201
2.1309099 -0.56519598 3.23785
2.1537101 -0.55918598 3.1857898
2.1381199 -0.56514704 3.2067499
2.12446 -0.57507098 3.2249
2.10851 -0.585154 3.24577
2.0995901 -0.59623998 3.25036
2.13662 -0.56506598 3.1908898
2.12623 -0.57402301 3.20081
2.1031799 -0.58630002 3.2328901
2.1217301 -0.56510198 3.1877499
2.1196401 -0.57323802 3.1856799
2.1157401 -0.56572199 3.1756201
2.11063 -0.57289004 3.17977
2.0974 -0.57882899 3.1954603
2.1152401 -0.575544 3.1545098
2.0973599 -0.58156198 3.1746099
2.1826699 -0.55407202 3.2059901
2.17503 -0.54171199 3.2108002
2.1728201 -0.55298001 3.2037899
2.1702201 -0.56409699 3.1990399
2.16325 -0.54158902 3.2044899
2.1593401 -0.55256599 3.20399
2.1677699 -0.56619704 3.1855798
2.1570399 -0.57465899 3.1928501
2.14622 -0.53747004 3.20503
2.1494701 -0.54888701 3.19819
2.1507401 -0.56304502 3.1912
2.15207 -0.57705301 3.1799898
2.13958 -0.584701 3.1922801
2.13164 -0.53412998 3.2060499
2.1307099 -0.543446 3.2038898
2.1350701 -0.55753303 3.1929998
2.1362 -0.57234299 3.1852601
2.1414199 -0.58688098 3.1718099
2.12975 -0.59590101 3.18189
2.1173201 -0.55250901 3.19732
2.11798 -0.56686801 3.1908002
2.12707 -0.58332199 3.17326
2.12726 -0.59587699 3.1693602
2.10024 -0.54847503 3.2012298
2.1050701 -0.56276202 3.18858
2.11045 -0.57886004 3.1758399
2.07953 -0.54490101 3.2121699
2.0911701 -0.55855101 3.1905999
2.09658 -0.57436198 3.1740198
2.0839999 -0.56057298 3.18012
2.0921001 -0.57587701 3.1586797
2.08938 -0.576487 3.14586
