# .PCD v0.7 - Point Cloud Data file format
VERSION 0.7
FIELDS x y z
SIZE 4 4 4
TYPE F F F
COUNT 1 1 1
WIDTH 126
HEIGHT 1
VIEWPOINT 0 0 0 1 0 0 0
POINTS 126
DATA ascii
1.96996 -0.24631301 0.62460798
1.9810201 -0.230986 0.622693
1.9780499 -0.21620399 0.62386799
1.9707899 -0.243477 0.61867899
1.97918 -0.23030701 0.61605394
1.98394 -0.21667901 0.616117
2.0037301 -0.20823601 0.61261499
1.96846 -0.242908 0.61100799
1.97726 -0.23020799 0.60912597
1.9806 -0.216497 0.60811299
1.994 -0.20395701 0.606547
1.9584301 -0.24299999 0.60379702
1.96516 -0.22856301 0.60413998
1.9686 -0.21502 0.60174102
1.9765601 -0.199864 0.60061896
1.98649 -0.18579799 0.59970593
1.94748 -0.24407801 0.59709001
1.96461 -0.229673 0.594302
1.97216 -0.21390601 0.59230399
1.98017 -0.198575 0.590698
1.9790801 -0.183433 0.59336096
1.95005 -0.24199699 0.58734202
1.97192 -0.22955699 0.582977
1.9806 -0.214909 0.58231401
1.98683 -0.19914499 0.58249795
1.9743401 -0.18020399 0.58561397
1.9686301 -0.244671 0.57354999
1.9869599 -0.23399201 0.56974196
1.97487 -0.246383 0.562567
1.99567 -0.23841999 0.55674899
1.98851 -0.24886699 0.54968196
1.99841 -0.23978099 0.54665399
1.9920501 -0.249999 0.539792
1.99572 -0.25269899 0.53051299
1.96213 -0.242033 0.63107198
1.95575 -0.224636 0.63294297
1.97228 -0.243101 0.62218499
1.9801899 -0.230262 0.62158996
1.9799 -0.21516301 0.62188894
1.97088 -0.20051201 0.62395197
1.9634399 -0.243339 0.61574799
1.97566 -0.229339 0.61432797
1.98511 -0.21529 0.61347795
1.9948399 -0.20430401 0.61170596
2 -0.19219901 0.60890096
1.95496 -0.241014 0.60771394
1.96675 -0.228332 0.60690099
1.9762199 -0.21356399 0.606062
1.98665 -0.200102 0.60497999
2.0088301 -0.19310302 0.599792
1.9435699 -0.23872499 0.60218501
1.95724 -0.22825199 0.59990299
1.9663901 -0.21415301 0.59873998
1.9731101 -0.19878599 0.59849501
1.97771 -0.186896 0.59981
1.9467999 -0.24030299 0.59292895
1.96293 -0.22734 0.58970594
1.97146 -0.21286899 0.58851194
1.96343 -0.196051 0.593584
1.9805499 -0.188546 0.59164596
1.9606199 -0.24168101 0.58015996
1.9859599 -0.23177099 0.57505596
1.9960899 -0.220961 0.572653
1.9755299 -0.24433 0.56830299
1.99052 -0.233354 0.56612498
2.0056798 -0.22318701 0.56387895
1.9696699 -0.24760401 0.55977094
1.9540499 -0.24503 0.62236398
1.95522 -0.228337 0.62260997
1.97026 -0.218198 0.61980098
1.9762 -0.20665899 0.61822498
1.9529099 -0.241795 0.61457598
1.9638801 -0.229123 0.61426294
1.97041 -0.215416 0.61361098
1.96826 -0.20205499 0.61254299
1.9440199 -0.241422 0.60791498
1.9588001 -0.22867599 0.60608095
1.9641099 -0.213605 0.60709798
1.9672301 -0.20040399 0.60469097
1.9611701 -0.186296 0.60617399
1.93727 -0.24231599 0.59983599
1.9467399 -0.22814199 0.59906596
1.9632601 -0.21383199 0.59639502
1.9608501 -0.19591101 0.59823197
1.9601101 -0.184687 0.59969401
1.94581 -0.24201 0.58931798
1.96343 -0.230336 0.58617395
1.97504 -0.21778899 0.58364797
1.9835401 -0.205631 0.582937
1.9636099 -0.185894 0.59176803
1.95479 -0.243893 0.579261
1.97455 -0.2299 0.57571501
1.9958 -0.221467 0.57111597
2.0086501 -0.21339001 0.56730396
2.0065501 -0.22336201 0.56076998
1.95653 -0.23888399 0.628627
1.95601 -0.225311 0.62961996
1.9592799 -0.243412 0.62164998
1.9668601 -0.230499 0.62031198
1.96156 -0.215489 0.62242103
1.95846 -0.241464 0.61425799
1.96393 -0.228755 0.61216998
1.9650501 -0.21444701 0.612517
1.94761 -0.23779899 0.60775697
1.9536 -0.222132 0.60505795
1.95834 -0.207688 0.605133
1.95593 -0.19638701 0.60725898
1.94381 -0.23803 0.59809095
1.9607201 -0.22633101 0.59296596
1.9620301 -0.21006599 0.59532702
1.9657 -0.199037 0.59668696
1.92908 -0.24981399 0.59081
1.95535 -0.24073099 0.585096
1.9718201 -0.23126699 0.58136702
1.9771 -0.21798901 0.58209699
1.9765899 -0.20398599 0.58350098
1.9663299 -0.24161899 0.57357097
1.97452 -0.22950001 0.57346898
1.98604 -0.219372 0.57093197
2.0051699 -0.21375901 0.56552798
1.9727499 -0.243745 0.56274998
1.97554 -0.230222 0.56446898
1.9946001 -0.22226 0.55905294
1.97584 -0.24151699 0.55289
1.9855599 -0.23329201 0.55247396
1.9927299 -0.23280101 0.54238099
