# .PCD v0.7 - Point Cloud Data file format
VERSION 0.7
FIELDS x y z
SIZE 4 4 4
TYPE F F F
COUNT 1 1 1
WIDTH 1618
HEIGHT 1
VIEWPOINT 0 0 0 1 0 0 0
POINTS 1618
DATA ascii
1.95161 -0.51149601 2.3434501
1.9360499 -0.499897 2.3429198
1.9094599 -0.49467 2.3405099
1.9081 -0.47850102 2.34148
1.8970701 -0.467962 2.3399498
1.87231 -0.465148 2.33532
1.95639 -0.53710699 2.33166
1.9576 -0.52283597 2.3333099
1.9540199 -0.50959402 2.33565
1.9258299 -0.47190499 2.3387001
1.8842399 -0.46933401 2.3306201
1.8697901 -0.46269903 2.32812
1.88802 -0.44305098 2.3329
1.9568801 -0.53730202 2.3223999
1.9538699 -0.52714902 2.32265
1.8881301 -0.46427199 2.3249199
1.87168 -0.45932597 2.3217399
1.8561901 -0.45346501 2.3182199
1.95732 -0.53632402 2.31352
1.9548801 -0.526384 2.3143499
1.8532699 -0.450804 2.31036
1.85263 -0.43886903 2.31021
1.9507699 -0.53951299 2.30422
1.9505701 -0.52862 2.3063002
1.85228 -0.44592398 2.3020201
1.95158 -0.52879202 2.2994201
1.9819901 -0.43880403 2.2899799
1.9791701 -0.43944699 2.2828798
1.9811301 -0.43744999 2.2762399
1.9909301 -0.42089802 2.27792
1.95179 -0.51315802 2.2542701
1.99975 -0.415656 2.27245
1.94688 -0.526173 2.2468901
1.94892 -0.51430398 2.2478299
1.95061 -0.52491701 2.23965
1.9527099 -0.51170802 2.2410002
1.95213 -0.538149 2.2305
1.9499401 -0.526788 2.2305999
1.9493099 -0.51131803 2.23142
1.9605099 -0.54757196 2.22049
1.9536901 -0.53753501 2.2221699
1.9556799 -0.52136201 2.2237799
1.9525599 -0.506733 2.22242
1.95295 -0.552706 2.2104299
1.95741 -0.53726298 2.2132599
1.95184 -0.523772 2.2151301
1.94646 -0.51012301 2.2133701
1.9862199 -0.422113 2.2226801
1.9496601 -0.541686 2.2033
1.9540801 -0.52186 2.20578
1.95021 -0.45388901 2.20841
1.94472 -0.43716598 2.2070398
1.94353 -0.41853297 2.2065699
1.9454401 -0.52723098 2.1957901
1.94533 -0.51020998 2.1975298
1.94767 -0.45134899 2.20031
1.93952 -0.43942901 2.19959
1.93379 -0.42339 2.1993699
1.9302601 -0.40805 2.1994901
1.9270599 -0.39048001 2.19821
1.9408001 -0.51118201 2.18923
1.9562399 -0.42617902 2.1945901
1.95103 -0.40916902 2.1940601
1.9308701 -0.40342999 2.1926999
1.94663 -0.50551701 2.1829998
1.94409 -0.39547402 2.18749
1.92268 -0.58340096 2.4445701
1.92744 -0.570553 2.4460201
1.9202499 -0.56228805 2.4456899
1.9369999 -0.57752496 2.4414599
1.9441701 -0.56367898 2.4424899
1.9346601 -0.55542499 2.4419298
1.94767 -0.57344604 2.43594
1.9498801 -0.56207699 2.43556
1.95064 -0.54866004 2.43715
1.96123 -0.531192 2.43975
1.9569701 -0.56924099 2.4289501
1.96123 -0.555565 2.42993
1.9598199 -0.54189098 2.43049
1.96104 -0.52869999 2.4307199
1.96515 -0.56445098 2.42079
1.96424 -0.55195802 2.42242
1.96489 -0.565781 2.41011
1.96764 -0.55094701 2.41359
1.96157 -0.52726901 2.4151101
1.97049 -0.56550401 2.4011099
1.964 -0.55532396 2.4036701
1.9635201 -0.54062903 2.4045701
1.9611701 -0.52723199 2.4050601
1.95604 -0.58382702 2.38972
1.9739101 -0.56608897 2.39288
1.9661099 -0.55294299 2.3947999
1.96614 -0.58101499 2.38397
1.9701899 -0.56928396 2.38397
1.9704499 -0.55446899 2.38553
1.9636199 -0.53829598 2.38586
1.97589 -0.577326 2.37728
1.97758 -0.56468201 2.3772299
1.96855 -0.551153 2.3759899
1.96367 -0.53548801 2.37659
1.9809599 -0.57467902 2.3694
1.97375 -0.565189 2.3675799
1.96137 -0.55495095 2.3649499
1.95857 -0.538746 2.3673501
1.95959 -0.52225298 2.3691399
1.97737 -0.57559896 2.3595998
1.96561 -0.56821996 2.35724
1.96007 -0.55631602 2.3563001
1.95855 -0.54019403 2.3578598
1.95841 -0.52417499 2.36093
1.95481 -0.509727 2.36061
1.94476 -0.49675 2.3589599
1.94041 -0.479334 2.35832
1.92685 -0.46879399 2.3565199
1.97786 -0.57455504 2.3498199
1.96518 -0.56708401 2.3492799
1.9675 -0.55062902 2.3494699
1.9586999 -0.53849202 2.3501198
1.95552 -0.52424401 2.35149
1.9471 -0.50887102 2.35028
1.9414799 -0.49182999 2.3513601
1.9220901 -0.48245999 2.3494902
1.90766 -0.475043 2.34798
1.89645 -0.46754399 2.34589
1.98629 -0.57120001 2.34074
1.97346 -0.56390595 2.3418801
1.9675 -0.55051303 2.3399999
1.9618601 -0.536439 2.34284
1.9540401 -0.52250701 2.3420501
1.9443699 -0.51178199 2.34076
1.94081 -0.49727401 2.3429601
1.93367 -0.48002499 2.3448899
1.9118201 -0.47160301 2.3422499
1.88866 -0.46753299 2.33831
1.88257 -0.45833001 2.3371499
1.9976801 -0.56774598 2.3329101
1.97938 -0.56141299 2.33268
1.9636301 -0.551112 2.3307199
1.95824 -0.53639704 2.3329
1.9514999 -0.52226299 2.3333099
1.9478199 -0.510858 2.3331399
1.9297301 -0.46779901 2.3395998
1.8867301 -0.46377799 2.3304598
1.86948 -0.45867801 2.3271201
1.9679899 -0.55195099 2.3226199
1.9588001 -0.53899103 2.3239
1.95416 -0.52322602 2.32409
1.9787899 -0.43645301 2.3276801
1.9091001 -0.45064998 2.32635
1.8842399 -0.449451 2.32265
1.85764 -0.44699001 2.3180099
1.8540801 -0.43575802 2.3174701
1.98452 -0.55770302 2.3157401
1.9693899 -0.54978901 2.31446
1.9617599 -0.53727299 2.31517
1.95323 -0.52397704 2.3134799
1.95289 -0.51147002 2.31633
1.9755 -0.43722498 2.3218501
1.97701 -0.42667598 2.3218899
1.9066499 -0.44087502 2.3206799
1.8501401 -0.44735599 2.30966
1.9680001 -0.54946202 2.3057699
1.9584399 -0.535851 2.30597
1.9526601 -0.52401197 2.3046999
1.95478 -0.51041102 2.3066599
1.9762501 -0.43621799 2.3150699
1.9794501 -0.42427298 2.3150101
1.9918801 -0.408647 2.3177299
1.8515899 -0.44241902 2.3008399
1.9812 -0.55661201 2.29845
1.9710201 -0.54790998 2.2962101
1.96087 -0.53553998 2.29667
1.95715 -0.52011698 2.29737
1.95496 -0.509058 2.2981
1.9839799 -0.43214402 2.3067701
1.97324 -0.42736599 2.3067498
1.8746201 -0.43129903 2.2973499
1.98095 -0.55452597 2.28866
1.9683701 -0.546341 2.2878199
1.9570799 -0.53699797 2.28743
1.9549201 -0.52349204 2.2881598
1.9548 -0.50924498 2.28915
1.9831599 -0.43325299 2.2975299
1.9755299 -0.42701998 2.2971499
1.86543 -0.42550302 2.29146
1.9698 -0.54706699 2.28004
1.96158 -0.53451902 2.2792399
1.95581 -0.51993901 2.27967
1.947 -0.51172 2.2797401
1.98563 -0.43222401 2.28912
1.96737 -0.43022799 2.2856798
1.9664501 -0.54575098 2.2707899
1.96104 -0.534401 2.2701998
1.9560699 -0.52185398 2.2701101
1.95162 -0.51029801 2.27193
1.9803799 -0.43270901 2.27826
1.97194 -0.42598203 2.2767899
1.96814 -0.54324603 2.26156
1.96259 -0.53268003 2.2615499
1.9867301 -0.429066 2.27
1.9712501 -0.42501098 2.2684901
1.98738 -0.40655801 2.27157
1.96513 -0.54342997 2.2521799
1.95763 -0.51981801 2.2531099
1.9537399 -0.50895303 2.25383
1.9802999 -0.43148899 2.25998
1.9738901 -0.42235902 2.25982
1.97823 -0.40981099 2.2627201
1.9609101 -0.54489398 2.2429199
1.96253 -0.53166699 2.24365
1.9574499 -0.51853502 2.2437
1.95327 -0.50854802 2.2457399
1.98432 -0.429647 2.2514701
1.97269 -0.423711 2.2506299
1.9743899 -0.41124901 2.2532001
1.96771 -0.54267102 2.23456
1.95866 -0.53406298 2.23455
1.9540499 -0.52223802 2.2343099
1.9520799 -0.509673 2.2365699
1.97103 -0.42410302 2.2422199
1.97076 -0.413331 2.2428298
1.96907 -0.54578096 2.22475
1.96227 -0.53390199 2.2262101
1.94985 -0.524005 2.22472
1.94442 -0.51310998 2.2258
1.9708999 -0.42361301 2.2343299
1.97054 -0.41264701 2.23294
1.9769901 -0.57633704 2.21368
1.9872 -0.55469 2.2169502
1.9732801 -0.54470801 2.2170801
1.9575599 -0.53401399 2.21666
1.9488499 -0.52132201 2.21613
1.94742 -0.50969499 2.2170999
1.9692199 -0.42368901 2.22508
1.95073 -0.42026797 2.2217498
1.9740801 -0.56102401 2.20731
1.9647599 -0.54552698 2.2079198
1.95258 -0.533252 2.2077899
1.95196 -0.51926601 2.2081199
1.9443099 -0.50847197 2.2077799
1.94119 -0.45445099 2.20804
1.9477 -0.43301898 2.2132001
1.9255201 -0.42852199 2.21066
1.9836099 -0.570261 2.1996601
1.9823101 -0.55683798 2.19801
1.97258 -0.54491299 2.1995199
1.95682 -0.53507304 2.2002499
1.95082 -0.52002299 2.1995599
1.9391201 -0.50705701 2.19907
1.94424 -0.469955 2.2005999
1.9402901 -0.45524397 2.2016199
1.94607 -0.43651101 2.20311
1.92562 -0.42901599 2.2037899
1.93311 -0.40703201 2.2030599
1.94166 -0.38498601 2.2025599
1.98535 -0.55541497 2.1896601
1.97298 -0.545156 2.19048
1.9583501 -0.53410602 2.19186
1.9499201 -0.520899 2.18963
1.9445 -0.50692499 2.1917601
1.94388 -0.48947102 2.1926
1.94235 -0.473212 2.1919501
1.9434301 -0.45497102 2.1938901
1.94759 -0.436474 2.1942301
1.9338499 -0.42486697 2.19594
1.93435 -0.40232399 2.1967199
1.92393 -0.39313999 2.1960599
1.9414799 -0.50800097 2.18261
1.97033 -0.42526999 2.1873999
1.94396 -0.50439799 2.17383
1.9500101 -0.51765501 2.16571
1.9429899 -0.50365901 2.1607101
1.95275 -0.55072498 2.5557899
1.95655 -0.558788 2.5501499
1.9552499 -0.55033898 2.5503302
1.94204 -0.54542303 2.54827
1.9628199 -0.55788898 2.54475
1.9613299 -0.549523 2.5439901
1.95726 -0.54085398 2.54527
1.9666001 -0.55894601 2.5359299
1.96243 -0.55082399 2.53583
1.95915 -0.57286501 2.52425
1.96399 -0.562006 2.52616
1.9430701 -0.55959702 2.52175
1.9647501 -0.57278001 2.51719
1.96199 -0.56518501 2.5162199
1.96521 -0.57493299 2.5068901
1.94706 -0.57238996 2.5025702
1.9583501 -0.58889997 2.49458
1.96358 -0.57732099 2.4980001
1.94306 -0.57559896 2.4936199
1.98263 -0.58287996 2.49195
1.96894 -0.57797199 2.49014
1.98191 -0.583996 2.4837399
1.9714301 -0.57875597 2.4802401
1.9766499 -0.58535498 2.47349
1.9764501 -0.57623202 2.47192
1.9821601 -0.58221799 2.46545
1.96083 -0.576823 2.45963
1.93284 -0.57258397 2.4540398
1.93645 -0.55887902 2.45542
1.96277 -0.534352 2.4603798
1.97215 -0.58454204 2.45315
1.9618601 -0.574992 2.4519901
1.94569 -0.56705397 2.4511001
1.94847 -0.55151904 2.4514301
1.95877 -0.53556299 2.4531
1.98343 -0.58562899 2.44523
1.96512 -0.57612401 2.44349
1.9507 -0.56428903 2.44438
1.9542 -0.54784602 2.4448099
1.9599099 -0.53395903 2.4456398
2.01948 -0.60203201 2.4405298
2.00138 -0.59551901 2.43873
1.97404 -0.58941501 2.4352
1.97034 -0.57438499 2.4349101
1.96463 -0.55898201 2.4374599
1.9610499 -0.54409498 2.4373701
2.00721 -0.60522401 2.4316499
1.9860699 -0.59976798 2.42839
1.9751899 -0.58814502 2.4268501
1.9776199 -0.57135898 2.42748
1.96489 -0.56135899 2.4284899
1.9633099 -0.54679602 2.42922
2.0008299 -0.60632199 2.4226
1.98675 -0.59825802 2.42082
1.9860699 -0.58372897 2.4204099
1.97438 -0.569938 2.41887
1.97179 -0.55720502 2.42171
2.02021 -0.600779 2.4193299
1.9964399 -0.596461 2.41593
1.9771299 -0.56852198 2.41114
1.97127 -0.55499196 2.4124401
1.9755299 -0.56701499 2.40223
1.9731599 -0.55547202 2.40253
1.97815 -0.56441897 2.3938301
1.9701401 -0.55521303 2.3931599
1.97866 -0.56474602 2.38465
1.9739101 -0.565988 2.3756101
1.97136 -0.55519301 2.3768101
1.9597099 -0.52668399 2.3762
1.9719 -0.56566399 2.3667099
1.96582 -0.55386502 2.36674
1.9578799 -0.54247004 2.3664901
1.95076 -0.50097001 2.36725
1.95011 -0.48428902 2.3657699
1.9737101 -0.56655997 2.3576598
1.9699401 -0.55533296 2.3576701
1.9631599 -0.54051602 2.35923
1.95803 -0.51234198 2.3606799
1.94996 -0.498454 2.35921
1.9306301 -0.490024 2.35625
1.92441 -0.476006 2.35548
1.93329 -0.45623299 2.35746
1.97787 -0.56648803 2.3489501
1.96656 -0.55698895 2.3485801
1.9616499 -0.54291898 2.3490899
1.95181 -0.51266497 2.3508401
1.94516 -0.49822399 2.3503199
1.9274601 -0.48852903 2.3485401
1.91638 -0.47746 2.34724
1.90994 -0.46480501 2.3473599
1.92479 -0.44732702 2.3510799
1.9857001 -0.564138 2.3424799
1.9658501 -0.55630404 2.3400099
1.9642501 -0.53945804 2.3405199
1.95455 -0.52739203 2.34233
1.95224 -0.51068503 2.3413601
1.94059 -0.49683702 2.34113
1.9222599 -0.48701301 2.3398299
1.9090899 -0.47598898 2.33882
1.89229 -0.46831799 2.3368599
1.8993 -0.45582598 2.3401499
1.9820501 -0.56449699 2.33391
1.96778 -0.55573601 2.33196
1.96183 -0.54260999 2.3313
1.95613 -0.51032001 2.3333399
1.95118 -0.496997 2.3332598
1.93981 -0.48342401 2.3335001
1.91114 -0.47689998 2.33144
1.89886 -0.46592498 2.3299601
1.88369 -0.45857298 2.3285999
1.97043 -0.55533701 2.3237901
1.9659101 -0.540016 2.3225501
1.95666 -0.528256 2.3241699
1.94784 -0.484254 2.32651
1.9557201 -0.46195099 2.3269999
1.9281399 -0.45561999 2.3254299
1.8939101 -0.45280701 2.3217499
1.8569701 -0.452905 2.31633
1.97001 -0.551171 2.3148
1.96593 -0.53861302 2.31499
1.96582 -0.442146 2.32094
1.8535 -0.44967899 2.30865
1.97034 -0.55132097 2.3062601
1.9655 -0.53827 2.3069501
1.9568601 -0.52525902 2.3056099
1.97323 -0.43752301 2.31373
1.9648499 -0.42911202 2.3136702
1.86491 -0.44009101 2.30286
1.96966 -0.55023402 2.29739
1.9653 -0.54032302 2.2976699
1.95979 -0.52726603 2.29793
1.95196 -0.51440299 2.29774
1.98035 -0.433916 2.3062699
1.9793601 -0.42098099 2.30635
1.99428 -0.40348399 2.30755
1.96823 -0.54851002 2.2885799
1.9611599 -0.537857 2.2888699
1.9543099 -0.52515501 2.2894399
1.95323 -0.49935001 2.29035
1.9754699 -0.43376899 2.29703
1.98341 -0.41973799 2.2985401
1.97507 -0.54665399 2.2799499
1.9837899 -0.432329 2.2892499
1.98543 -0.41988099 2.28862
1.9679201 -0.549016 2.2713699
1.9564199 -0.52540797 2.2699599
1.9813401 -0.43216899 2.2797799
1.99044 -0.41733199 2.2798998
1.9736199 -0.54600102 2.26422
1.96173 -0.53727001 2.2620199
1.95364 -0.51070702 2.26248
1.99006 -0.429456 2.27177
1.98703 -0.41882402 2.2713499
1.9728501 -0.54547602 2.2544601
1.9636 -0.53718299 2.2539201
1.97992 -0.42968202 2.26156
1.9830499 -0.41885501 2.26246
1.96635 -0.53577203 2.24576
1.98037 -0.428453 2.2527499
1.98163 -0.41903198 2.2533898
1.96699 -0.53445798 2.2365501
1.95952 -0.52307701 2.2384901
1.98092 -0.42708099 2.2439599
1.97466 -0.420663 2.24388
1.9797 -0.58490199 2.2241299
1.97083 -0.53561902 2.22787
1.9523399 -0.50878203 2.22861
1.9744999 -0.42931703 2.2342999
1.9729401 -0.42089298 2.23488
1.9773101 -0.58210701 2.2165201
1.9866999 -0.56194001 2.21927
1.98534 -0.54524302 2.2209601
1.9693201 -0.53647304 2.21877
1.9483 -0.49449298 2.2204101
1.97258 -0.429322 2.2244599
1.9660201 -0.42102599 2.2252398
1.97577 -0.567083 2.20965
1.985 -0.54696703 2.21281
1.9682201 -0.53781396 2.2102799
1.9459701 -0.51057798 2.2096701
1.94636 -0.49367902 2.2123001
1.94472 -0.46356201 2.21171
1.9494799 -0.44184899 2.2137699
1.95163 -0.42690101 2.2158999
1.9278901 -0.42070901 2.2127199
1.92896 -0.403997 2.2119799
1.98001 -0.56482297 2.20192
1.97229 -0.55174601 2.2024601
1.96383 -0.53619999 2.2016098
1.9544901 -0.52176201 2.20209
1.94513 -0.51054001 2.2018399
1.94178 -0.49688801 2.2023802
1.94607 -0.478084 2.20503
1.94371 -0.46284801 2.2032199
1.93892 -0.44895598 2.2052398
1.93811 -0.43194902 2.20614
1.92197 -0.42039397 2.20416
1.90557 -0.41372898 2.20472
1.91 -0.39889598 2.2042599
1.96979 -0.54923898 2.1933601
1.96998 -0.534877 2.1939099
1.95722 -0.52513301 2.1936898
1.9475101 -0.510355 2.1937602
1.94295 -0.49594501 2.1944501
1.9433299 -0.480176 2.1956799
1.93559 -0.46622699 2.19489
1.9409599 -0.44575199 2.1967199
1.9391701 -0.42716998 2.1970801
1.9109399 -0.42251202 2.19558
1.91356 -0.408261 2.1979799
1.9665101 -0.53715998 2.18573
1.9582001 -0.52299899 2.1850698
1.9464101 -0.51107603 2.18432
1.9416701 -0.496501 2.18646
1.9523101 -0.42428797 2.1897101
1.91725 -0.42179403 2.18854
1.9028599 -0.411477 2.18924
1.9485201 -0.50782698 2.1768501
1.97 -0.41651601 2.18415
1.94252 -0.413982 2.1831799
1.90941 -0.408889 2.1828201
1.95026 -0.51041198 2.1679199
1.9487801 -0.49717 2.16888
1.9727299 -0.41349497 2.17853
1.9530499 -0.52119601 2.1596601
1.94907 -0.50834799 2.1602299
1.9426401 -0.52555597 2.1528502
1.9432601 -0.51268798 2.1531701
1.9453701 -0.49964601 2.1543899
1.92976 -0.52864599 2.1463799
1.91545 -0.50289702 2.1108599
1.9389 -0.50628102 2.1052201
1.9323699 -0.49582401 2.1056199
1.9599 -0.576276 2.44854
1.98906 -0.58186698 2.4472299
1.9660699 -0.57475203 2.4438601
1.94871 -0.56879401 2.4419498
2.0267301 -0.60575598 2.44294
1.9958501 -0.59705901 2.4398799
1.9766901 -0.586164 2.43787
1.97109 -0.57382798 2.4368601
1.9603701 -0.56557298 2.4375401
2.0262301 -0.64841104 2.4323699
2.02614 -0.63774502 2.4337499
2.0067701 -0.62514198 2.43101
2.00353 -0.60974902 2.43295
1.98364 -0.59978098 2.4304299
1.98051 -0.58516997 2.4303401
1.97916 -0.57194304 2.4302099
2.01669 -0.65005994 2.42398
2.0147901 -0.63840401 2.4251101
2.0062399 -0.62555498 2.42395
2.00314 -0.61089802 2.4245701
1.98326 -0.598638 2.42258
1.9857299 -0.58248103 2.42293
2.02859 -0.64840895 2.42011
2.0203199 -0.63858104 2.4195499
2.01366 -0.62362403 2.4190099
1.9948599 -0.61304402 2.4156699
1.99745 -0.59733897 2.41749
2.0127201 -0.60904902 2.41361
1.97867 -0.56616902 2.4059501
1.9617 -0.52924401 2.37784
1.9533299 -0.51980799 2.3695998
1.9819299 -0.563106 2.36343
1.97472 -0.55346102 2.3533299
1.9566499 -0.513973 2.3524299
1.9564101 -0.50228 2.3446
1.9775599 -0.444664 2.2965701
1.9786301 -0.42912102 2.2823701
1.98106 -0.42494702 2.27423
1.98011 -0.42396599 2.26531
1.9803901 -0.41288102 2.26647
1.9763 -0.42287898 2.2570901
1.9813299 -0.41087899 2.2581201
1.9674001 -0.53498602 2.2435598
1.9822 -0.42053601 2.24965
1.97612 -0.411174 2.2495301
1.9853901 -0.42113 2.2401099
1.97974 -0.41026101 2.24193
1.98912 -0.57707 2.2225399
2.00261 -0.55926901 2.2244999
1.98672 -0.54846501 2.22471
1.9752001 -0.422474 2.2303901
1.97893 -0.41072398 2.23279
1.98066 -0.58152503 2.2157099
1.9902699 -0.56261802 2.21716
1.9821899 -0.54714197 2.2165201
1.9666499 -0.53414899 2.21681
1.95737 -0.44363898 2.2182
1.97489 -0.42368498 2.2225502
1.9685401 -0.41311902 2.22246
1.98483 -0.57867503 2.2075999
1.98466 -0.560597 2.2084398
1.9705499 -0.53607899 2.2081199
1.9506199 -0.46147597 2.21118
1.94156 -0.44853002 2.20892
1.94515 -0.43134999 2.2114701
1.93823 -0.41901901 2.2104998
1.9916999 -0.57684797 2.1998899
1.98603 -0.56343198 2.19941
1.98651 -0.546821 2.2014999
1.97043 -0.53663599 2.1995099
1.94024 -0.478854 2.1998701
1.94472 -0.463072 2.20262
1.9338601 -0.45228902 2.20064
1.94415 -0.43292198 2.2019799
1.93629 -0.41967601 2.2033601
1.9383299 -0.40260503 2.20192
1.9417999 -0.38561901 2.2014098
1.98068 -0.54802501 2.19151
1.9707899 -0.53360498 2.1923401
1.94818 -0.49495301 2.1910901
1.93775 -0.46534699 2.1939001
1.94102 -0.44894901 2.19347
1.9453999 -0.43247798 2.1935902
1.9429801 -0.41617697 2.19503
1.9341201 -0.40127 2.1943099
1.9254401 -0.39108002 2.1948299
1.9907299 -0.54448199 2.18379
1.96947 -0.534087 2.1831598
1.95242 -0.50606203 2.1838801
1.94486 -0.46387401 2.1853199
1.954 -0.44433799 2.1865101
1.98831 -0.40196401 2.1871798
1.97229 -0.532291 2.1744099
1.99874 -0.397879 2.1817901
1.93784 -0.38873199 2.18325
1.9616799 -0.520639 2.1673501
1.9970399 -0.40196601 2.1732099
1.95804 -0.53787398 2.1586599
1.9565101 -0.52155799 2.15818
1.95085 -0.50580698 2.1570199
1.99692 -0.403864 2.1631598
1.93879 -0.52577996 2.1510801
1.9409399 -0.50989699 2.15048
1.94109 -0.49554902 2.1506701
1.9324299 -0.48769501 2.14516
1.9562801 -0.51687098 2.11111
1.9443699 -0.50764102 2.1114099
1.9649401 -0.527165 2.1047502
1.96086 -0.51722902 2.1053698
1.94135 -0.49508703 2.1057501
1.9191499 -0.48998797 2.1053801
1.96298 -0.47893602 2.36323
1.90337 -0.46995097 2.35305
1.95518 -0.48730999 2.3555698
1.91483 -0.47865102 2.34905
1.90223 -0.46910301 2.3475399
1.9162601 -0.45659199 2.3503001
1.95253 -0.49961299 2.3489001
1.9502699 -0.48937902 2.34921
1.9249099 -0.47907698 2.3450298
1.90207 -0.46925399 2.3412299
1.8941901 -0.460246 2.34027
1.88999 -0.47018701 2.33306
1.8936599 -0.458554 2.33342
1.90272 -0.44498903 2.33374
1.90485 -0.45140302 2.32774
1.8725101 -0.447061 2.3215601
1.86147 -0.43653703 2.31812
1.8689901 -0.444002 2.3143899
1.85435 -0.43623102 2.3109901
1.85867 -0.42598701 2.3118
1.87685 -0.44104803 2.3092999
1.95895 -0.53921598 2.3024299
1.9531399 -0.52533299 2.28581
1.9762 -0.40664199 2.2376699
1.9746801 -0.53971499 2.2281501
1.96964 -0.41664502 2.2316298
1.9808 -0.40565801 2.2321899
1.9895599 -0.57183599 2.2188199
1.98641 -0.55298501 2.21943
1.97551 -0.41534197 2.22577
1.96996 -0.40854302 2.22386
1.9832001 -0.57447398 2.211
1.9904699 -0.55649501 2.2117999
1.94479 -0.45930699 2.2116501
1.94065 -0.44327202 2.2112398
1.95646 -0.422427 2.2155302
1.9466701 -0.41260201 2.2135
1.9252499 -0.40268201 2.21052
1.92147 -0.392079 2.2106199
1.9932201 -0.56889999 2.2044501
1.9861 -0.55578303 2.2026801
1.9440401 -0.45614898 2.2039499
1.9462399 -0.44148299 2.20503
1.9441299 -0.42740399 2.2060401
1.93505 -0.413232 2.2049301
1.91537 -0.40424401 2.20347
1.9899499 -0.56914401 2.19644
1.9878399 -0.554681 2.1940799
1.9428 -0.46979302 2.1960299
1.9433299 -0.456458 2.1965301
1.94401 -0.442509 2.1974201
1.94159 -0.42560002 2.1965499
1.92818 -0.412074 2.19683
1.9085801 -0.40314999 2.1960099
1.9945301 -0.55248797 2.18659
1.9825901 -0.54105699 2.18714
1.94353 -0.45681998 2.18943
1.9544901 -0.43906799 2.1891
1.96662 -0.42090401 2.1884799
1.94244 -0.41052601 2.1893499
1.90828 -0.40479001 2.1890099
1.97355 -0.40655801 2.18152
1.9811301 -0.40334201 2.1745501
1.96808 -0.397939 2.17417
1.9672099 -0.543015 2.1619101
1.9620301 -0.52876997 2.1630301
1.9542999 -0.51610601 2.16136
1.97856 -0.40564001 2.16664
1.95509 -0.52859199 2.15487
1.9891 -0.403308 2.1569099
1.9331599 -0.51535702 2.14607
1.9850999 -0.40403199 2.14886
1.93453 -0.50048804 2.1387899
1.98597 -0.40368098 2.14153
1.92748 -0.488581 2.13201
1.96295 -0.53418303 2.1087601
1.96636 -0.52373004 2.10864
1.9535099 -0.51477599 2.1078
1.96921 -0.52335298 2.1033599
1.96174 -0.51364797 2.10267
1.94164 -0.503506 2.10129
1.9201199 -0.49623901 2.1004701
1.9718 -0.554793 2.4395499
1.9631701 -0.53373402 2.43574
1.97001 -0.56700903 2.43413
1.9702901 -0.57936198 2.4323199
1.9705299 -0.56941396 2.4262199
1.9625 -0.58236402 2.42765
1.97106 -0.59231699 2.4242699
1.9681599 -0.56922799 2.4184599
1.9624699 -0.58317101 2.4209599
1.94109 -0.59614599 2.4238899
1.95986 -0.60340303 2.42101
1.96979 -0.56849897 2.40974
1.9610699 -0.58302397 2.4134099
1.93033 -0.59774202 2.41922
1.91063 -0.60983896 2.42379
1.97435 -0.56715798 2.3998001
1.95943 -0.58111697 2.4056301
1.9063001 -0.60229897 2.4196401
1.9732699 -0.55644202 2.3925099
1.97051 -0.568398 2.3933702
1.9757 -0.57895398 2.3916299
2.0390401 -0.61799598 2.37379
2.07042 -0.62544399 2.3663001
1.9753 -0.56776798 2.3852401
1.9795101 -0.57963699 2.38237
2.01439 -0.59096801 2.3738899
2.04217 -0.60593498 2.36746
2.0652599 -0.61698896 2.36257
2.07865 -0.62724704 2.3583801
1.97923 -0.56669998 2.3757601
2.0086701 -0.58058602 2.3677001
2.0384099 -0.59442103 2.3615
2.05775 -0.60744596 2.3577399
2.08096 -0.61774898 2.3527999
2.0848701 -0.628636 2.3501301
2.09817 -0.63757998 2.3469901
2.0143099 -0.57907599 2.35847
2.0267599 -0.59215301 2.3561599
2.05604 -0.60466099 2.35096
2.07863 -0.61750597 2.3463299
2.08147 -0.62940699 2.34483
2.09863 -0.63882899 2.3404899
2.1166701 -0.64571601 2.33707
2.01965 -0.58055001 2.3506501
2.02548 -0.59113497 2.3486099
2.0402 -0.60316104 2.34796
2.0623701 -0.61574 2.3441498
2.0840299 -0.63014001 2.33832
2.1031699 -0.64060599 2.3325999
2.0985 -0.64871901 2.3345599
2.01072 -0.57898599 2.3450298
1.9941701 -0.59080702 2.3482199
1.9983901 -0.60070997 2.3483498
2.08164 -0.64280897 2.33196
2.1036701 -0.649023 2.3272698
1.9966 -0.57814497 2.33992
2.07932 -0.65153098 2.3273699
1.99299 -0.56645399 2.33357
1.9806399 -0.57739103 2.33428
1.98409 -0.56678599 2.32671
1.9714301 -0.57741201 2.32851
1.9762501 -0.55278599 2.31934
1.9817599 -0.56542802 2.31933
1.9712801 -0.57667601 2.32096
1.97235 -0.55372697 2.3125699
1.9702201 -0.56630999 2.31303
1.96172 -0.57716399 2.3144999
1.96857 -0.541547 2.30457
1.96832 -0.554878 2.3059101
1.9655701 -0.56716299 2.3062899
1.9609101 -0.576868 2.30671
1.96199 -0.553177 2.2982001
1.96415 -0.56650198 2.29935
1.9485899 -0.57710803 2.3000801
1.9666901 -0.54200602 2.2898099
1.9624801 -0.55396801 2.2908001
1.95737 -0.56602901 2.2918999
1.94249 -0.57750899 2.29251
1.96668 -0.54033601 2.2815499
1.96252 -0.55371499 2.2839301
1.9508001 -0.56706405 2.28443
1.9396499 -0.57836199 2.2849
1.9675599 -0.54006201 2.2737701
1.9622999 -0.55308801 2.2751801
1.9456 -0.56815898 2.2767999
1.9332001 -0.57840502 2.27912
1.9688699 -0.54012001 2.2655599
1.9543401 -0.556095 2.2681899
1.9440199 -0.567711 2.27004
1.9365801 -0.57713503 2.27196
1.96924 -0.53971899 2.25651
1.96419 -0.55272299 2.25859
1.94505 -0.565579 2.26317
1.96215 -0.540977 2.2500901
1.9613099 -0.55175596 2.25143
1.95052 -0.56300998 2.25313
1.95992 -0.539635 2.2432599
1.95935 -0.55291998 2.2437899
1.94379 -0.564071 2.2455201
1.97066 -0.53795099 2.2346101
1.95663 -0.55130297 2.2360198
1.94564 -0.56578201 2.2367301
1.9648 -0.539994 2.22735
1.95205 -0.555058 2.2282598
1.93945 -0.56972903 2.2294099
1.93401 -0.58320802 2.2306399
1.97119 -0.53778499 2.2181699
1.95469 -0.551745 2.2203698
1.93696 -0.583305 2.22298
1.96364 -0.5413 2.2114999
1.9650301 -0.53905702 2.20386
1.96775 -0.53913504 2.1955199
1.96641 -0.536856 2.16309
1.9622999 -0.53830004 2.1562798
1.96479 -0.52569002 2.14047
1.9606 -0.52576602 2.1329401
1.9611701 -0.53779399 2.1345201
1.9628799 -0.52343899 2.1250901
1.9591299 -0.53681397 2.1270599
1.93608 -0.54686296 2.1280999
1.96275 -0.52395499 2.11727
1.96069 -0.53512102 2.1193202
1.9654801 -0.522268 2.1101999
1.96319 -0.53330201 2.11024
1.9653701 -0.52366602 2.1022699
1.9611501 -0.53414702 2.10237
1.9648 -0.54871601 2.6345899
1.9742799 -0.55886 2.6299601
1.9645 -0.54953599 2.6288202
1.9725701 -0.55145699 2.6188898
1.97163 -0.56009799 2.6179199
1.99072 -0.597036 2.6073499
1.98015 -0.59857202 2.60393
1.9861301 -0.60913104 2.6005599
1.97638 -0.58769 2.5992701
1.98004 -0.60090196 2.59548
1.98343 -0.61258799 2.59337
1.9796699 -0.57681501 2.5887597
1.98252 -0.58781397 2.5873199
1.98689 -0.60103297 2.58513
1.9799899 -0.61282802 2.5867701
2.0027399 -0.62259698 2.5790198
1.9827 -0.58728802 2.57811
1.9786099 -0.60070097 2.5796599
1.9785401 -0.61356497 2.57974
1.9737601 -0.62285304 2.5809901
1.9772999 -0.58842802 2.5723701
1.97526 -0.60035199 2.5713401
1.9751401 -0.61331201 2.5732501
1.96355 -0.62279499 2.57535
1.9749299 -0.57389802 2.56335
1.9765199 -0.58651 2.56391
1.9761599 -0.59928298 2.56266
1.96832 -0.61223298 2.5663598
1.95749 -0.62202096 2.5691998
1.9757899 -0.57405698 2.5562398
1.97545 -0.58732396 2.55513
1.96921 -0.60127997 2.55792
1.96357 -0.61173898 2.5592201
1.9770799 -0.57315302 2.54776
1.97684 -0.58589 2.54597
1.96855 -0.60000902 2.5488999
1.95875 -0.61034197 2.55231
1.9791901 -0.57352901 2.5383799
1.97647 -0.58845299 2.5380099
1.9632001 -0.600411 2.54161
1.9618499 -0.60963702 2.54355
1.9825101 -0.58597499 2.5290101
1.9677401 -0.59869999 2.5318999
1.95952 -0.60880202 2.53563
1.9784801 -0.588952 2.52145
1.9655401 -0.59956598 2.5246301
1.9609599 -0.60868198 2.5259399
1.99169 -0.59082699 2.5075099
1.9622301 -0.59986597 2.51757
1.9521 -0.60907 2.5201299
1.9908299 -0.59027201 2.5002
1.96304 -0.59868503 2.5083599
1.9526601 -0.60861498 2.5113001
1.9871001 -0.59034699 2.4939001
1.9591299 -0.59930998 2.50051
1.9369999 -0.60874403 2.5072401
1.9798399 -0.58911997 2.48668
1.95921 -0.59849799 2.4916
1.9381399 -0.60871798 2.4983201
1.96364 -0.58842999 2.4825099
1.95373 -0.60001701 2.48576
1.93268 -0.60918701 2.4920199
1.97613 -0.57912803 2.47246
1.9705299 -0.58856797 2.4723699
1.9552699 -0.59897703 2.4771202
1.93767 -0.608904 2.48311
1.97668 -0.58952898 2.4642401
1.9561501 -0.59928799 2.46877
1.93995 -0.60850203 2.47403
1.95395 -0.60149401 2.4621699
1.9374001 -0.61140901 2.46557
1.95698 -0.68832701 2.4559999
1.9379699 -0.61453199 2.4579999
1.9335999 -0.62522203 2.4574699
1.93512 -0.63921499 2.4544098
1.94102 -0.65447503 2.45171
1.9523399 -0.67030406 2.4491999
1.95416 -0.68592399 2.4506102
1.9534199 -0.51717401 2.44347
1.96807 -0.62153798 2.4389999
1.9420199 -0.62873399 2.4476399
1.94776 -0.64233702 2.4442
1.9512601 -0.657493 2.4431601
1.9554 -0.67035699 2.4421999
1.95682 -0.68389505 2.44205
1.9360601 -0.50505602 2.4417601
1.94304 -0.51402903 2.43928
1.9622501 -0.526995 2.43435
1.9668201 -0.55371201 2.4328001
1.94407 -0.63151002 2.43889
1.9475399 -0.64168 2.4372001
1.94901 -0.65379798 2.43659
1.9505299 -0.669783 2.4363799
1.94941 -0.68343806 2.4366
1.93784 -0.50491202 2.43453
1.94926 -0.51584101 2.43051
1.96381 -0.53010702 2.4261999
1.9686999 -0.55485898 2.4237199
1.94721 -0.64253402 2.4312599
1.9470199 -0.65580004 2.4307101
1.94415 -0.66984594 2.4316001
1.95149 -0.68375999 2.4303401
1.94162 -0.51490003 2.4254699
1.95732 -0.52687901 2.4201
1.9669501 -0.56770003 2.4161201
1.9691499 -0.58011001 2.4142101
1.9411 -0.64488 2.4270301
1.9479899 -0.516873 2.41556
1.9597099 -0.52866799 2.411
1.9688699 -0.55625302 2.40817
1.9699299 -0.57095301 2.4078798
1.96378 -0.58167899 2.408
1.9846699 -0.59070402 2.40417
1.95332 -0.51888299 2.4058299
1.96631 -0.54343897 2.4014502
1.9739 -0.555691 2.39837
1.96435 -0.56966996 2.4010699
1.95938 -0.58144999 2.40118
2.0004699 -0.60790801 2.38673
1.9569701 -0.51904601 2.3964
1.9716499 -0.55736303 2.3909101
1.9628799 -0.57103598 2.3935499
1.97552 -0.58288199 2.3889501
2.00436 -0.59773397 2.3807499
2.0276802 -0.60952902 2.37466
1.9588699 -0.51849401 2.3877299
1.9731101 -0.55662501 2.38304
1.97207 -0.56953901 2.3834
1.99541 -0.583305 2.37694
2.04176 -0.60148203 2.3649499
2.0567901 -0.61269999 2.3610799
1.97303 -0.55620301 2.3759599
2.01649 -0.58613497 2.36409
2.04129 -0.60029 2.3571
2.0613 -0.613226 2.35343
2.09337 -0.624075 2.3452401
2.027 -0.58718103 2.3544099
2.0337899 -0.598589 2.35147
2.0597 -0.61264199 2.3468299
2.0783401 -0.624883 2.3427699
2.10113 -0.636271 2.33567
1.95652 -0.51781201 2.3633499
2.0120199 -0.58434302 2.3497801
1.9999601 -0.59611201 2.3513999
2.0360301 -0.60802197 2.3459699
2.09408 -0.62859201 2.33237
2.10197 -0.63875097 2.3294799
2.1191299 -0.64615703 2.32585
1.99981 -0.57084203 2.3445001
1.99192 -0.58421797 2.3457899
1.96261 -0.59557301 2.35045
1.9469399 -0.605304 2.35217
2.0878799 -0.63007802 2.32828
2.1006401 -0.638524 2.32529
2.1096101 -0.64655703 2.32324
1.99192 -0.57093501 2.3382699
1.9676199 -0.583956 2.3429301
1.9515899 -0.59582198 2.3457801
1.9302499 -0.60493696 2.34991
1.9789901 -0.57044101 2.3329699
1.9632499 -0.58347803 2.3361099
1.9425701 -0.594383 2.34097
1.97975 -0.55664599 2.3252099
1.97437 -0.57037699 2.3259499
1.95754 -0.58156699 2.3292201
1.9717101 -0.557073 2.31829
1.96296 -0.57036501 2.32061
1.95388 -0.57943499 2.32092
1.97483 -0.55514199 2.3093901
1.95657 -0.56842798 2.3130701
1.94759 -0.57835698 2.3145301
1.9674801 -0.54139102 2.30426
1.96463 -0.556431 2.30351
1.9567599 -0.56831598 2.30528
1.9461999 -0.57757097 2.3069799
1.9655401 -0.54398799 2.2962
1.96777 -0.55647802 2.29563
1.9530901 -0.56768298 2.2983599
1.9406199 -0.57809603 2.29913
1.96382 -0.54113799 2.2879701
1.9596699 -0.55644298 2.2896299
1.94365 -0.56921202 2.2916801
1.9333099 -0.57849497 2.29285
1.97121 -0.54301298 2.2784798
1.9633501 -0.55492997 2.2805898
1.9470301 -0.567047 2.2839701
1.9338299 -0.57717901 2.2851
1.96453 -0.540887 2.27245
1.9688001 -0.55396497 2.2723899
1.9434199 -0.56597197 2.2762699
1.93049 -0.576401 2.27666
1.96526 -0.538903 2.26442
1.9622799 -0.55400503 2.2655401
1.94048 -0.56673902 2.2681298
1.9244901 -0.57582402 2.2700799
1.9603701 -0.54276103 2.25756
1.95444 -0.55616599 2.2591
1.93839 -0.56527901 2.26073
1.96293 -0.54014403 2.2485299
1.95752 -0.55425203 2.2510002
1.93241 -0.56284404 2.25389
1.96944 -0.54046702 2.23861
1.9572999 -0.55330002 2.24195
1.96839 -0.53966701 2.23105
1.96534 -0.55386698 2.2314301
1.93899 -0.56607896 2.2353599
1.9671201 -0.54180998 2.2237301
1.95752 -0.55504501 2.22471
1.94726 -0.56751704 2.2268
1.9355299 -0.58194101 2.22823
1.9712399 -0.54133803 2.2160499
1.96442 -0.55285299 2.2167001
1.9692301 -0.541179 2.2087798
1.95495 -0.55588901 2.2102799
1.96777 -0.54145098 2.2005498
1.96198 -0.553505 2.2021301
1.97044 -0.538939 2.1930201
1.9699899 -0.52813202 2.16136
1.9693401 -0.52757198 2.1540899
1.96216 -0.54055804 2.1544199
1.96549 -0.52725101 2.1470599
1.96373 -0.54053903 2.1462202
1.96567 -0.52502501 2.1394999
1.96304 -0.53817904 2.13868
1.9606799 -0.52635896 2.13201
1.95442 -0.53843898 2.13221
1.9614199 -0.52511001 2.12344
1.9596699 -0.53841799 2.12498
1.9576199 -0.54817504 2.1231
1.96023 -0.52703702 2.11567
1.95976 -0.53854197 2.1169999
1.9543099 -0.54814202 2.1152999
1.9664999 -0.52579099 2.1078699
1.9545701 -0.53838599 2.10955
1.9556301 -0.54843199 2.10744
1.93556 -0.486296 2.10197
1.95974 -0.51081902 2.10061
1.9686099 -0.52349901 2.1000299
1.95892 -0.53781396 2.10146
1.94118 -0.54804701 2.10254
1.96909 -0.56646901 2.61483
1.9738699 -0.56622201 2.6069202
1.9809899 -0.590101 2.6024702
1.99642 -0.60590303 2.5948799
1.9679899 -0.56333899 2.6013899
1.97637 -0.57659101 2.5987399
1.97707 -0.58959502 2.5966997
1.9818 -0.60345399 2.5942199
1.9917799 -0.617392 2.5887702
1.97449 -0.56474704 2.5920899
1.9785 -0.57767099 2.5892701
1.9832201 -0.59246302 2.5866601
1.99007 -0.60776299 2.5831101
1.98455 -0.61906898 2.58478
1.9944999 -0.62885499 2.58005
1.9711 -0.56363302 2.58445
1.98541 -0.59473097 2.5778997
1.9833901 -0.60741299 2.5766497
1.98397 -0.61943698 2.5778799
1.9663401 -0.62758499 2.5816901
1.96771 -0.55319101 2.5778399
1.98098 -0.57957298 2.5701501
1.9809599 -0.59341997 2.5708001
1.9733299 -0.60652101 2.5718701
1.97272 -0.61855799 2.57322
1.95672 -0.62688202 2.5761199
1.9718801 -0.55413502 2.5666001
1.97386 -0.56427503 2.5654402
1.9798801 -0.59043002 2.56341
1.97952 -0.60378098 2.5624499
1.95926 -0.61624801 2.5685799
1.9495701 -0.62590301 2.5698299
1.9703701 -0.55078202 2.5571401
1.97263 -0.56410301 2.55774
1.98089 -0.57887197 2.55355
1.9802001 -0.59146303 2.55511
1.97249 -0.60524297 2.5560801
1.94398 -0.615803 2.5647001
1.96253 -0.53743398 2.5525401
1.9717799 -0.561207 2.5499799
1.97795 -0.57552999 2.5469699
1.97689 -0.59163201 2.54637
1.9631701 -0.60571498 2.55039
1.94645 -0.61545104 2.5562699
1.97949 -0.57854098 2.5374401
1.97644 -0.59117198 2.53791
1.9676199 -0.60250998 2.5404
1.9446601 -0.61261797 2.5474801
1.9741 -0.57793802 2.5315199
1.97281 -0.59091496 2.5307899
1.9585099 -0.60341799 2.5348899
1.94595 -0.61214101 2.53866
1.97475 -0.57928699 2.5239999
1.97227 -0.59066397 2.5219901
1.96911 -0.602112 2.5232301
1.94602 -0.61094397 2.53109
1.97504 -0.58247 2.51352
1.96403 -0.59248799 2.5167501
1.9703 -0.60355204 2.5158401
1.93487 -0.60982102 2.5211
1.9719501 -0.58123797 2.50509
1.9668 -0.591187 2.5074499
1.9554801 -0.601978 2.51122
1.93784 -0.60926104 2.5144901
1.97399 -0.58075202 2.49718
1.96807 -0.58933604 2.49859
1.95936 -0.59990299 2.50157
1.9731101 -0.58106399 2.4898
1.9639701 -0.59070599 2.4907601
1.9552901 -0.59991598 2.4935
1.9699299 -0.58039498 2.4809
1.96121 -0.59038299 2.48265
1.95763 -0.60042799 2.48387
1.9722 -0.570934 2.4730599
1.97297 -0.57890701 2.4725399
1.9691701 -0.58896703 2.4730799
1.9565101 -0.60035998 2.4759998
1.92935 -0.60866296 2.4825099
1.9691299 -0.58020598 2.46577
1.95952 -0.59163898 2.4675601
1.9439999 -0.602799 2.4711001
1.92891 -0.61101198 2.4747701
1.9729401 -0.58176202 2.4550099
1.96394 -0.59105498 2.45789
1.9466901 -0.60248202 2.4623199
1.9251801 -0.61217999 2.4676399
1.98374 -0.58415699 2.44468
1.9622999 -0.590877 2.4502299
1.9511501 -0.60191202 2.4530299
1.92624 -0.61202598 2.4596899
1.9288901 -0.625696 2.4566
1.93813 -0.64431 2.4516499
1.9396001 -0.65836304 2.4512799
1.94646 -0.67237997 2.44891
1.9501801 -0.68774199 2.4477201
1.9489399 -0.50379002 2.44507
1.96394 -0.51927602 2.4416299
1.9672999 -0.59326601 2.44207
1.95614 -0.60231 2.4445
1.9327699 -0.613985 2.4496899
1.93005 -0.629843 2.44785
1.93413 -0.64493102 2.44626
1.93907 -0.659159 2.44537
1.94489 -0.67461997 2.4433
1.95119 -0.68701601 2.4416599
1.9174299 -0.488199 2.4475999
1.91741 -0.49720901 2.4470701
1.94739 -0.51387298 2.43945
1.94181 -0.60485101 2.4409499
1.9265199 -0.61673498 2.4430399
1.92037 -0.62826902 2.4421899
1.92507 -0.64144498 2.4420099
1.9301801 -0.65534103 2.44046
1.93935 -0.67075801 2.4379499
1.94925 -0.68442398 2.4356999
1.91407 -0.486505 2.4421601
1.92067 -0.499015 2.4396899
1.95059 -0.51803702 2.4311199
1.92231 -0.61709601 2.4363999
1.9150701 -0.62748402 2.43589
1.9233501 -0.64112997 2.4352
1.9369299 -0.65898496 2.43259
1.93967 -0.67288595 2.43188
1.9480799 -0.683599 2.4296801
1.9031301 -0.48282397 2.43923
1.90407 -0.49296001 2.43856
1.94602 -0.51684397 2.4251101
1.9603599 -0.530819 2.4198799
1.9707201 -0.55677599 2.4168801
1.91216 -0.61751497 2.4311299
1.90554 -0.62673497 2.43242
1.95595 -0.52094698 2.41434
1.9739 -0.55947298 2.40678
1.92739 -0.62783003 2.4214201
1.9556199 -0.52236199 2.40575
1.9657201 -0.54564399 2.4015899
1.9747599 -0.56033003 2.3980699
1.9803599 -0.57261902 2.3956499
1.9768699 -0.57276201 2.38954
1.9980999 -0.586173 2.3829699
1.9787601 -0.56214404 2.38292
1.99347 -0.57679003 2.3778999
2.0237 -0.592314 2.3687799
2.04723 -0.60607499 2.3615599
1.9817799 -0.56290299 2.37409
2.00579 -0.579557 2.36689
2.0308399 -0.59555399 2.35969
2.04533 -0.606489 2.3562
2.0121899 -0.58098501 2.35692
2.0245399 -0.59471101 2.3542399
2.0240099 -0.60387903 2.3539999
2.0023801 -0.57828701 2.3510599
2.00196 -0.59112 2.35182
1.99148 -0.60077399 2.3521399
2.0008399 -0.57994401 2.3449001
1.97528 -0.58926898 2.3490801
1.9542301 -0.59831601 2.3513401
1.9888999 -0.576832 2.3394699
1.96302 -0.58820301 2.34342
1.94484 -0.59766203 2.3462501
1.9391701 -0.60621297 2.34763
1.98598 -0.56252599 2.3324201
1.98032 -0.57651597 2.33289
1.9489101 -0.58650202 2.3385899
1.94345 -0.59668398 2.3401802
1.98463 -0.56469202 2.3252702
1.96847 -0.57519197 2.3273001
1.9516799 -0.58478296 2.3301699
1.97554 -0.56213301 2.3194098
1.96489 -0.573286 2.3199899
1.94961 -0.58153802 2.32236
1.97007 -0.54576099 2.31055
1.97304 -0.56045699 2.3111601
1.9642301 -0.57158297 2.3118899
1.97235 -0.549146 2.30318
1.96986 -0.56152803 2.30388
1.9600101 -0.56933898 2.30371
1.96347 -0.54531503 2.2972999
1.9681799 -0.55928904 2.2960598
1.9542799 -0.56808299 2.29649
1.9667101 -0.54637504 2.2884099
1.9594501 -0.55945897 2.28947
1.9527401 -0.56840098 2.2888198
1.9690199 -0.54689497 2.28017
1.9600301 -0.55868399 2.2809799
1.9429699 -0.56716299 2.28353
1.9577299 -0.54528701 2.2748401
1.9592301 -0.55877203 2.2722001
1.9430299 -0.56682801 2.2763801
1.96304 -0.54650098 2.2649701
1.9573101 -0.55882704 2.2649601
1.9445399 -0.566571 2.2681599
1.9655 -0.54462701 2.2560301
1.96058 -0.55714804 2.25807
1.9445 -0.56537998 2.26085
1.96829 -0.545407 2.2469299
1.96121 -0.55622399 2.25033
1.9662199 -0.54444903 2.23948
1.9632601 -0.55744898 2.2395098
1.96619 -0.5467 2.2316501
1.95744 -0.55979002 2.2323098
1.9346499 -0.57065797 2.2348402
1.96541 -0.54741699 2.22386
1.9647 -0.55932599 2.22491
1.94239 -0.57051301 2.22667
1.9654201 -0.54477197 2.21629
1.95901 -0.55961603 2.2177999
1.96808 -0.53176898 2.21013
1.96474 -0.54390097 2.2086301
1.9611599 -0.55724096 2.2091799
1.9687899 -0.53239202 2.2011199
1.96558 -0.54686904 2.20169
1.96787 -0.53331798 2.19242
1.97092 -0.53211099 2.1612999
1.96817 -0.53410703 2.1537499
1.94555 -0.49013901 2.1482499
1.9694999 -0.529845 2.1456599
1.94069 -0.48894101 2.1417201
1.9631 -0.53167599 2.1382699
1.96173 -0.518112 2.1317201
1.9625101 -0.53082597 2.1299398
1.95867 -0.54368901 2.1320901
1.9650301 -0.53000802 2.1221299
1.9576601 -0.54314101 2.12323
1.9644501 -0.51733202 2.11502
1.9616901 -0.53178102 2.1157999
1.95916 -0.54301101 2.1143999
1.9494901 -0.55224401 2.1166902
1.9461999 -0.49126801 2.1098599
1.9623899 -0.515728 2.1069
1.96357 -0.53033698 2.10779
1.96412 -0.54290795 2.1064899
1.9475 -0.55119401 2.1079199
1.96263 -0.51903099 2.1001301
1.96474 -0.53260797 2.10043
2.0164599 -0.61320704 2.5833302
1.97929 -0.57919902 2.5921202
1.98985 -0.595052 2.5880499
1.9929299 -0.60911399 2.5857897
2.00752 -0.62176299 2.57953
1.9758201 -0.57830399 2.5847101
1.98033 -0.59259498 2.58232
1.99049 -0.60794902 2.5796099
1.98481 -0.61919302 2.5796697
1.9656799 -0.627783 2.5824201
1.9763901 -0.56888598 2.5782897
1.97954 -0.58026904 2.5745699
1.9768201 -0.59391397 2.57477
1.98326 -0.60801899 2.5738502
1.96918 -0.6189 2.5759699
1.95733 -0.62800902 2.57781
1.97497 -0.57754797 2.5674298
1.9762 -0.59125501 2.5670898
1.9718699 -0.605883 2.56844
1.9618499 -0.61861002 2.56937
1.9471201 -0.62673599 2.57392
1.9624801 -0.53874201 2.5656598
1.96629 -0.55022299 2.56458
1.97613 -0.58070099 2.5592399
1.97595 -0.59440702 2.5596201
1.9616901 -0.60526001 2.56266
1.95841 -0.61696798 2.5620999
1.95017 -0.62627202 2.5651598
1.97463 -0.56392699 2.5525501
1.97576 -0.57767099 2.5504601
1.96963 -0.59304899 2.5529602
1.9604 -0.60567701 2.55549
1.9500799 -0.61544204 2.55849
1.9776199 -0.57738602 2.5411401
1.9712501 -0.59061503 2.54264
1.95972 -0.60256404 2.54825
1.9751401 -0.57970297 2.5336502
1.97272 -0.591923 2.5332401
1.9585401 -0.59921002 2.5390501
1.9817901 -0.57769698 2.5237398
1.969 -0.58946204 2.5266199
1.9612499 -0.59984601 2.5283098
1.9732801 -0.57923698 2.5177
1.9632699 -0.59134001 2.51967
1.9498801 -0.60010302 2.5219698
1.97238 -0.57594699 2.5099001
1.9672 -0.58931303 2.5102
1.9522901 -0.60044301 2.5136499
1.9419299 -0.61028898 2.5151398
1.97227 -0.56708801 2.5028
1.9684399 -0.57833201 2.5016601
1.9607401 -0.59132701 2.5034699
1.9466001 -0.60266298 2.5069399
1.92592 -0.60977101 2.51194
1.97296 -0.56898201 2.49281
1.97349 -0.578803 2.4921899
1.95915 -0.58792001 2.4957299
1.954 -0.60146099 2.4966898
1.92257 -0.60835201 2.5053
1.97395 -0.56626499 2.4823699
1.9683701 -0.57849997 2.4855001
1.9569299 -0.59139299 2.4880199
1.9453999 -0.60212201 2.49122
1.92536 -0.60856497 2.49505
1.9691701 -0.56319302 2.47648
1.97098 -0.57623899 2.4754701
1.96224 -0.58990198 2.4779501
1.9486301 -0.601964 2.4815099
1.9208599 -0.607225 2.4881201
1.97335 -0.56397402 2.46789
1.9732699 -0.576819 2.4673798
1.9670199 -0.58798099 2.46838
1.9533701 -0.59981096 2.4712899
1.93441 -0.60935098 2.4756999
1.9756 -0.56588 2.45873
1.96974 -0.57698798 2.4611099
1.96222 -0.59002 2.4612701
1.9451801 -0.60214901 2.46403
1.9204601 -0.61054999 2.46984
1.9707401 -0.57876402 2.45172
1.9560499 -0.59191501 2.45403
1.9413099 -0.60264301 2.45666
1.92796 -0.61295801 2.46015
1.91747 -0.62375402 2.4618499
1.9321001 -0.64087099 2.45539
1.9312301 -0.65570396 2.4546201
1.94095 -0.67102796 2.4514098
1.9535201 -0.68777299 2.4475901
1.98061 -0.57987499 2.4405699
1.9617101 -0.590258 2.4446599
1.9453101 -0.60145098 2.4482899
1.9347999 -0.61285597 2.4509799
1.9361 -0.62838399 2.4489701
1.94019 -0.64587504 2.4469399
1.94853 -0.66097504 2.4445601
1.9459701 -0.67340696 2.4442701
1.9890199 -0.58298701 2.4311199
1.96101 -0.58965498 2.4368601
1.95242 -0.60085303 2.4389601
1.94006 -0.613491 2.4411099
1.9312301 -0.62735295 2.4407499
1.94041 -0.642829 2.43975
1.94159 -0.65756106 2.43922
1.9652499 -0.67448503 2.43275
1.9628799 -0.52211201 2.42644
1.95936 -0.59098399 2.4299898
1.95253 -0.60231 2.43064
1.93093 -0.61335498 2.4342
1.9223399 -0.62527001 2.43501
1.9442199 -0.64339501 2.4309499
1.9478 -0.65791702 2.4307101
1.96172 -0.52261901 2.4212799
1.95603 -0.594374 2.4233201
1.9408901 -0.603194 2.42588
1.9171699 -0.61172998 2.4308
1.91396 -0.62405199 2.4314899
1.93988 -0.603122 2.4205699
1.9067301 -0.62105399 2.4275701
1.97787 -0.562181 2.3838899
1.98989 -0.57376999 2.3797801
1.9794201 -0.56291199 2.3764701
1.99358 -0.575804 2.3707099
1.9839901 -0.56372797 2.3668299
2.00243 -0.579633 2.3598499
2.0019 -0.58089602 2.3526101
2.02437 -0.59532201 2.3468299
2.0134001 -0.58501798 2.3434701
2.0153301 -0.59512299 2.34338
1.9885899 -0.57743001 2.3396101
2.0253 -0.59795499 2.3362899
1.99037 -0.56524599 2.33322
1.9855 -0.57750702 2.3320701
1.9850999 -0.58906198 2.33073
1.9901199 -0.56741798 2.3255498
1.9762501 -0.57778597 2.32617
1.95834 -0.58599699 2.3296399
1.9661099 -0.59577101 2.3278298
1.9799299 -0.56344104 2.31935
1.9775599 -0.57666701 2.3180301
1.96035 -0.58518004 2.32196
1.9776199 -0.56477404 2.31089
1.96787 -0.57633501 2.3131499
1.9549099 -0.58340001 2.3139601
1.9738801 -0.54899102 2.30581
1.9636 -0.56054997 2.3048999
1.9670501 -0.575023 2.30546
1.94759 -0.58105302 2.3067598
1.96486 -0.54623002 2.29917
1.96307 -0.55968702 2.2971799
1.9583 -0.57251596 2.2983899
1.9505701 -0.58164102 2.2982001
1.9641299 -0.54698002 2.29039
1.9629101 -0.56262296 2.2899599
1.95323 -0.57297099 2.2919199
1.94112 -0.57943296 2.29317
1.96086 -0.54442501 2.2829199
1.96515 -0.55945802 2.2811401
1.96174 -0.57214099 2.2830498
1.96549 -0.546305 2.27368
1.9659599 -0.55983102 2.2732699
1.96174 -0.56925499 2.2737
1.9664501 -0.54699099 2.26441
1.96086 -0.55896699 2.2669201
1.9558501 -0.56957197 2.2655499
1.96997 -0.54724902 2.2553899
1.9560499 -0.559183 2.2586799
1.9466701 -0.57047999 2.2585099
1.9210299 -0.575939 2.26143
1.9513299 -0.50422198 2.25229
1.9666001 -0.54640001 2.2488999
1.96242 -0.55817199 2.24947
1.9549401 -0.570786 2.2504301
1.9316001 -0.57730401 2.25385
1.94328 -0.50215602 2.2460499
1.96523 -0.53115797 2.24142
1.9664799 -0.546354 2.24121
1.9572999 -0.56065702 2.2421398
1.9466799 -0.57197601 2.24333
1.94947 -0.50443804 2.2372
1.9672099 -0.54519904 2.2326801
1.9594901 -0.55792803 2.23367
1.94853 -0.57167196 2.2344
1.9259 -0.58222699 2.2369001
1.93953 -0.50234598 2.22978
1.96524 -0.53154999 2.2267098
1.96656 -0.54737598 2.22475
1.95356 -0.56001401 2.2263999
1.94791 -0.57295102 2.2263401
1.93302 -0.582371 2.2292099
1.94274 -0.50367403 2.2214799
1.97001 -0.53522998 2.21751
1.97089 -0.54785997 2.21665
1.96174 -0.55835301 2.2175798
1.96403 -0.530972 2.2111099
1.9658799 -0.54646897 2.2096798
1.9646801 -0.53238899 2.20258
1.9655499 -0.54609501 2.20174
1.9703799 -0.53402305 2.18488
1.9755 -0.53366798 2.1682899
1.9736 -0.53478503 2.1607199
1.97136 -0.53173602 2.15452
1.964 -0.54395902 2.1543899
1.96552 -0.53140199 2.1477399
1.95995 -0.53056002 2.1400599
1.95864 -0.51619303 2.1314399
1.9660801 -0.53127199 2.1304901
1.95026 -0.54449904 2.1312101
1.96522 -0.52952701 2.12204
1.96067 -0.54274499 2.1225998
1.96383 -0.53130901 2.1146898
1.9551899 -0.54462898 2.11483
1.94101 -0.55507803 2.1167498
1.96549 -0.51969796 2.1079998
1.95926 -0.53174597 2.10695
1.9561701 -0.54452205 2.1074898
1.94287 -0.55396098 2.1087201
1.91853 -0.55894399 2.10956
1.9648499 -0.51892799 2.10028
1.9555299 -0.54370397 2.1006298
1.9430901 -0.55251497 2.10041
1.9882699 -0.59389901 2.58674
1.99389 -0.61007899 2.5830798
2.0050101 -0.62437403 2.5775099
1.98864 -0.595137 2.5778198
1.98051 -0.60676402 2.58073
1.97894 -0.61805499 2.5799899
1.98471 -0.59517401 2.5711298
1.98491 -0.607265 2.5713401
1.9775701 -0.61766899 2.57271
1.9509801 -0.62148702 2.5809798
1.97681 -0.590958 2.56654
1.98008 -0.60662401 2.56411
1.9678301 -0.61580503 2.5680599
1.9743201 -0.576913 2.5593801
1.97888 -0.59228599 2.5569201
1.9774201 -0.60583097 2.5564599
1.96823 -0.61426103 2.5585601
1.9629401 -0.55164003 2.5576899
1.97663 -0.57732397 2.5509799
1.97651 -0.59182 2.5479701
1.97216 -0.60420001 2.55024
1.96332 -0.612737 2.5504999
1.97874 -0.577362 2.54074
1.97954 -0.59234697 2.53912
1.9673101 -0.602624 2.5420101
1.9621201 -0.61263502 2.5425701
1.9772 -0.57679296 2.5328798
1.9778301 -0.59121698 2.5318198
1.9597099 -0.60047799 2.5353999
1.9651101 -0.612607 2.53338
1.9808099 -0.57775503 2.5229399
1.97078 -0.59210199 2.5250199
1.96058 -0.60197699 2.5279601
1.97272 -0.613967 2.5232899
1.96864 -0.54669601 2.52214
1.97911 -0.575813 2.51408
1.97087 -0.58859599 2.51582
1.96707 -0.601336 2.51824
1.9785 -0.578246 2.5057499
1.96733 -0.58786398 2.5087199
1.9681 -0.59843302 2.5079699
1.97675 -0.57746202 2.4988499
1.9736199 -0.58880699 2.4990599
1.96964 -0.59838796 2.4979398
1.97495 -0.57637399 2.4922099
1.9775901 -0.590051 2.4891698
1.97776 -0.57669997 2.48276
1.9764199 -0.58859903 2.4807699
1.97727 -0.575634 2.47346
1.96997 -0.58724999 2.47212
1.97138 -0.57617199 2.46664
1.97103 -0.58824402 2.46403
1.9627401 -0.59888101 2.4639399
1.97004 -0.57532102 2.45913
1.96781 -0.58967602 2.4567001
1.9521899 -0.599141 2.45997
1.9496499 -0.61097097 2.45857
1.9724801 -0.57463598 2.4496601
1.9686099 -0.58961499 2.44732
1.95127 -0.60063499 2.4525299
1.93969 -0.61210603 2.45383
1.9371001 -0.62326598 2.4534998
1.9429801 -0.63948101 2.4494801
1.94379 -0.655581 2.4478998
1.95152 -0.67444503 2.4458399
1.9368601 -0.47057498 2.4517798
1.97229 -0.57612801 2.44045
1.97044 -0.590128 2.43821
1.9524499 -0.59986997 2.44365
1.9483501 -0.61283898 2.4450901
1.94242 -0.62562299 2.4451799
1.94542 -0.64280504 2.44296
1.95425 -0.662193 2.4399002
1.95123 -0.67648906 2.43976
1.9249899 -0.45662498 2.4498301
1.92461 -0.46794799 2.44874
1.9744501 -0.564928 2.43327
1.97473 -0.57920504 2.4312398
1.9711 -0.59066302 2.431
1.9601401 -0.60080796 2.43292
1.95032 -0.613168 2.4367599
1.9405299 -0.62425399 2.4383299
1.9530901 -0.67781901 2.43262
1.91847 -0.45334202 2.44484
1.925 -0.46808898 2.44157
1.93749 -0.48522499 2.43695
1.97752 -0.56755501 2.4221499
1.97033 -0.57628101 2.42432
1.9663299 -0.589652 2.4249001
1.9605 -0.60124898 2.4251299
1.9523599 -0.610991 2.4272399
1.9209 -0.44439498 2.4376299
1.92522 -0.45625401 2.4356501
1.9246601 -0.468788 2.43277
1.9183999 -0.48042098 2.4342699
1.92974 -0.494735 2.4309301
1.97357 -0.57746702 2.4151599
1.96532 -0.58719397 2.4174001
1.96049 -0.60027999 2.41747
