# .PCD v0.7 - Point Cloud Data file format
VERSION 0.7
FIELDS x y z
SIZE 4 4 4
TYPE F F F
COUNT 1 1 1
WIDTH 99
HEIGHT 1
VIEWPOINT 0 0 0 1 0 0 0
POINTS 99
DATA ascii
2.1115801 -0.82588696 4.2207298
2.1167099 -0.81484002 4.2213302
2.1238601 -0.80141294 4.2247
2.1211801 -0.82786202 4.21275
2.1224201 -0.81601995 4.2099299
2.1310101 -0.80333704 4.2126498
2.14045 -0.79118896 4.2184696
2.13201 -0.829835 4.2058396
2.13344 -0.81776297 4.2041597
2.13973 -0.80481601 4.2044697
2.1446002 -0.79088098 4.2027898
2.1567299 -0.78140098 4.2114501
2.1472502 -0.80627096 4.1965899
2.15329 -0.79195297 4.1933999
2.1623499 -0.78002405 4.1960597
2.1578 -0.80554998 4.1891699
2.1661201 -0.79261804 4.18958
2.1694 -0.77863199 4.1849599
2.17506 -0.76434499 4.18257
2.17276 -0.79145896 4.18014
2.17607 -0.77706003 4.17524
2.1824698 -0.77732104 4.1654496
2.1884301 -0.76480401 4.1616302
2.19065 -0.77713203 4.15452
2.20151 -0.76650804 4.15767
2.2040701 -0.77866399 4.1515799
2.21648 -0.76709604 4.1554999
2.22435 -0.753416 4.1575499
2.2333999 -0.75356793 4.1496
2.2346299 -0.73866498 4.1437602
2.2395899 -0.73813903 4.1327
2.2428401 -0.736265 4.1151199
2.2455702 -0.724392 4.1118703
2.2442999 -0.73471606 4.0984502
2.2459199 -0.722341 4.0968599
2.2592001 -0.73880899 4.098
2.1049001 -0.82530403 4.2278299
2.1082299 -0.81387496 4.2277398
2.1148598 -0.82861501 4.2213802
2.1139901 -0.81527197 4.21593
2.12237 -0.80253601 4.2178602
2.13326 -0.79056603 4.2209301
2.1252999 -0.81781197 4.2103701
2.12942 -0.80416495 4.20754
2.13626 -0.78936499 4.2077599
2.15659 -0.78040701 4.2202396
2.1427801 -0.80839103 4.2023602
2.1449499 -0.793621 4.20048
2.1514599 -0.77717 4.1988902
2.1461 -0.81998199 4.1886997
2.15063 -0.81013495 4.1911201
2.1559801 -0.79667002 4.1931801
2.15832 -0.77664298 4.1858397
2.1755099 -0.76286596 4.1937599
2.1612699 -0.81225801 4.1880598
2.15994 -0.79259801 4.1779599
2.1742001 -0.77938104 4.18156
2.18009 -0.76343501 4.17939
2.17783 -0.781654 4.1702499
2.1897001 -0.769364 4.17205
2.1928399 -0.782758 4.1645598
2.2011399 -0.770796 4.1638699
2.20259 -0.76940298 4.1507902
2.2137699 -0.75869298 4.1549397
2.22802 -0.76189399 4.1522002
2.22978 -0.74595702 4.1491499
2.2393801 -0.72990799 4.1491599
2.2374401 -0.74613899 4.1360998
2.2435801 -0.758753 4.1265502
2.2430201 -0.74571699 4.12286
2.2405701 -0.74216402 4.1045003
2.25669 -0.73359102 4.11338
2.2613599 -0.739856 4.1114202
2.2474699 -0.736166 4.1122198
2.24631 -0.74647599 4.1176701
2.1136501 -0.80113101 4.1937099
2.11639 -0.79098898 4.1988802
2.1158299 -0.81089598 4.18187
2.1225998 -0.80123001 4.1883202
2.12309 -0.78953797 4.1895199
2.1372302 -0.80972099 4.18857
2.13328 -0.79852098 4.1834202
2.1315801 -0.78649801 4.1811399
2.1378 -0.77668101 4.1891198
2.1456499 -0.79681802 4.1786499
2.1421001 -0.78610802 4.1770897
2.1438 -0.77489996 4.1784
2.1554999 -0.79531598 4.1678901
2.1545701 -0.78383201 4.1709599
2.1503999 -0.77222395 4.16679
2.17153 -0.79414099 4.1690602
2.1667199 -0.78310698 4.1648998
2.1712601 -0.76738703 4.1689301
2.1705599 -0.79234296 4.1554899
2.17627 -0.77856904 4.15907
2.2078199 -0.75906199 4.15487
2.2193899 -0.75633103 4.1473899
2.21966 -0.75475198 4.1280198
2.2329299 -0.75338095 4.1248403
