# .PCD v0.7 - Point Cloud Data file format
VERSION 0.7
FIELDS x y z
SIZE 4 4 4
TYPE F F F
COUNT 1 1 1
WIDTH 474
HEIGHT 1
VIEWPOINT 0 0 0 1 0 0 0
POINTS 474
DATA ascii
1.8834701 -0.27667701 0.58906496
1.85121 -0.35342097 0.63929701
1.85 -0.34265399 0.63930798
1.87207 -0.33432597 0.62720197
1.86888 -0.32933199 0.61027598
1.81856 -0.332537 0.60749197
1.85814 -0.32704601 0.60468698
1.84483 -0.311995 0.60680395
1.8553101 -0.29876399 0.60467196
1.82858 -0.33810502 0.59895098
1.8337101 -0.32348099 0.60037798
1.82898 -0.310078 0.60248202
1.83109 -0.29939899 0.60229599
1.8331701 -0.34242198 0.59118396
1.82647 -0.325091 0.592861
1.82828 -0.31016999 0.59448701
1.81947 -0.29743701 0.59719396
1.8860201 -0.27695999 0.58239496
1.8326401 -0.34027901 0.58304602
1.81542 -0.32193002 0.58764601
1.82797 -0.31158102 0.584777
1.81959 -0.29782802 0.589284
1.8794999 -0.28425699 0.57463896
1.83754 -0.34192699 0.57270497
1.8229401 -0.32338199 0.57831198
1.83926 -0.31336001 0.57256299
1.82039 -0.29853901 0.58014399
1.87529 -0.2836 0.56573999
1.84795 -0.34396303 0.56127596
1.8428501 -0.32798901 0.56437397
1.82366 -0.297369 0.57043397
1.8669 -0.284354 0.55831999
1.83 -0.29147199 0.55973798
1.86 -0.28440499 0.55202299
1.8832099 -0.27673599 0.54891598
1.8248199 -0.29005501 0.55118197
1.85127 -0.28343001 0.54605395
1.87731 -0.277004 0.54114497
1.82737 -0.294092 0.54130495
1.8284 -0.283535 0.54244
1.85203 -0.314502 0.52619195
1.82612 -0.29413602 0.53387398
1.82147 -0.28241101 0.53514796
1.83516 -0.30799699 0.52234298
1.82517 -0.29259801 0.52562398
1.8114901 -0.27979901 0.52998996
1.8414999 -0.312316 0.51228499
1.83103 -0.29707101 0.515369
1.82146 -0.28271401 0.51854795
1.8407401 -0.31034401 0.50424296
1.8221 -0.29303801 0.50884402
1.82145 -0.28248399 0.50968999
1.8355701 -0.30605102 0.49774697
1.81041 -0.289662 0.504471
1.81945 -0.28210101 0.50167799
1.80679 -0.28787699 0.49823299
1.8165401 -0.28065398 0.49311298
1.80656 -0.28574401 0.48877797
1.81958 -0.28076801 0.48320198
1.8923801 -0.27329999 0.46308899
1.80413 -0.284904 0.48168001
1.8212399 -0.280765 0.47612
1.89105 -0.27468801 0.453942
1.90381 -0.26867101 0.44929397
1.7982601 -0.283898 0.47747698
1.86824 -0.27980199 0.45189297
1.88916 -0.275166 0.445272
1.87649 -0.28231898 0.44105899
1.89008 -0.27576599 0.435877
1.90521 -0.26903498 0.429912
1.88696 -0.28476998 0.42865798
1.89625 -0.27695 0.42457297
1.9035201 -0.26738501 0.42131197
1.8878 -0.28519499 0.41858998
1.8968201 -0.275915 0.414884
1.88853 -0.28691602 0.406905
1.89808 -0.27513099 0.40516999
1.8538499 -0.292371 0.40841401
1.87762 -0.28787902 0.40055397
1.88972 -0.27729902 0.39830697
1.90766 -0.267573 0.39316598
1.84927 -0.29387 0.40054101
1.8750501 -0.28540599 0.39338601
1.89369 -0.27434799 0.38804397
1.8195701 -0.29907599 0.40268195
1.8263 -0.29188699 0.40103096
1.8385201 -0.28359899 0.39847198
1.89228 -0.27315199 0.380588
1.9099801 -0.26643801 0.37516394
1.9112601 -0.257364 0.37506998
1.8199201 -0.299992 0.39650002
1.81668 -0.28122801 0.39973199
1.8932401 -0.272291 0.37365097
1.90617 -0.265912 0.36995202
1.8671001 -0.339416 0.62918097
1.85937 -0.33801898 0.62172097
1.84711 -0.335637 0.61510599
1.8666999 -0.328583 0.61454797
1.82163 -0.33894402 0.612459
1.8370799 -0.333489 0.60899997
1.8533299 -0.32460999 0.60844797
1.85411 -0.308988 0.60704398
1.8270301 -0.340451 0.60359097
1.83073 -0.33078802 0.60260695
1.8458501 -0.32247502 0.60134196
1.82979 -0.302717 0.60382497
1.86569 -0.297095 0.59750497
1.8230001 -0.32779998 0.59643096
1.83729 -0.319823 0.59465897
1.8193899 -0.30065501 0.59801596
1.8532001 -0.29479301 0.59146398
1.8235899 -0.32709 0.58755797
1.82916 -0.316535 0.58673495
1.81549 -0.29799199 0.59104598
1.86586 -0.29111099 0.58166498
1.83061 -0.32919702 0.57763797
1.8354499 -0.31925601 0.57493198
1.81344 -0.29806998 0.58287001
1.82915 -0.29210699 0.58006299
1.84532 -0.33832002 0.56495696
1.80934 -0.29544699 0.57527494
1.82412 -0.29059699 0.57327199
1.80662 -0.29209 0.56786299
1.81489 -0.28650498 0.56612498
1.81007 -0.293183 0.55858898
1.8161099 -0.287229 0.55588996
1.81979 -0.29870501 0.54634899
1.8077 -0.286284 0.549707
1.83139 -0.327701 0.52936697
1.84886 -0.32210201 0.52906597
1.82935 -0.30458 0.53455997
1.8217999 -0.32438901 0.52502298
1.8363099 -0.318957 0.522282
1.8274499 -0.305841 0.52571398
1.8837199 -0.28063601 0.51362598
1.8290801 -0.32610101 0.51618201
1.83241 -0.31762698 0.51518798
1.8281599 -0.30726498 0.51681799
1.8288901 -0.31565601 0.50948197
1.8227299 -0.30460799 0.51126599
1.8261 -0.31422198 0.50382298
1.8908701 -0.283191 0.45424697
1.88756 -0.284706 0.44549197
1.89468 -0.27461299 0.44576398
1.8680701 -0.290425 0.44271499
1.8860099 -0.28472 0.43787196
1.882 -0.29513702 0.42973
1.8911099 -0.28621399 0.42659298
1.89825 -0.27468699 0.42476195
1.8826801 -0.29735002 0.418172
1.87252 -0.30727699 0.411529
1.88039 -0.30011901 0.40894899
1.88774 -0.28829101 0.40846497
1.8803301 -0.31009001 0.40111199
1.87932 -0.297732 0.40085998
1.8917199 -0.28536302 0.39844796
1.90446 -0.27290401 0.39587501
1.8694299 -0.305603 0.39729798
1.8611901 -0.29133302 0.398938
1.8903301 -0.28718999 0.38961396
1.89457 -0.27430701 0.39061898
1.88003 -0.28371701 0.38605201
1.89169 -0.27502799 0.38389701
1.8548599 -0.334575 0.63675296
1.8696899 -0.32860297 0.635777
1.8429899 -0.33020902 0.63134998
1.8653799 -0.32704699 0.627657
1.86566 -0.32773 0.61936998
1.8539901 -0.32204899 0.61275399
1.8461701 -0.306032 0.61340296
1.8205099 -0.31316501 0.61077696
1.82398 -0.30292201 0.60895497
1.81011 -0.31924802 0.60343099
1.81101 -0.308337 0.60443097
1.81047 -0.29793301 0.60370195
1.87545 -0.29450899 0.59030199
1.8188699 -0.32319501 0.59089494
1.8071201 -0.30721399 0.59622198
1.8017999 -0.29489002 0.59781998
1.88 -0.283977 0.58211398
1.8194001 -0.32418999 0.58231795
1.8072301 -0.30901301 0.58677697
1.79996 -0.29513001 0.58959597
1.86603 -0.29263002 0.57497001
1.87543 -0.28526399 0.57357097
1.88843 -0.27494401 0.57149595
1.81441 -0.32050499 0.57546997
1.80704 -0.30733401 0.57878995
1.79381 -0.29184401 0.58161098
1.8682899 -0.29266101 0.56645894
1.87731 -0.28350401 0.56408197
1.81107 -0.31962299 0.56874299
1.80768 -0.307347 0.57080001
1.78795 -0.289397 0.57639199
1.8685601 -0.29066601 0.556463
1.81735 -0.31260401 0.56202
1.78862 -0.28946599 0.57084
1.86244 -0.288122 0.54872298
1.8828399 -0.28295201 0.52619398
1.88465 -0.28252801 0.51709002
1.8854201 -0.28353101 0.505777
1.8531799 -0.28518102 0.50518298
1.87809 -0.28474301 0.49809897
1.89257 -0.27610999 0.49582997
1.85575 -0.28728101 0.49647
1.88174 -0.28568301 0.48878399
1.89408 -0.27569401 0.48617199
1.86203 -0.28953302 0.485818
1.88229 -0.285153 0.47945797
1.8931799 -0.27517098 0.47670597
1.86483 -0.290571 0.47562897
1.88056 -0.28454399 0.47057796
1.89589 -0.276135 0.46642599
1.87149 -0.29364902 0.46383098
1.8828501 -0.28578401 0.46020398
1.8951 -0.27566999 0.45709097
1.8789001 -0.29840401 0.45059997
1.88713 -0.28781602 0.44902298
1.87714 -0.29946199 0.44147098
1.88772 -0.28832501 0.439026
1.89522 -0.27636001 0.43702698
1.8689799 -0.308752 0.43412399
1.8804201 -0.30095199 0.43071899
1.88463 -0.286984 0.43065196
1.89265 -0.27664399 0.42905799
1.89972 -0.26768699 0.42966396
1.8736501 -0.312278 0.42106998
1.8755499 -0.29830301 0.42318699
1.8906599 -0.28881902 0.42078999
1.8530499 -0.317615 0.41776097
1.87312 -0.315052 0.412379
1.8739901 -0.30263001 0.41447493
1.87477 -0.28729901 0.41770297
1.8749601 -0.326805 0.40389296
1.85943 -0.30990201 0.41103402
1.8600501 -0.297135 0.41332099
1.8686099 -0.32149699 0.64335406
1.8639599 -0.31872299 0.63455701
1.8672999 -0.3202 0.62363398
1.8481799 -0.312332 0.61787802
1.82936 -0.30824602 0.612046
1.8502499 -0.301774 0.61050099
1.83232 -0.33983099 0.59961498
1.83349 -0.327618 0.60099697
1.81479 -0.30499801 0.60694796
1.83515 -0.297921 0.604487
1.86243 -0.29264501 0.60006797
1.8241099 -0.335922 0.59523797
1.81194 -0.317911 0.59878099
1.81153 -0.30139601 0.59964895
1.8417599 -0.29607099 0.59472698
1.86437 -0.28862301 0.59099197
1.8172301 -0.33268699 0.588862
1.79972 -0.31263599 0.59282202
1.78467 -0.29452899 0.59605199
1.83338 -0.29285699 0.58845198
1.8562 -0.288324 0.58351302
1.8748699 -0.27942199 0.58100694
1.80581 -0.327086 0.58232397
1.7889501 -0.307935 0.58620501
1.7755499 -0.29065201 0.58953595
1.83878 -0.29141 0.577645
1.8659101 -0.29008499 0.57256496
1.7920899 -0.319857 0.575849
1.785 -0.30535299 0.57839298
1.7677001 -0.286733 0.58367997
1.8385299 -0.29051599 0.56812495
1.86501 -0.290025 0.56232697
1.79713 -0.32169497 0.56593001
1.7836701 -0.305446 0.57093197
1.7729601 -0.28895301 0.57402301
1.84281 -0.291888 0.55776
1.86808 -0.29118201 0.55139697
1.8590699 -0.274234 0.55527395
1.78026 -0.30170301 0.56351
1.76849 -0.284592 0.56521297
1.83767 -0.28858802 0.55053097
1.86418 -0.290176 0.54463899
1.87062 -0.27884799 0.543212
1.89029 -0.26962399 0.53758395
1.78108 -0.27821198 0.55332398
1.8597901 -0.28548202 0.53674501
1.88472 -0.280316 0.53034496
1.89522 -0.269876 0.52863002
1.90468 -0.26030502 0.52707696
1.9105499 -0.250074 0.52655196
1.77337 -0.274203 0.54787296
1.85914 -0.28444701 0.52731997
1.88071 -0.281308 0.52205801
1.89692 -0.270356 0.51908296
1.77643 -0.27608901 0.53954101
1.8650999 -0.28634799 0.51663297
1.88457 -0.281196 0.51087195
1.8920701 -0.2685 0.51087594
1.86358 -0.28712901 0.50636899
1.8802201 -0.28175101 0.50181395
1.8931301 -0.26981199 0.50114
1.83201 -0.28625098 0.50653696
1.8618201 -0.28785199 0.49783897
1.88266 -0.28045401 0.49204999
1.89789 -0.269245 0.49040496
1.91031 -0.26162601 0.48881698
1.83006 -0.28598899 0.50084299
1.86611 -0.288816 0.486148
1.88035 -0.280527 0.48230797
1.89013 -0.269447 0.48335597
1.9065601 -0.26276898 0.47953698
1.86935 -0.29146001 0.47557598
1.8863001 -0.283131 0.47066098
1.89222 -0.27008101 0.47343999
1.90513 -0.26243499 0.46910501
1.85144 -0.29602 0.47200099
1.8708299 -0.292676 0.46563998
1.8864 -0.28395098 0.46128997
1.8930701 -0.26972201 0.46355298
1.86563 -0.303449 0.45779899
1.88036 -0.29800901 0.45292896
1.8873 -0.287029 0.45259199
1.8900599 -0.27142099 0.456406
1.9068201 -0.26418698 0.45395699
1.8680201 -0.306099 0.44614998
1.8733901 -0.297968 0.44541699
1.86606 -0.30728701 0.43836698
1.8632001 -0.29665899 0.44042796
1.79037 -0.28935701 0.43791297
1.7878799 -0.291953 0.43194699
1.8478501 -0.29328901 0.40489998
1.83065 -0.29012001 0.40897599
1.79202 -0.29378 0.421395
1.86358 -0.30508199 0.39348397
1.83899 -0.30025601 0.40072396
1.82398 -0.293715 0.40340599
1.77982 -0.298599 0.41689599
1.77832 -0.287036 0.41441697
1.86825 -0.30667102 0.38453996
1.84097 -0.30112302 0.39086899
1.81732 -0.29766899 0.39678398
1.8006799 -0.29072902 0.40094003
1.7909399 -0.283483 0.40197495
1.885 -0.31289399 0.37117797
1.85118 -0.311304 0.38005698
1.83855 -0.30173099 0.38218299
1.8221899 -0.294348 0.38567793
1.7913001 -0.297719 0.39554498
1.88002 -0.31504199 0.36195296
1.86597 -0.30486798 0.365738
1.83599 -0.30274299 0.37402397
1.81531 -0.298612 0.37777099
1.8090301 -0.28904498 0.37986001
1.87046 -0.307026 0.35580596
1.85286 -0.297057 0.36087197
1.82865 -0.291639 0.36619499
1.80042 -0.295412 0.37443793
1.8016901 -0.305967 0.36908996
1.76143 -0.29295501 0.58082497
1.76934 -0.275841 0.56359094
1.76482 -0.27634701 0.55546999
1.83421 -0.28815001 0.41758198
1.80909 -0.289442 0.42407399
1.7727901 -0.29176199 0.43473798
1.8218601 -0.294249 0.41485599
1.80237 -0.29108998 0.41866198
1.7725799 -0.29108 0.42703795
1.87896 -0.309737 0.390598
1.8541 -0.30110902 0.394196
1.8240199 -0.295618 0.40465599
1.80198 -0.29197201 0.41094598
1.7797199 -0.289296 0.41784495
1.8855499 -0.32178798 0.38202995
1.8689101 -0.31061101 0.38419801
1.85153 -0.30236199 0.38718101
1.8397701 -0.29203799 0.38978997
1.8214101 -0.28714702 0.39607894
1.7716299 -0.29310599 0.41459298
1.8793499 -0.32088101 0.37273499
1.86106 -0.31072101 0.37726393
1.84763 -0.30041301 0.38007095
1.82593 -0.29820201 0.38613197
1.8295399 -0.28481001 0.38338295
1.8733901 -0.30763599 0.36411399
1.84619 -0.30333999 0.37235299
1.8298301 -0.29609001 0.376847
1.8277 -0.28511399 0.37468201
1.86552 -0.29655501 0.35847199
1.83741 -0.292869 0.36669099
1.82987 -0.283503 0.36695701
1.7983999 -0.28518802 0.43342498
1.81371 -0.29283398 0.42051497
1.7911099 -0.28962201 0.42871898
1.7768401 -0.283075 0.43242198
1.8419099 -0.300102 0.403629
1.81278 -0.29691201 0.41316301
1.7995399 -0.28866699 0.41806599
1.7803 -0.28386298 0.424418
1.8779601 -0.30216601 0.38778999
1.84052 -0.30144399 0.39715096
1.82067 -0.29561198 0.40303901
1.80655 -0.287552 0.40745994
1.78842 -0.28186598 0.41389099
1.88405 -0.32099497 0.37854797
1.87729 -0.30543602 0.37820703
1.8478799 -0.30060199 0.38679901
1.82661 -0.293742 0.39276597
1.8133999 -0.28601801 0.39709595
1.79418 -0.28285199 0.40312096
1.88485 -0.31645399 0.36757895
1.87212 -0.306227 0.37107599
1.8531599 -0.300275 0.37625
1.8344001 -0.29194099 0.38032502
1.82517 -0.28145599 0.38441399
1.87293 -0.30356899 0.36291
1.8376801 -0.30321199 0.37329498
1.84172 -0.287489 0.36892602
1.82172 -0.28470901 0.37533799
1.84427 -0.29832599 0.36419296
1.8336 -0.28947601 0.36550996
1.81226 -0.28836 0.37186798
1.87828 -0.294889 0.38850898
1.81329 -0.29857999 0.40458801
1.88763 -0.30478501 0.37835395
1.86147 -0.29866201 0.38436499
1.8372301 -0.292301 0.39092299
1.80787 -0.29152301 0.39970398
1.8829601 -0.303579 0.369077
1.84841 -0.29917499 0.38033798
1.8297501 -0.293562 0.38598099
1.8203399 -0.28735501 0.38803497
1.88998 -0.30199301 0.35644698
1.85515 -0.29850501 0.36931595
1.83349 -0.29217899 0.37689301
1.8091099 -0.291215 0.38256499
1.8671401 -0.29700801 0.35655099
1.8270301 -0.29466102 0.370951
1.80521 -0.29141599 0.37677896
1.80128 -0.30193999 0.373748
1.83217 -0.311474 0.638533
1.84518 -0.317076 0.62835598
1.82312 -0.312543 0.63277298
1.8703301 -0.32256499 0.615749
1.8405 -0.31707898 0.62065899
1.8283401 -0.30901399 0.62334198
1.8430499 -0.31834102 0.61333597
1.8322001 -0.306685 0.61389899
1.81275 -0.29910401 0.61740994
1.8070101 -0.28603101 0.61562896
1.84123 -0.317588 0.60514295
1.8317599 -0.30464 0.60530198
1.80829 -0.29717198 0.61065096
1.7989399 -0.28632 0.61102998
1.80873 -0.273929 0.60821295
1.8385201 -0.31830001 0.59803897
1.83013 -0.30785802 0.59838301
1.81591 -0.29664901 0.60103297
1.79847 -0.28734899 0.605151
1.79344 -0.277587 0.604644
1.8373599 -0.31599301 0.59004301
1.8375701 -0.305857 0.58810598
1.79347 -0.28628901 0.59824497
1.78579 -0.27627099 0.59644699
1.85356 -0.31422502 0.57757497
1.85774 -0.30259401 0.57393998
1.7894599 -0.282536 0.58912599
1.7792 -0.276452 0.590123
1.78056 -0.26745999 0.58950597
1.8745199 -0.29806101 0.56095201
1.79563 -0.27916598 0.57969099
1.7803799 -0.275554 0.58330595
1.7735699 -0.26864401 0.58382696
1.7682201 -0.277715 0.57797796
1.7697501 -0.275543 0.56774801
1.77008 -0.27496099 0.55887496
1.78074 -0.27107701 0.54794496
1.76809 -0.26810101 0.552701
1.7871801 -0.26919901 0.53997797
