# .PCD v0.7 - Point Cloud Data file format
VERSION 0.7
FIELDS x y z
SIZE 4 4 4
TYPE F F F
COUNT 1 1 1
WIDTH 91
HEIGHT 1
VIEWPOINT 0 0 0 1 0 0 0
POINTS 91
DATA ascii
1.93858 -0.53338504 1.510941
1.95198 -0.52091599 1.505595
1.93841 -0.51899797 1.496248
1.9445 -0.51590598 1.490644
1.94538 -0.54456699 1.5111721
1.95013 -0.53258902 1.509594
1.94318 -0.51306403 1.5043919
1.9382401 -0.52253103 1.499716
1.93168 -0.50591302 1.495146
1.9338901 -0.493395 1.49264
1.93156 -0.503142 1.48821
1.9338499 -0.489627 1.4851899
1.93988 -0.50189203 1.481714
1.98121 -0.53039098 1.502159
1.98492 -0.519023 1.496335
1.91216 -0.510858 1.507244
1.9377 -0.51102102 1.511665
1.91345 -0.51330698 1.501395
1.9173501 -0.50042599 1.501037
1.9258901 -0.49040002 1.499944
1.90862 -0.51212102 1.494046
1.9216 -0.50006503 1.4939951
1.91521 -0.45703602 1.4894561
1.92302 -0.48033902 1.5091369
1.9263901 -0.50802898 1.5051579
1.9292301 -0.493669 1.502216
1.90343 -0.48930401 1.504254
1.91462 -0.469091 1.500929
1.9176199 -0.45349398 1.498338
1.9115199 -0.46895599 1.492836
1.9033799 -0.47336102 1.4885581
1.91011 -0.45706403 1.485375
1.93832 -0.50177598 1.504142
1.91248 -0.49888098 1.509007
1.91477 -0.51325202 1.503677
1.91625 -0.47316602 1.4780631
1.91608 -0.46175399 1.476812
1.91962 -0.469993 1.468895
1.91553 -0.45825499 1.4677899
1.9081199 -0.46190101 1.463752
1.9103799 -0.44718897 1.4604989
1.90521 -0.49849302 1.500919
1.9240199 -0.48098901 1.496074
1.91563 -0.48420298 1.489828
1.9013801 -0.49953499 1.4883859
1.91877 -0.48225102 1.4796981
1.92388 -0.47921503 1.469395
1.8992701 -0.46069801 1.4520979
1.9331 -0.49146703 1.4876469
1.9234599 -0.50423998 1.4831411
1.9276601 -0.494077 1.481101
1.92582 -0.481958 1.480388
1.93022 -0.49146599 1.471458
1.90825 -0.50875002 1.4927369
1.92608 -0.49098098 1.488465
1.90368 -0.510342 1.487159
1.9231399 -0.49043399 1.479319
1.92022 -0.47557399 1.478653
1.91624 -0.50401902 1.474494
1.9265 -0.48820499 1.468496
1.91923 -0.47796002 1.471441
1.93284 -0.486673 1.4570621
1.9284199 -0.49613097 1.450462
1.9712801 -0.52232301 1.5087039
1.9730499 -0.52367401 1.5011721
1.9702001 -0.52328604 1.4922299
1.9695599 -0.51372099 1.4834321
1.98032 -0.52612501 1.4874561
1.9791499 -0.51670396 1.480365
1.94582 -0.513794 1.526493
1.9429201 -0.51455802 1.517091
1.9447099 -0.513852 1.509353
1.93118 -0.52290899 1.51582
1.92855 -0.531977 1.508056
1.9312199 -0.51901501 1.508863
1.94279 -0.51072198 1.5047791
1.94199 -0.53462297 1.5266831
1.9464999 -0.53213298 1.523273
1.9440401 -0.521887 1.5228161
1.9489399 -0.53021598 1.518139
1.9546001 -0.51476198 1.5191809
1.94639 -0.52310699 1.511519
1.9233501 -0.52147001 1.507742
1.9531 -0.50936198 1.506978
1.92002 -0.51569903 1.515221
1.9369701 -0.53682303 1.512489
1.9322799 -0.52421302 1.511324
1.93173 -0.50967497 1.5117129
1.9581399 -0.51803201 1.5105209
1.9397501 -0.508039 1.50612
1.9472301 -0.50351399 1.499431
