# .PCD v0.7 - Point Cloud Data file format
VERSION 0.7
FIELDS x y z
SIZE 4 4 4
TYPE F F F
COUNT 1 1 1
WIDTH 75
HEIGHT 1
VIEWPOINT 0 0 0 1 0 0 0
POINTS 75
DATA ascii
1.94028 -0.418203 0.62166494
1.9349899 -0.404677 0.62068599
1.93968 -0.40009499 0.61282098
1.9605701 -0.38673601 0.60003495
1.94478 -0.398388 0.63278198
1.94291 -0.38941503 0.62665796
1.9444299 -0.39714298 0.62680799
1.9516001 -0.38840303 0.62026495
1.94075 -0.393951 0.61789697
1.94696 -0.38529998 0.61134195
1.9477699 -0.39502603 0.61076397
1.9467701 -0.38567102 0.603921
1.9349999 -0.392037 0.60074401
1.9353 -0.39171001 0.59328097
1.9418499 -0.39341098 0.58604199
1.94608 -0.38527501 0.57809299
1.9383 -0.39621201 0.576792
1.93595 -0.396106 0.56895399
1.9523399 -0.384902 0.56432897
1.94112 -0.39549401 0.562114
1.9188 -0.40329701 0.55876797
1.94841 -0.385398 0.55552298
1.93898 -0.39705002 0.55415702
1.92252 -0.40282002 0.54951799
1.96038 -0.38682097 0.54973102
1.93938 -0.39571097 0.54571402
1.92384 -0.402706 0.54096299
1.95349 -0.38745898 0.54001296
1.9351801 -0.39634103 0.536569
1.92026 -0.40256199 0.53215599
1.95813 -0.38914397 0.53197402
1.93645 -0.39595699 0.528503
1.91982 -0.401777 0.52480394
1.9540199 -0.38937402 0.52302897
1.9425701 -0.395592 0.521052
1.92221 -0.40062198 0.51784396
1.95328 -0.39042801 0.51558995
1.9366299 -0.39443699 0.511621
1.9556 -0.39078 0.50885195
1.9349999 -0.39333698 0.50397497
1.9362199 -0.39373901 0.49882099
1.94367 -0.40179199 0.60776198
1.9540401 -0.39389899 0.60376
1.94101 -0.40084302 0.60153002
1.96206 -0.38225898 0.598598
1.94947 -0.393251 0.59649098
1.9375399 -0.400563 0.59364599
1.94595 -0.39351898 0.58826101
1.9337801 -0.39996898 0.58481902
1.94749 -0.392474 0.58017498
1.93177 -0.399225 0.57672602
1.9427201 -0.39203301 0.57120997
1.93793 -0.40012798 0.56889701
1.94586 -0.39062899 0.56311494
1.93199 -0.39836299 0.55893594
1.9442199 -0.39205602 0.55320895
1.9280499 -0.399001 0.54964602
1.94438 -0.39205602 0.545403
1.92994 -0.399243 0.54295599
1.9639 -0.38333303 0.54029596
1.94424 -0.391554 0.53726399
1.92381 -0.39856601 0.53439999
1.94433 -0.39159599 0.52916795
1.93214 -0.399077 0.527628
1.96877 -0.38623601 0.52468199
1.9502499 -0.39305401 0.52284896
1.93279 -0.39813399 0.51789898
1.97949 -0.38826099 0.51830596
1.95619 -0.39457801 0.514862
1.9296401 -0.396844 0.50889498
1.96807 -0.396606 0.50863695
1.94101 -0.40011501 0.50311399
1.9611099 -0.39679298 0.49888599
1.94109 -0.400291 0.49487498
1.94804 -0.40122601 0.48921499
