# .PCD v0.7 - Point Cloud Data file format
VERSION 0.7
FIELDS x y z
SIZE 4 4 4
TYPE F F F
COUNT 1 1 1
WIDTH 84
HEIGHT 1
VIEWPOINT 0 0 0 1 0 0 0
POINTS 84
DATA ascii
2.0527298 -0.45497298 2.8693702
2.0464301 -0.43795502 2.86711
2.0562801 -0.42873999 2.87047
2.0388401 -0.44875199 2.8566902
2.0415699 -0.43704399 2.8572602
2.0390699 -0.42487401 2.85464
2.04919 -0.45544201 2.8524899
2.03355 -0.435752 2.8461599
2.02758 -0.44562098 2.8381
2.0457001 -0.43507099 2.8914001
2.0329401 -0.44103298 2.8782098
2.03968 -0.42558202 2.8845201
2.0388699 -0.442415 2.8703899
2.0399699 -0.42712897 2.8759799
2.05338 -0.451244 2.86443
2.0379701 -0.44433603 2.8610601
2.0511901 -0.424813 2.8707502
2.0464101 -0.45548099 2.85216
2.03824 -0.44615799 2.8508201
2.0457602 -0.48637199 2.8324401
2.04655 -0.47076499 2.8381202
2.0454202 -0.457039 2.8419299
2.0323 -0.45120099 2.8375201
2.0490401 -0.489712 2.8245301
2.0476999 -0.47613499 2.8281298
2.04074 -0.46229303 2.8304901
2.05005 -0.44582 2.8367798
2.0627999 -0.49980801 2.81827
2.0534301 -0.489802 2.8183801
2.056 -0.474834 2.8233099
2.0897 -0.518291 2.8145301
2.08127 -0.50862402 2.8143299
2.0685101 -0.499145 2.81319
2.05182 -0.49241403 2.8099101
2.0678701 -0.51506501 2.8024499
2.0817101 -0.497895 2.8108499
2.0446899 -0.44777697 2.8965302
2.0475199 -0.43756402 2.8982
2.0417299 -0.44667301 2.88555
2.0262399 -0.44232601 2.88026
2.0532601 -0.44213 2.8802199
2.03174 -0.43631899 2.8736999
2.0413599 -0.44633901 2.8648798
2.0406501 -0.43282902 2.8680899
2.04634 -0.44816601 2.8559
2.04532 -0.43555301 2.8584602
2.0430601 -0.4772 2.83775
2.0395899 -0.46417198 2.84078
2.0437601 -0.45036399 2.8450501
2.0539799 -0.43519402 2.8505099
2.07812 -0.48459598 2.8391101
2.0530701 -0.47856301 2.8324599
2.0396099 -0.467103 2.8317699
2.0558701 -0.44763303 2.8411498
2.05948 -0.49097401 2.8238502
2.05248 -0.47892398 2.8255601
2.0478699 -0.46694198 2.8264899
2.07493 -0.51806498 2.8137701
2.0687799 -0.50621104 2.8143101
2.0756299 -0.49015999 2.8210299
2.0655601 -0.479159 2.8212399
2.06423 -0.51133001 2.8034799
2.0804501 -0.49248502 2.8140197
2.0733299 -0.50960803 2.7986999
2.0868499 -0.51107603 2.7821
2.04637 -0.45370999 2.8538299
2.0573499 -0.47265702 2.8474
2.03264 -0.46657699 2.8404498
2.03144 -0.458105 2.8413897
2.05968 -0.47496602 2.8390501
2.04357 -0.46676299 2.8364398
2.07459 -0.48618802 2.8334601
2.0480201 -0.47843498 2.8271601
2.04195 -0.46904999 2.8269699
2.0673699 -0.50147998 2.8206298
2.06478 -0.49272099 2.8205798
2.066 -0.47928298 2.8245699
2.05931 -0.46716598 2.8257
2.0820599 -0.51575297 2.8135602
2.0664999 -0.50638098 2.81071
2.0762899 -0.49297297 2.81686
2.06511 -0.50990701 2.8007002
2.06794 -0.51239401 2.7906101
2.0752299 -0.51229101 2.7844203
