# .PCD v0.7 - Point Cloud Data file format
VERSION 0.7
FIELDS x y z
SIZE 4 4 4
TYPE F F F
COUNT 1 1 1
WIDTH 949
HEIGHT 1
VIEWPOINT 0 0 0 1 0 0 0
POINTS 949
DATA ascii
1.99845 -0.329579 0.91400695
1.99476 -0.316881 0.90594697
1.99395 -0.33541301 0.90625799
1.9966099 -0.359622 0.90414202
1.99449 -0.31651101 0.896716
1.9981101 -0.33129299 0.89732498
1.99777 -0.34735698 0.89818102
2.00653 -0.354844 0.89508092
1.98125 -0.27716899 0.89007896
1.99201 -0.313115 0.88905001
2.00036 -0.32765201 0.88784194
2.0032799 -0.34346101 0.88895094
2.01354 -0.35160401 0.88594896
1.99084 -0.299595 0.88075995
1.99261 -0.315532 0.88078797
2.0027399 -0.32649502 0.87869501
2.0060201 -0.34179297 0.87868196
2.0139999 -0.35101601 0.87778902
1.9898801 -0.29873899 0.871566
1.9959599 -0.31348199 0.87110198
2.0060601 -0.32826599 0.87064195
2.0052001 -0.34266999 0.87037897
2.01423 -0.34989399 0.86947602
1.9990801 -0.29618901 0.86254698
2.0079699 -0.30843601 0.86136991
2.0086999 -0.32465598 0.86206198
2.0065899 -0.34112999 0.86274797
2.0197899 -0.34683499 0.85993093
2.00406 -0.28176901 0.855133
1.99641 -0.29560301 0.85481399
2.0057402 -0.30529401 0.85383195
2.01577 -0.31918502 0.85254699
2.02355 -0.33272597 0.85377502
2.0278399 -0.344053 0.85106301
2.0183098 -0.275462 0.84614199
2.0050001 -0.29212901 0.84715599
2.0148599 -0.30340701 0.84520292
2.0228701 -0.31681699 0.84297198
2.0260999 -0.331799 0.84471804
2.0489302 -0.33784303 0.84187895
2.00823 -0.29194099 0.83817899
2.01565 -0.30417499 0.83694792
2.0286999 -0.312727 0.83466291
2.0350101 -0.32820597 0.83462697
2.05404 -0.33709899 0.83381999
2.0033801 -0.294761 0.82898599
2.01858 -0.301283 0.82845199
2.03057 -0.31378701 0.82613999
2.0346999 -0.327865 0.82616895
2.0499899 -0.335419 0.82579499
2.0083899 -0.293722 0.82099593
2.02302 -0.300174 0.81912994
2.0367799 -0.31006399 0.81670702
2.04304 -0.32486698 0.81825304
2.05024 -0.33725798 0.81782198
2.0160699 -0.29077101 0.81248796
2.0544701 -0.333859 0.81032294
1.9968801 -0.30875701 0.85777998
1.98966 -0.30073401 0.85138899
2.0016201 -0.311959 0.84912091
1.99705 -0.301314 0.84285498
1.99854 -0.314549 0.84266394
2.03567 -0.32121101 0.84157199
1.99851 -0.30089 0.83435094
2.0078199 -0.312805 0.83579898
2.0234499 -0.32321301 0.83380502
2.05426 -0.33166698 0.83326697
1.99994 -0.27793199 0.82681
1.98428 -0.29044801 0.82806802
1.99694 -0.30080602 0.82645297
2.0101099 -0.312848 0.82719696
2.03778 -0.32285199 0.82616305
2.0525901 -0.33358699 0.82526296
1.9834599 -0.28979298 0.82045901
1.9960201 -0.29802001 0.81959897
2.0091801 -0.309385 0.81880194
2.02897 -0.32069999 0.81856298
2.04652 -0.33228698 0.81802094
1.9869 -0.29051599 0.81367296
2.0127401 -0.29767799 0.81224996
2.0376501 -0.30721399 0.81058997
2.0381799 -0.32306701 0.81043798
1.9953799 -0.29033399 0.807908
2.0262001 -0.325369 0.80221099
2.0460601 -0.333592 0.80238605
2.01808 -0.327755 0.79350698
2.02723 -0.33545798 0.79470694
2.00718 -0.33009601 0.786053
2.0226099 -0.33606398 0.78666598
2.0064399 -0.330789 0.77954203
2.0353 -0.33571202 0.77907097
2.0171599 -0.32960498 0.77383798
2.0343299 -0.33568698 0.77343094
2.0109 -0.33371899 1.0538983
2.0127201 -0.333754 1.0455077
2.0114799 -0.33391201 1.0346104
2.01193 -0.33262101 1.022988
2.0134599 -0.332537 1.0123229
2.0089998 -0.333327 0.99940521
2.0107501 -0.33233699 0.98957819
2.0118201 -0.33105499 0.98007286
2.00898 -0.331559 0.9680655
1.99874 -0.32184201 0.95355898
2.0057099 -0.33219898 0.95579648
2.0027099 -0.33255699 0.94316399
2.00243 -0.33234799 0.93155295
1.9922301 -0.30716199 0.92117602
1.9954 -0.323452 0.91716599
2.0058 -0.33086398 0.92150998
1.9951401 -0.305132 0.91152298
1.9986701 -0.318773 0.90950501
2.0056901 -0.331503 0.90789002
1.99222 -0.289233 0.90315092
1.99663 -0.30441001 0.90123498
2.0015402 -0.31991199 0.899822
2.00986 -0.331184 0.89792597
2.0339599 -0.33447701 0.90522695
1.9822 -0.275047 0.88982099
1.99049 -0.28981 0.89160597
2.0023301 -0.30127999 0.89296699
2.00421 -0.31793502 0.88912398
2.0222001 -0.32885101 0.89267594
2.03861 -0.33594298 0.89694494
2.06515 -0.33286098 0.90895599
1.98597 -0.27297002 0.88017297
1.99412 -0.285274 0.88276595
2.00069 -0.30119801 0.88102096
2.00578 -0.31603 0.87867999
2.0113099 -0.33014098 0.87661397
2.0362601 -0.33535099 0.88717192
2.06233 -0.335228 0.89914495
1.98195 -0.259956 0.87233102
1.98554 -0.27349401 0.86902803
1.9977499 -0.28491199 0.87282801
2.0085201 -0.29683301 0.87396193
2.0129099 -0.31222901 0.87092298
2.0039501 -0.33403 0.86109298
2.0093601 -0.34415698 0.86260396
2.0566099 -0.33755699 0.88871992
1.9911799 -0.25626498 0.86575598
1.9899299 -0.26862898 0.86278796
1.9968899 -0.28179801 0.86150694
2.01034 -0.29470301 0.86403793
2.0173299 -0.309302 0.86063993
2.0122001 -0.32786998 0.85504699
2.01279 -0.34082499 0.85354501
1.9962801 -0.26852801 0.85405099
2.0069399 -0.28094101 0.85447901
2.0224099 -0.291587 0.85771298
2.0293 -0.302975 0.85734999
2.0180099 -0.32241902 0.847296
2.02315 -0.33431 0.84664696
1.99766 -0.269858 0.84040803
2.0056701 -0.27816901 0.84365702
2.01601 -0.28946501 0.84439397
2.0308099 -0.30091399 0.84821594
2.02089 -0.32326198 0.83634698
2.03057 -0.33134103 0.83904493
1.9925901 -0.27238101 0.82685798
2.0067101 -0.27863002 0.83139396
2.0232999 -0.28934899 0.83621401
2.03283 -0.30115199 0.83799398
2.0130701 -0.32721698 0.81864899
2.02808 -0.33195999 0.82663202
2.003 -0.267755 0.82192099
2.0040901 -0.279697 0.81686294
2.0227499 -0.28590599 0.82589197
2.02788 -0.302389 0.82271993
2.01267 -0.32590401 0.80921799
2.02104 -0.33370498 0.81066895
2.00595 -0.266958 0.81043506
2.0037601 -0.28043401 0.80538201
2.0176499 -0.28881499 0.81164002
2.0266001 -0.30206001 0.80913401
2.0211999 -0.32068002 0.80425298
2.0420599 -0.323246 0.81036496
2.0053201 -0.278505 0.79598695
2.01279 -0.290676 0.79703093
2.01369 -0.30720198 0.78942299
2.0357101 -0.313761 0.799752
2.0162499 -0.288719 0.78608203
2.0180099 -0.304277 0.78160995
2.0346801 -0.31204 0.78682297
2.00371 -0.33342701 0.98810548
2.02616 -0.33509201 0.99672025
2.0023301 -0.33254799 0.97795516
2.0221899 -0.33570901 0.98567873
2.0018499 -0.32964697 0.94337493
2.0152199 -0.337136 0.92585999
1.99637 -0.318872 0.91097999
2.0005999 -0.33109799 0.90943599
2.01052 -0.339239 0.91346598
2.0017998 -0.31507701 0.903153
2.0003901 -0.33120301 0.89881599
2.00719 -0.34009302 0.89989394
1.98263 -0.28750402 0.89107794
1.9917301 -0.301256 0.89102197
2.0052001 -0.311809 0.893314
2.0071201 -0.32740399 0.89129293
2.0115199 -0.338227 0.89086097
1.98774 -0.28731301 0.88174599
1.99845 -0.29947901 0.88317901
2.0080099 -0.311562 0.88432002
2.00699 -0.32620701 0.87944901
2.0157299 -0.33526 0.881661
1.9786 -0.27537301 0.86965597
1.9933901 -0.287292 0.87296999
2.0071402 -0.297575 0.87748396
2.00717 -0.31210199 0.873097
2.0130799 -0.32431802 0.87220001
2.0187101 -0.33365101 0.87085998
1.9788699 -0.273141 0.85804796
1.9894 -0.284942 0.86042398
2.0081201 -0.29565799 0.86707395
2.0121601 -0.31077901 0.865466
2.0187399 -0.32165101 0.86415696
2.0268202 -0.32988998 0.86372894
1.96808 -0.26528299 0.84130502
1.97971 -0.272688 0.84690094
1.98972 -0.28222299 0.85067904
2.0022302 -0.29349199 0.85297602
2.0181599 -0.30558202 0.85791296
2.0253 -0.31839898 0.85658896
2.0308299 -0.32732201 0.85521698
1.9699899 -0.264406 0.83122897
1.9813901 -0.271786 0.83625001
1.9939901 -0.28292102 0.84073502
2.0157001 -0.292611 0.84814698
2.0217102 -0.306133 0.84849095
2.0262101 -0.31744701 0.84632093
2.0252399 -0.32880101 0.8422749
1.9813901 -0.271099 0.82511693
1.99666 -0.28036201 0.83015394
2.0129299 -0.291217 0.83583999
2.02529 -0.302946 0.84028596
2.0221 -0.31757298 0.83275497
2.00265 -0.33609599 0.81580997
1.98002 -0.27203101 0.81408995
1.9959599 -0.27943099 0.81782502
2.0132999 -0.28944001 0.82460999
2.02456 -0.301947 0.828789
2.02123 -0.31728399 0.81987703
1.9922501 -0.27036199 0.80796194
1.99836 -0.27929002 0.80827796
2.0084901 -0.28993601 0.80981994
2.02332 -0.301826 0.81616098
2.023 -0.31668401 0.808873
2.0076401 -0.33403301 0.79786897
2.0048301 -0.26704901 0.80413598
1.99963 -0.279502 0.79903704
2.0009599 -0.292988 0.79304296
2.0206599 -0.30266199 0.80197299
2.02665 -0.31498599 0.80106699
2.0327101 -0.32281503 0.801745
2.0000401 -0.28022599 0.78796196
2.00207 -0.291439 0.78296494
2.0160999 -0.30038899 0.78800994
2.02858 -0.311773 0.79226995
2.0021501 -0.28091601 0.77653098
2.0155201 -0.28775901 0.77983099
2.0104601 -0.33615503 1.0632089
2.0091 -0.335446 1.0196434
2.01317 -0.336339 0.99884462
2.0076699 -0.33705002 0.98678261
2.0341001 -0.33920801 0.99827468
2.0102401 -0.33520699 0.97759467
2.0334198 -0.33854902 0.99005097
2.00506 -0.32478499 0.96813172
2.0014999 -0.33578801 0.96222144
1.99677 -0.31005201 0.95770735
2.0002201 -0.323248 0.95572901
2.0053101 -0.33298302 0.95331198
2.0011501 -0.334815 0.94032598
2.0083098 -0.33207101 0.93435502
1.99597 -0.31097201 0.92200196
1.9996201 -0.32350799 0.92194903
2.0025599 -0.33390799 0.92104203
2.00175 -0.30819201 0.91427004
2.0018601 -0.32269999 0.91271698
2.00629 -0.33385602 0.91057199
1.9885401 -0.29532102 0.89929998
2.0022001 -0.30465001 0.90601999
2.0098801 -0.316569 0.90676898
2.00823 -0.3321 0.90191299
2.0318 -0.33640203 0.91016799
1.98101 -0.28328502 0.888376
1.9954 -0.29364902 0.89234102
2.0016201 -0.30552199 0.89541703
2.0073199 -0.31937099 0.893996
2.02005 -0.33006901 0.89622694
2.0339899 -0.33634701 0.90149498
1.99106 -0.29150701 0.88064301
2.00546 -0.30475199 0.88513494
2.0178599 -0.31730899 0.88902199
2.01913 -0.329063 0.885364
2.03441 -0.33513099 0.89136595
1.98233 -0.28099301 0.86787498
2.0014901 -0.29122901 0.87452298
2.01334 -0.30242202 0.87738198
2.01685 -0.315768 0.87858796
2.0232499 -0.32681 0.87766999
2.04511 -0.329963 0.88689893
1.99226 -0.28990802 0.85950994
2.01038 -0.299896 0.86599398
2.02247 -0.312399 0.87017196
2.03301 -0.32204202 0.87213194
1.9712199 -0.25888002 0.84271502
1.9894201 -0.278281 0.84953302
2.00578 -0.288827 0.85524201
2.0201299 -0.29998198 0.86005098
2.03146 -0.31034499 0.86395597
2.03619 -0.31823999 0.86242998
1.98738 -0.276409 0.83723801
2.0015402 -0.28674901 0.84339899
2.0168099 -0.296776 0.84820294
2.03233 -0.30682001 0.85383695
1.97258 -0.269732 0.82140398
1.9888099 -0.276537 0.82527399
2.00666 -0.285716 0.83462405
2.0268099 -0.29530501 0.84319997
2.03931 -0.30242902 0.84672797
1.9851401 -0.26690999 0.81576598
1.98629 -0.27644899 0.81436193
1.9951601 -0.28619599 0.81698
2.0290601 -0.29152399 0.83397895
1.99965 -0.26246101 0.81187195
1.99244 -0.27481499 0.80819792
2.00634 -0.28397101 0.81263
2.0008001 -0.27227199 0.80086499
2.00528 -0.281176 0.80089098
2.00352 -0.271258 0.790438
2.0052001 -0.279468 0.791071
2.00822 -0.278395 0.78122801
2.0033801 -0.32398602 0.97375524
2.00389 -0.33406898 0.97059804
2.0014 -0.323526 0.96303523
2.006 -0.33297002 0.9630363
1.99895 -0.319736 0.95279294
2.0090101 -0.330423 0.95741343
1.99406 -0.30509099 0.92823899
2.00774 -0.301911 0.92487901
1.9980999 -0.304584 0.90881801
1.99517 -0.29446501 0.899046
2.0037 -0.30497199 0.90049696
2.0193801 -0.31005299 0.90778196
1.9908501 -0.292456 0.88695395
2.00406 -0.30307698 0.89143997
2.0132301 -0.31171101 0.89442497
1.99072 -0.281941 0.87776101
2.00192 -0.29230899 0.88189101
2.0101402 -0.302553 0.88518298
1.988 -0.281479 0.86485702
1.99692 -0.28996 0.86909795
2.0121 -0.299007 0.87704694
1.9958 -0.27910399 0.85956496
2.0022399 -0.287595 0.86294395
1.9891 -0.280222 0.846654
2.0132799 -0.283288 0.85917902
1.9997001 -0.27696502 0.84516299
2.03599 -0.302874 0.83412796
2.0162699 -0.29166299 0.81336194
2.0281599 -0.30111998 0.81839597
2.01721 -0.28951901 0.804075
2.0286798 -0.30028099 0.80874395
2.00404 -0.28075302 0.78903902
2.0102999 -0.28839299 0.78986603
2.0136302 -0.29957801 0.79062796
2.0353 -0.30972999 0.80126899
2.00861 -0.27919301 0.78020096
1.93879 -0.41859698 0.98291624
1.93893 -0.41871101 0.97289157
1.9367 -0.418576 0.96146095
1.95399 -0.408452 0.96256983
1.93436 -0.41947401 0.94944799
1.94847 -0.40941101 0.94680494
1.92757 -0.42044398 0.93472999
1.95532 -0.40686598 0.93890297
1.94943 -0.41702998 0.93669295
1.98185 -0.398707 0.94523203
1.95882 -0.40650299 0.93168902
1.94267 -0.418098 0.92233002
1.98141 -0.39875802 0.93573499
1.96035 -0.40794998 0.92153496
1.94426 -0.42109698 0.91274399
2.0320301 -0.250278 0.94094598
1.98658 -0.398386 0.927203
1.9641401 -0.406948 0.91277903
1.95795 -0.41872898 0.91015196
2.05862 -0.242726 0.94972301
2.04509 -0.25247899 0.94216502
2.02742 -0.25962201 0.93171501
1.99286 -0.39766601 0.92066693
1.97313 -0.405404 0.90883899
1.9655299 -0.41640598 0.90441597
2.0599799 -0.24399401 0.94157702
2.0403399 -0.253701 0.93120694
2.02478 -0.260299 0.92267996
1.98871 -0.39776 0.90802902
1.96769 -0.40661499 0.89617598
1.9639101 -0.41813999 0.89315301
2.0672901 -0.24344499 0.93569493
2.0490198 -0.25365499 0.92557299
2.03739 -0.26230699 0.92129898
1.99481 -0.39749199 0.90089297
1.97469 -0.40659699 0.889449
1.9594001 -0.41918701 0.87951899
2.0643499 -0.24451999 0.92404604
2.0583501 -0.256354 0.92086297
2.0458801 -0.264837 0.91477698
2.0190198 -0.37454498 0.89967597
2.0009699 -0.39642298 0.89347702
1.9740801 -0.40782601 0.87761992
1.95515 -0.42059502 0.86600798
2.0785899 -0.24560499 0.923576
2.0632601 -0.255023 0.91458398
2.05335 -0.26722801 0.90856397
2.02987 -0.274975 0.89416903
2.0246499 -0.37428901 0.89620203
2.0359299 -0.38483897 0.90454501
2.0136001 -0.39417702 0.89159197
1.9891701 -0.40477502 0.87660998
1.96152 -0.41701499 0.85922503
1.96076 -0.43009898 0.85836101
2.08021 -0.24560601 0.91449195
2.06182 -0.25753999 0.90368402
2.05476 -0.26905501 0.89927399
2.0357699 -0.277008 0.88854295
2.02268 -0.28427899 0.88084495
2.04742 -0.38423303 0.90269899
2.02808 -0.392095 0.89128095
1.97755 -0.40906602 0.85982794
1.95855 -0.41930801 0.84600699
1.97271 -0.43345201 0.85532099
2.0818501 -0.244752 0.90453601
2.07463 -0.255804 0.901438
2.0637901 -0.26740101 0.89538103
2.04251 -0.27733499 0.88257897
2.02737 -0.28578198 0.87382096
2.0339999 -0.37597197 0.88505602
2.0525301 -0.38463601 0.89746302
2.0339401 -0.39081001 0.88578898
1.9717799 -0.409843 0.84505194
1.9621201 -0.417292 0.83723903
1.9632601 -0.42914101 0.83981699
1.9797301 -0.44439998 0.85180396
2.0819001 -0.24603599 0.89531296
2.0723 -0.25727302 0.88973695
2.0597999 -0.26963499 0.881859
2.0621901 -0.38529599 0.896626
1.9661 -0.40712601 0.82949698
1.95587 -0.41542301 0.82403296
2.0822001 -0.246584 0.88531899
2.0752099 -0.25888202 0.880916
2.0623701 -0.269676 0.87202501
1.98905 -0.39842901 0.83346695
1.9711701 -0.40454498 0.82198501
2.0813999 -0.24752599 0.87348098
1.9936099 -0.39688301 0.82781196
1.9744501 -0.40271401 0.81479895
1.9947301 -0.39583501 0.82100397
1.94526 -0.41562998 0.97873551
1.94767 -0.41469002 0.97003639
2.0403101 -0.23049299 0.98630339
1.94199 -0.41304502 0.95474541
2.0457799 -0.23209 0.98269629
2.0280499 -0.236582 0.97439748
1.93907 -0.41382301 0.94158196
2.0502 -0.23339199 0.97685081
2.0372801 -0.23911801 0.97216576
1.94458 -0.40567198 0.93423402
1.93926 -0.41433299 0.932482
2.0601699 -0.23361 0.97338152
2.0462501 -0.241201 0.96671224
1.9832801 -0.38717499 0.94431001
1.95011 -0.4059 0.92684495
1.9478999 -0.41511902 0.92811602
2.0601101 -0.23497 0.9629811
2.04778 -0.242099 0.95740128
1.9909599 -0.38676602 0.94024694
1.9676199 -0.39315602 0.92591697
1.9608099 -0.404623 0.92308998
1.9527699 -0.41442201 0.91930002
2.0673699 -0.23661101 0.95707238
2.05621 -0.244096 0.95203298
1.99842 -0.386314 0.93446702
1.9689599 -0.394815 0.91709596
1.9596699 -0.40633598 0.91225898
1.9573801 -0.41612703 0.91044295
2.0615602 -0.236944 0.94493598
2.0596099 -0.247503 0.94251394
1.9986099 -0.38772097 0.92386597
1.96843 -0.39694801 0.90642899
1.96264 -0.40816298 0.90354896
1.9656399 -0.41747299 0.905738
2.0655601 -0.23780599 0.93642503
2.0539901 -0.24892901 0.92975497
2.0364699 -0.25490701 0.91980994
2.00899 -0.38611197 0.91964293
1.97935 -0.39389199 0.90218699
1.9691299 -0.40575099 0.896873
1.9615401 -0.41573602 0.89270502
2.0708599 -0.238736 0.92839295
2.06036 -0.249338 0.924429
2.0416999 -0.257682 0.91445899
2.0197701 -0.26215598 0.90197897
2.0046101 -0.38694802 0.90660894
1.97604 -0.39563 0.88969797
1.96489 -0.40685397 0.883497
1.9612399 -0.41644001 0.88080198
2.07816 -0.240128 0.92387199
2.0671799 -0.249034 0.91851896
2.04649 -0.25866601 0.90674502
2.0291901 -0.26629698 0.89797801
2.0252001 -0.38082501 0.90826297
2.0044501 -0.38878101 0.89580798
1.9732699 -0.39803901 0.87737298
1.9663401 -0.40897098 0.87404799
1.96032 -0.41693002 0.87088996
2.0715699 -0.238645 0.91003603
2.0663099 -0.25170699 0.90915102
2.05268 -0.26075599 0.89962298
2.0358801 -0.26918599 0.89149302
2.0132401 -0.27416 0.87856501
2.0320599 -0.380582 0.90221697
2.01454 -0.38698399 0.89156896
1.98808 -0.39617902 0.87477195
1.9782201 -0.4086 0.87080091
1.96601 -0.41709399 0.86531198
2.07219 -0.23892799 0.89830399
2.0681601 -0.25127399 0.90021998
2.0599401 -0.260912 0.89432693
2.04842 -0.27090099 0.88885897
2.02981 -0.278804 0.87770998
2.0351 -0.38124803 0.89491498
2.01317 -0.38752997 0.88022596
1.99729 -0.39660498 0.86950701
1.9821401 -0.407493 0.86128896
1.98367 -0.418055 0.86575502
2.0789199 -0.24091101 0.89340597
2.0706501 -0.25132 0.89074999
2.0589399 -0.26265499 0.88430697
2.05088 -0.27401102 0.88054901
2.0285499 -0.28106701 0.86634994
2.0190401 -0.28858399 0.86102402
2.03317 -0.38175899 0.88358003
2.0176601 -0.38865399 0.87265497
1.99432 -0.397504 0.85773498
1.97701 -0.407758 0.84635496
1.9818699 -0.41779801 0.85333496
2.0775001 -0.241436 0.88302499
2.0733299 -0.25461099 0.88212097
2.0587199 -0.264844 0.87397093
2.03071 -0.28353101 0.85842401
2.0156901 -0.289323 0.84963393
2.0348301 -0.381969 0.87408096
2.01525 -0.38828301 0.86059701
1.9857401 -0.39705002 0.84163594
1.97013 -0.40720698 0.83094496
1.9713401 -0.41654801 0.83504194
2.0813301 -0.24105301 0.874089
2.0788901 -0.252758 0.87596697
2.02209 -0.290389 0.84331894
2.0302901 -0.38042802 0.86006498
2.01598 -0.38617501 0.84998101
1.96909 -0.39800301 0.82083595
1.95884 -0.40604302 0.81307
1.96378 -0.415811 0.81802595
2.0086401 -0.35630402 0.82541102
2.03456 -0.377446 0.85046798
2.0173399 -0.38273999 0.83949399
1.96543 -0.39711398 0.80551499
1.96474 -0.40811002 0.80721301
1.97066 -0.41758701 0.812334
2.0141599 -0.33960497 0.81972903
2.02895 -0.35099801 0.83073503
2.02771 -0.362775 0.83245599
2.039 -0.37625802 0.84245193
1.99821 -0.387476 0.81472099
1.97136 -0.39528197 0.796969
1.9661 -0.40707198 0.79698199
1.96942 -0.417151 0.801669
2.0355 -0.344212 0.82664198
2.0320699 -0.35371497 0.82490194
2.0378399 -0.36672902 0.83022499
2.0320101 -0.37832502 0.82820696
2.0018401 -0.38609999 0.80757695
1.97249 -0.39472499 0.78690904
1.9706399 -0.40650201 0.78852403
1.97063 -0.416226 0.79121399
2.02792 -0.353104 0.81259596
2.03161 -0.36382499 0.81518292
2.02864 -0.376196 0.81608301
1.9941299 -0.386244 0.79252195
1.97097 -0.394622 0.77510893
1.9714999 -0.40567198 0.77852702
1.9756799 -0.41591203 0.78222793
2.0224199 -0.36326501 0.79776198
2.0392699 -0.37412101 0.81146401
1.99248 -0.388275 0.78034598
1.9734501 -0.39493099 0.76630402
1.97263 -0.405509 0.76833802
1.9880999 -0.41671798 0.77950501
2.0214701 -0.36588201 0.78696704
1.99218 -0.38785499 0.76962197
1.98226 -0.39687699 0.76413202
1.9790601 -0.405774 0.76343697
2.0118499 -0.385176 0.77463895
2.00301 -0.39747199 0.77047503
2.04655 -0.237885 0.99545324
2.0487399 -0.239094 0.98692203
2.0301299 -0.24599199 0.97646886
2.0567999 -0.231287 0.98020726
2.0444801 -0.24155599 0.97493285
2.02529 -0.247353 0.96469742
2.0069201 -0.250287 0.95568204
2.0533299 -0.24130899 0.96989357
2.0431399 -0.25187901 0.96619695
2.02321 -0.25648999 0.95609045
2.0655298 -0.23375401 0.96434939
2.0535002 -0.24491601 0.96047509
2.0432601 -0.25448 0.956743
2.02561 -0.25847098 0.94806397
2.0667799 -0.23486499 0.95485502
2.0641601 -0.24598899 0.95726323
2.053 -0.25523898 0.95159501
2.0302801 -0.25927401 0.94108695
2.0618401 -0.24521601 0.94612801
2.05514 -0.25534701 0.94198298
2.0435801 -0.262532 0.93738604
2.06706 -0.24629299 0.93802595
2.0544901 -0.256823 0.93133897
2.0478001 -0.26531899 0.92959398
2.0748899 -0.236598 0.92988896
2.06444 -0.247435 0.92576897
2.06019 -0.258719 0.92426199
2.0492599 -0.26744601 0.91963899
2.0085099 -0.27252799 0.89271498
2.0741601 -0.238886 0.91953397
2.0677001 -0.25022 0.91794997
2.0603101 -0.261246 0.91543001
2.04877 -0.26965702 0.91019195
2.0192101 -0.27327001 0.892474
1.9905499 -0.275819 0.87626493
2.0762601 -0.249643 0.913638
2.07002 -0.26083499 0.91135794
2.0510399 -0.27023801 0.90118194
2.02369 -0.27560601 0.88553298
2.007 -0.27995801 0.87832099
2.0792398 -0.237811 0.90034598
2.0748398 -0.249587 0.90289098
2.06639 -0.261089 0.898628
2.0566599 -0.271189 0.89328992
2.03473 -0.27745801 0.88230598
2.0152199 -0.28338 0.87192899
2.0797701 -0.23838 0.88993698
2.07868 -0.251818 0.89464498
2.06774 -0.262788 0.88828397
2.0529299 -0.27298599 0.88160598
2.01719 -0.286957 0.861803
2.0797 -0.25215799 0.88354599
2.0725501 -0.26296198 0.88129699
2.0664101 -0.27332899 0.87945604
2.0234101 -0.288708 0.85718596
1.9994501 -0.29182699 0.84377593
2.0853901 -0.25414401 0.877285
2.0759499 -0.263666 0.87389898
2.0680201 -0.275453 0.87022501
2.00401 -0.293118 0.83989799
2.07987 -0.26708001 0.86682999
2.03563 -0.231133 1.0122427
2.0352299 -0.23241501 1.0020181
2.01248 -0.23336399 0.99166107
2.0415499 -0.23551701 0.99492991
2.02492 -0.23950599 0.98944169
2.04106 -0.238066 0.98449486
2.0302401 -0.24419701 0.98158181
2.0538201 -0.24107599 0.98165435
2.0315199 -0.24614599 0.97220469
2.0113599 -0.24823999 0.96301913
2.0609701 -0.24324499 0.97553235
2.0402 -0.24901699 0.96625322
2.0146899 -0.250168 0.95568109
2.06094 -0.244545 0.96603286
2.04475 -0.251973 0.95804137
2.02649 -0.255169 0.95228994
2.0578501 -0.24414 0.95375997
2.04582 -0.252702 0.948138
2.0378399 -0.25974599 0.94818199
2.05633 -0.24462 0.94223601
2.05056 -0.25523999 0.94226503
2.0427699 -0.26202402 0.94013298
2.0723 -0.235567 0.93921399
2.0632899 -0.246437 0.93518603
2.0538299 -0.25685498 0.93476099
2.0437701 -0.26354501 0.93038499
2.0736301 -0.23638099 0.92955101
2.0718899 -0.249837 0.93000901
2.0649099 -0.25993901 0.930848
2.0546801 -0.26877701 0.92621201
2.0782499 -0.239371 0.92196196
2.0675199 -0.248463 0.91863602
2.06354 -0.26045701 0.91916198
2.0513699 -0.27011099 0.91351199
2.0306699 -0.27176902 0.90298402
2.08235 -0.240935 0.91406494
2.0766098 -0.251973 0.91549599
2.06937 -0.261702 0.91166794
2.0571401 -0.27114999 0.90713394
2.03146 -0.27458701 0.89303696
2.0785999 -0.25184602 0.90535897
2.06844 -0.26405501 0.90077192
2.05129 -0.27326599 0.89390594
2.03158 -0.27802601 0.883421
2.0146101 -0.28017402 0.87514001
2.0809 -0.25455701 0.89613998
2.0729101 -0.265394 0.89219499
2.06143 -0.275388 0.88950998
2.03901 -0.28080299 0.87836099
2.0164499 -0.28246501 0.86709702
2.0825701 -0.241714 0.88457298
2.0761001 -0.25369301 0.88326204
2.0692101 -0.263414 0.87934297
2.0664001 -0.27534699 0.88236803
2.0320301 -0.28964001 0.865578
2.08073 -0.254168 0.876064
2.0783999 -0.26618701 0.87531698
2.0650301 -0.275314 0.87079298
2.0336699 -0.29165 0.855142
2.00827 -0.29229999 0.84176397
2.0390401 -0.29667899 0.84853798
2.01682 -0.29725 0.83751494
2.0265 -0.30222499 0.83357596
2.03896 -0.30627799 0.83297801
2.02001 -0.30932102 0.82318497
2.0494201 -0.238104 0.99414957
2.0611401 -0.233577 0.98888755
2.05282 -0.24262801 0.98419046
2.0649099 -0.235337 0.98021257
2.0514901 -0.24483299 0.97366869
2.02548 -0.245281 0.96098894
2.06586 -0.238775 0.97087443
2.0540099 -0.247566 0.96593994
2.03073 -0.25015101 0.95574725
2.07428 -0.23955601 0.96629411
2.0637801 -0.24868999 0.96223748
2.0393701 -0.25344801 0.95011795
2.0722799 -0.23882499 0.95531356
2.06375 -0.25032699 0.951994
2.04263 -0.25612399 0.94078201
2.02671 -0.26183 0.93595904
2.07512 -0.24011 0.94581002
2.0633199 -0.25126898 0.94108695
2.0476601 -0.25949699 0.93336898
2.0360301 -0.26731399 0.93145996
2.0752299 -0.242935 0.93616098
2.06775 -0.254215 0.93300796
2.05059 -0.26125401 0.92545801
2.0422001 -0.27046901 0.92484003
2.0272999 -0.274306 0.91977602
2.0774899 -0.242589 0.92669195
2.0691199 -0.25194401 0.92271399
2.0639701 -0.26434901 0.92339402
2.0471499 -0.27155599 0.91690898
2.0342 -0.277982 0.91242796
2.0792301 -0.242604 0.91634399
2.07216 -0.25514999 0.91517502
2.0605299 -0.26579499 0.91092104
2.04562 -0.27412599 0.90632796
2.03968 -0.28195801 0.90570295
2.08162 -0.246393 0.90844399
2.0720799 -0.256078 0.90475196
2.0641298 -0.26622999 0.90190798
2.0560601 -0.27726001 0.90078896
2.04299 -0.283337 0.897475
2.0809901 -0.245349 0.89619398
2.07373 -0.25797999 0.89640701
2.0652399 -0.268949 0.893013
2.0499499 -0.27566001 0.88702798
2.0492501 -0.28782699 0.88909698
2.0859699 -0.24927099 0.888327
2.0766098 -0.258708 0.88795799
2.0695701 -0.26970199 0.88412696
2.06023 -0.28151199 0.883627
2.0469999 -0.29080498 0.87735701
2.0304201 -0.29452601 0.86903495
2.0808799 -0.24564199 0.87441301
2.08091 -0.26037902 0.87981993
2.07163 -0.26977101 0.87488496
2.0669 -0.28218299 0.87609297
2.0525999 -0.29192799 0.870426
2.03387 -0.29768801 0.86220598
2.0081201 -0.296507 0.84826601
2.0810001 -0.26105899 0.86840194
2.04234 -0.301844 0.85664994
2.01616 -0.30136999 0.84401101
2.0459599 -0.30637801 0.84851295
2.0294001 -0.30980399 0.84117699
2.0492201 -0.32017699 0.84395498
2.0308001 -0.32210299 0.83457702
2.05617 -0.33326802 0.84188199
2.0422301 -0.40470698 0.77552003
2.0381701 -0.41859901 0.77030998
2.0155299 -0.41101003 0.77150595
2.01372 -0.39747798 0.77088302
2.0369101 -0.42050302 0.76222998
2.0178301 -0.41167998 0.764615
2.0050499 -0.39942002 0.764413
1.9796699 -0.38972101 0.767519
2.01425 -0.41091001 0.75637895
2.0048599 -0.39647901 0.75554198
1.98562 -0.38978601 0.75884092
1.9884501 -0.38627601 0.75020999
2.02473 -0.42974401 0.93759596
2.0193801 -0.43056598 0.931669
2.01545 -0.42218 0.93218595
2.0210099 -0.42950499 0.92434996
2.01595 -0.42115298 0.92528296
2.0314999 -0.42533797 0.91635203
2.0141702 -0.42060298 0.91769797
2.00806 -0.409632 0.91661996
2.01143 -0.41762298 0.90909994
1.99778 -0.40853199 0.90817201
1.978 -0.40215698 0.90822899
2.0181 -0.41313499 0.899674
2.00002 -0.40807 0.90101504
1.9889101 -0.39788201 0.90035701
1.9633299 -0.38966301 0.90017897
2.0066199 -0.40362099 0.89094496
1.9749401 -0.39701697 0.89243996
2.0139899 -0.40118599 0.88074601
1.9843401 -0.39555499 0.88354295
1.96566 -0.386567 0.88463598
2.0257699 -0.39865398 0.87199193
1.99691 -0.39224997 0.87420392
1.97113 -0.38593701 0.87676203
2.0150101 -0.39976001 0.86400896
2.01212 -0.38788399 0.86444592
1.97752 -0.38429999 0.86846596
2.0227499 -0.39370301 0.85464698
2.01139 -0.38703099 0.85567594
1.99584 -0.38094798 0.85809195
2.01407 -0.384835 0.84847701
1.99788 -0.38025397 0.85003996
1.9936999 -0.38090098 0.84431195
2.0146999 -0.37406799 0.777556
2.03005 -0.415566 0.77221698
2.0279601 -0.401142 0.77162695
2.01828 -0.38568699 0.77159196
2.01191 -0.374791 0.77163595
2.0288601 -0.413497 0.76429594
2.01492 -0.40116 0.76524001
2.00611 -0.38825297 0.76574099
1.9833599 -0.38245499 0.76748693
2.03549 -0.42370099 0.75713801
2.0204301 -0.413012 0.757819
2.01017 -0.400956 0.75783294
1.9899899 -0.391278 0.75926501
2.0190802 -0.411874 0.75129598
2.00125 -0.39998999 0.75066298
1.97734 -0.391536 0.75227404
2.02426 -0.37417099 0.77856004
2.0445399 -0.41333199 0.77213097
2.0310099 -0.402619 0.77306199
2.0169299 -0.37515202 0.77336293
2.0361099 -0.4138 0.76637805
2.0238199 -0.400071 0.76652998
2.0048301 -0.38861001 0.76774794
2.0023 -0.37826902 0.76831698
2.0220101 -0.414747 0.76002097
2.0058701 -0.40056098 0.76023895
1.99782 -0.38991901 0.76072395
1.9924201 -0.37978199 0.76149005
1.99049 -0.38979 0.75386101
2.05741 -0.35161701 0.81421
2.0762601 -0.359945 0.81552595
2.0072 -0.33373299 0.80506599
2.0429602 -0.34894198 0.80797797
2.0655999 -0.35874599 0.81018198
2.0216601 -0.30658001 0.80035996
2.0120599 -0.32022703 0.79959494
2.0041599 -0.33352903 0.79857498
2.03073 -0.346331 0.80147398
2.0599899 -0.35734901 0.80458593
2.0104601 -0.30781499 0.79277998
2.0231299 -0.32128501 0.79384202
2.00243 -0.331848 0.79179102
2.01666 -0.34303701 0.79353601
2.0576899 -0.35684398 0.79943895
2.00072 -0.296231 0.78669703
1.9910699 -0.303498 0.78521401
2.0225501 -0.32274398 0.78826404
1.99552 -0.33313802 0.783719
2.0123701 -0.34175998 0.78578794
2.0002401 -0.29526198 0.78126299
1.99466 -0.33534402 0.77676797
2.0126901 -0.34298 0.77838397
1.9994999 -0.33542597 0.77214098
2.01911 -0.343761 0.77363801
2.0025201 -0.327066 0.85053897
2.0040801 -0.362683 0.85047996
1.9969001 -0.32535303 0.84499902
2.04336 -0.352088 0.84371001
2.0035899 -0.362304 0.84513098
2.0104201 -0.37192902 0.84563696
2.0156901 -0.323098 0.84011298
2.0194001 -0.33445799 0.83909196
2.04143 -0.35416698 0.838341
2.00158 -0.36138001 0.83909392
1.99766 -0.36789298 0.83900499
2.00229 -0.309975 0.83379602
2.01526 -0.32452202 0.83343005
2.0301199 -0.34029901 0.83306003
2.03983 -0.355488 0.831756
2.0106101 -0.36059898 0.83196503
1.9864399 -0.36417702 0.83103895
2.0348301 -0.34294799 0.82578599
2.04299 -0.35615599 0.82531703
2.01647 -0.36039001 0.82420599
1.99629 -0.36715499 0.82336998
2.03174 -0.34240898 0.81727999
2.0434699 -0.35682598 0.81788301
2.0123398 -0.36238202 0.81616193
1.98885 -0.36764199 0.81418097
2.01562 -0.30803099 0.80510896
2.0399699 -0.34359002 0.80950391
2.0483599 -0.35755402 0.81068003
2.0214701 -0.36201099 0.80926794
1.993 -0.368433 0.80693001
2.00436 -0.38170898 0.80810797
2.0327101 -0.30969399 0.80106002
2.0181201 -0.320903 0.80061293
2.03668 -0.34037 0.80119997
2.0422099 -0.35570598 0.80373198
2.01476 -0.36135301 0.80134004
1.98308 -0.36644101 0.79810798
1.98281 -0.37629601 0.80005097
2.0332899 -0.32370603 0.79389399
2.02846 -0.337697 0.79333693
2.0404899 -0.35468602 0.79625595
2.0099299 -0.35839298 0.79415298
2.0221701 -0.319282 0.78581297
2.0265801 -0.334492 0.78639299
2.04211 -0.35296902 0.78817594
2.02441 -0.309057 0.78034192
2.01036 -0.31647801 0.78005195
2.0434198 -0.34415501 0.78066999
2.04407 -0.35264099 0.78083199
2.0342999 -0.34209201 0.77448297
2.0527902 -0.35551602 0.775971
