# .PCD v0.7 - Point Cloud Data file format
VERSION 0.7
FIELDS x y z
SIZE 4 4 4
TYPE F F F
COUNT 1 1 1
WIDTH 1610
HEIGHT 1
VIEWPOINT 0 0 0 1 0 0 0
POINTS 1610
DATA ascii
1.88913 -0.25432599 1.285675
1.89345 -0.24665301 1.284832
1.90148 -0.27151099 1.2782199
1.8987 -0.25995001 1.278083
1.9058599 -0.252565 1.2779959
1.9003799 -0.27289498 1.2695489
1.9099499 -0.26623198 1.2705159
1.91573 -0.29086101 1.262053
1.90984 -0.27788699 1.2625259
1.90365 -0.26658601 1.2612159
1.91065 -0.29206699 1.253242
1.92138 -0.28549299 1.254658
1.93753 -0.282269 1.254317
1.92268 -0.30120301 1.245922
1.9455299 -0.29655999 1.248863
1.92888 -0.32054299 1.237802
1.91839 -0.301231 1.2381179
1.8692399 -0.41280299 1.225065
1.92291 -0.32150701 1.228516
1.93364 -0.31194901 1.23057
1.85146 -0.43261901 1.215557
1.8541 -0.42190602 1.216042
1.85814 -0.41018298 1.216059
1.88363 -0.405644 1.219225
1.87432 -0.431245 1.2114251
1.85873 -0.41245097 1.2096679
1.87134 -0.401068 1.209058
1.8648599 -0.41164902 1.202325
1.86685 -0.39669499 1.199502
1.87982 -0.38574001 1.201187
1.86265 -0.39482602 1.191929
1.87008 -0.383261 1.190715
1.8801601 -0.37068298 1.192578
1.8668699 -0.39309102 1.182296
1.86625 -0.38075599 1.18214
1.8788201 -0.37074101 1.18296
1.9165 -0.45720902 1.173741
1.87843 -0.397443 1.173017
1.87123 -0.38172901 1.174659
1.9021699 -0.45076698 1.166381
1.89724 -0.44493902 1.1578341
1.90263 -0.46331403 1.1506548
1.89887 -0.44650501 1.1496865
1.90368 -0.448084 1.1420099
1.8962801 -0.42730498 1.1409428
1.79974 -0.36888 0.96185243
1.82424 -0.362454 0.96156341
1.8487899 -0.35486802 0.96334857
1.79245 -0.36899102 0.95661241
1.80984 -0.361009 0.95566726
1.83711 -0.35543498 0.9549064
1.8213 -0.36315799 0.94783098
1.8421 -0.35431498 0.94679999
1.80135 -0.36869201 0.94214994
1.835 -0.36494201 0.94058698
1.91482 -0.25370702 1.328447
1.90368 -0.240071 1.325565
1.90865 -0.25082099 1.3207649
1.90256 -0.24906999 1.310679
1.8991901 -0.23864999 1.30778
1.89205 -0.24609101 1.298795
1.9092101 -0.26566499 1.2923621
1.88748 -0.246774 1.2887379
1.89496 -0.238601 1.2914
1.89411 -0.26298201 1.2815199
1.88851 -0.24897699 1.281233
1.89548 -0.24118401 1.2829159
1.90942 -0.28318599 1.275409
1.89834 -0.26802701 1.2734439
1.9017199 -0.25728101 1.274838
1.89942 -0.279883 1.2658629
1.9029201 -0.27043399 1.2669001
1.92554 -0.269411 1.268929
1.89709 -0.28227502 1.2558399
1.9003199 -0.27168 1.2583929
1.9244599 -0.29894301 1.249874
1.9182299 -0.283869 1.2506759
1.7859801 -0.41727501 1.234229
1.93151 -0.305121 1.243693
1.7887399 -0.41498601 1.2259459
1.84921 -0.42029899 1.226122
1.77806 -0.42379799 1.220088
1.80567 -0.41880798 1.219241
1.83235 -0.415503 1.219542
1.86432 -0.41309503 1.22114
1.8617101 -0.43968499 1.212805
1.84386 -0.420205 1.212481
1.85191 -0.40855998 1.212544
1.88174 -0.404735 1.2149589
1.86959 -0.430675 1.2064979
1.85364 -0.41001999 1.204906
1.86931 -0.39974099 1.204222
1.86166 -0.40896198 1.196232
1.86638 -0.39643502 1.195192
1.8724201 -0.38220102 1.194986
1.87256 -0.41049701 1.187163
1.86738 -0.39466301 1.186752
1.86735 -0.37963599 1.1857589
1.8700399 -0.394584 1.176966
1.87423 -0.38115799 1.17774
1.90089 -0.453017 1.1518502
1.90918 -0.437904 1.1524611
1.89748 -0.46431702 1.144348
1.8961999 -0.447061 1.1421173
1.89821 -0.430563 1.1429912
1.90776 -0.453619 1.1359267
1.90377 -0.43449903 1.1344639
1.90903 -0.43741903 1.1282597
1.8708501 -0.361662 1.1210009
1.8674999 -0.34311199 1.1023571
1.8674099 -0.35882401 1.0944664
1.8689799 -0.342491 1.0938269
1.84278 -0.32723701 1.0166233
1.8547 -0.31874099 1.0162394
1.8650999 -0.30917701 1.0096744
1.8209399 -0.368615 0.97496814
1.8483901 -0.36958697 0.97396928
1.79246 -0.37249401 0.9679206
1.81138 -0.36648202 0.96856827
1.82943 -0.36095199 0.9689911
1.8432001 -0.35353199 0.9677555
1.7990199 -0.36464 0.96139228
1.82349 -0.35935798 0.96146041
1.84461 -0.35370201 0.96117419
1.7965699 -0.36449298 0.95401299
1.81569 -0.35737202 0.95331198
1.84534 -0.35149202 0.95195496
1.83798 -0.35911202 0.94446295
1.84761 -0.35027301 0.94335198
1.91804 -0.258672 1.283608
1.9147 -0.26071101 1.277916
1.89961 -0.25575101 1.273031
1.91811 -0.260268 1.2700429
1.9051801 -0.27810299 1.272516
1.90377 -0.25442302 1.264092
1.9099699 -0.26371402 1.263338
1.9183501 -0.27356198 1.26226
1.9261301 -0.286639 1.2589999
1.9388499 -0.30068898 1.2539979
1.9194 -0.262205 1.253006
1.9164101 -0.278027 1.253781
1.93721 -0.2872 1.248705
1.94066 -0.30191401 1.246385
1.95215 -0.31424701 1.24418
1.91504 -0.28018901 1.2447749
1.93625 -0.28817302 1.240472
1.93418 -0.30438298 1.240366
1.9493201 -0.31363499 1.237509
1.9157699 -0.28124398 1.236885
1.92636 -0.291675 1.23417
1.9419501 -0.30273199 1.23078
1.93567 -0.30642 1.223495
1.9655401 -0.47369 1.2199589
1.9675101 -0.47366902 1.211184
1.9672999 -0.47298402 1.2026639
1.9540801 -0.48044997 1.19759
1.9466001 -0.46076098 1.169783
1.9165699 -0.46014702 1.1591439
1.9207699 -0.45800799 1.1499553
1.9343801 -0.453271 1.1401186
1.92995 -0.45434502 1.1350125
1.89134 -0.248107 1.29989
1.9042 -0.26447299 1.2832959
1.89022 -0.251214 1.292676
1.92362 -0.28286898 1.2635989
1.9122 -0.26901501 1.270201
1.8946099 -0.254197 1.282681
1.9060899 -0.34202099 1.257377
1.91802 -0.332259 1.2543731
1.93562 -0.300753 1.247658
1.9213001 -0.28411502 1.2559019
1.9096401 -0.26960301 1.2617739
1.90224 -0.258183 1.268666
1.9016401 -0.34341899 1.24932
1.9126899 -0.329175 1.247165
1.9320799 -0.31608802 1.2406729
1.92946 -0.300183 1.2419209
1.9140401 -0.28184602 1.25104
1.9108599 -0.269734 1.253603
1.90048 -0.25932899 1.260324
1.8928599 -0.35541499 1.243031
1.8924401 -0.34158799 1.2439209
1.9051199 -0.32933602 1.239944
1.9228901 -0.315925 1.2355471
1.92707 -0.30341101 1.234026
1.93416 -0.28838801 1.2339139
1.92211 -0.27292299 1.24207
1.9483 -0.46200901 1.1986639
1.8874899 -0.36642501 1.234975
1.8896099 -0.35236198 1.235532
1.8969799 -0.340094 1.233649
1.9005799 -0.32912499 1.232018
1.9142599 -0.31785801 1.229156
1.8844399 -0.36866 1.226151
1.88577 -0.35476398 1.227883
1.89187 -0.34099901 1.2262579
1.8953799 -0.32823899 1.2249759
1.8799601 -0.38215101 1.215161
1.8843601 -0.353816 1.217973
1.8913499 -0.33912399 1.2163299
1.8986099 -0.32812801 1.211176
1.88526 -0.451729 1.1966649
1.8020101 -0.40981799 1.2350709
1.8133501 -0.39996499 1.2313859
1.86718 -0.392093 1.212163
1.86658 -0.37890399 1.212081
1.8759599 -0.36637601 1.2105839
1.8759199 -0.35199201 1.2118731
1.888 -0.33948299 1.2067879
1.89726 -0.32686502 1.202642
1.87439 -0.45908001 1.1936669
1.7902 -0.420587 1.2319829
1.7830701 -0.40847 1.237587
1.8167701 -0.40173998 1.223457
1.84351 -0.39183101 1.212909
1.85884 -0.38021198 1.206717
1.86412 -0.36660498 1.2057641
1.8746099 -0.35266 1.2026809
1.8828701 -0.339095 1.1978229
1.88714 -0.32720402 1.1990629
1.78785 -0.41079199 1.2277269
1.83781 -0.399515 1.2080671
1.86061 -0.39007401 1.196144
1.86489 -0.376894 1.19435
1.86949 -0.36395198 1.1943949
1.8750999 -0.351107 1.1916829
1.88177 -0.33840999 1.188628
1.8882 -0.32555598 1.187826
1.79026 -0.41255799 1.218964
1.87612 -0.38119498 1.1774991
1.87208 -0.36447701 1.182449
1.8758701 -0.34943199 1.181571
1.8821001 -0.33616 1.1802601
1.88334 -0.32445899 1.178823
1.89537 -0.31534299 1.176015
1.8869901 -0.419586 1.156821
1.8787601 -0.35390201 1.1694729
1.87782 -0.33748502 1.171898
1.88428 -0.32521001 1.168377
1.8823301 -0.314006 1.1709141
1.8742599 -0.34955299 1.1614799
1.8803101 -0.335857 1.1611741
1.87834 -0.32302397 1.162249
1.88061 -0.31250501 1.160719
1.87244 -0.36406201 1.1512636
1.8730201 -0.34909999 1.1512852
1.87383 -0.33497003 1.154531
1.8753101 -0.32165101 1.1529853
1.87739 -0.311533 1.1529237
1.8727299 -0.36680999 1.1401432
1.8701199 -0.35150701 1.1427875
1.86926 -0.33456299 1.1450825
1.8759599 -0.32197899 1.1427616
1.8762801 -0.31158799 1.1436689
1.86879 -0.373761 1.1308708
1.86929 -0.36186698 1.131883
1.8707001 -0.34757 1.1327469
1.86211 -0.33292198 1.13861
1.87148 -0.32168999 1.134909
1.8733799 -0.311205 1.1349721
1.8699001 -0.35001799 1.1236657
1.8657601 -0.33386099 1.1265564
1.8734699 -0.32152697 1.1238965
1.87314 -0.311241 1.1247592
1.86601 -0.34823298 1.116061
1.86295 -0.33292702 1.1163402
1.8676699 -0.320712 1.1173793
1.87271 -0.31011298 1.113335
1.85928 -0.34379399 1.1086513
1.8560801 -0.331175 1.1107268
1.8658099 -0.31931299 1.1064535
1.8733701 -0.30764499 1.1020836
1.85905 -0.34160501 1.0962396
1.86121 -0.330807 1.0984606
1.86323 -0.318297 1.0981944
1.86964 -0.30712 1.0945967
1.86045 -0.34218398 1.0842373
1.8610899 -0.33113202 1.0869401
1.8621299 -0.31805402 1.0895325
1.8695301 -0.30640498 1.0844908
1.88617 -0.29735398 1.0764406
1.86608 -0.34314498 1.0715407
1.86282 -0.33218202 1.0743251
1.86343 -0.317099 1.0774804
1.86957 -0.30324101 1.0756538
1.86026 -0.34135398 1.064918
1.8618 -0.33173999 1.0652885
1.86269 -0.31881902 1.0656353
1.86869 -0.30259401 1.065207
1.9041499 -0.28325599 1.0474613
1.85864 -0.33030498 1.0576957
1.86367 -0.317689 1.0537888
1.85926 -0.30401599 1.0598696
1.8835601 -0.292716 1.0457844
1.8994299 -0.28249499 1.0382774
1.8596201 -0.32967499 1.0454408
1.86218 -0.315817 1.0445375
1.8617799 -0.30296302 1.0483688
1.8771001 -0.292153 1.0387189
1.89551 -0.28228799 1.0293766
1.86218 -0.33188599 1.0335313
1.86209 -0.317873 1.0339483
1.8670501 -0.30315101 1.0347439
1.8801199 -0.29054502 1.0270278
1.8941001 -0.28079098 1.0196785
1.86044 -0.330452 1.0241469
1.8653301 -0.30215099 1.0238727
1.8936 -0.280707 1.0089513
1.86071 -0.31690702 1.0130976
1.8631799 -0.30466101 1.0132728
1.87142 -0.291466 1.0101366
1.88669 -0.28191799 1.0018026
1.86097 -0.31704301 1.0023941
1.86762 -0.302423 1.0011396
1.8728 -0.29085299 0.99836457
1.85563 -0.329528 0.99318522
1.8534199 -0.31672201 0.99477196
1.8588001 -0.30232 0.99479312
1.84524 -0.327595 0.98837876
1.85523 -0.31538001 0.98353487
1.84016 -0.33818999 0.97927809
1.8440199 -0.32714802 0.97808647
1.85594 -0.31471398 0.97195226
1.8580999 -0.302582 0.97124267
1.8345799 -0.34777501 0.96946257
1.83839 -0.33823299 0.97004342
1.8452201 -0.326193 0.96588165
1.8293899 -0.346899 0.96317559
1.8369501 -0.338478 0.96041244
1.84586 -0.339324 0.94402802
1.90793 -0.34085301 1.2532519
1.92102 -0.32837799 1.25071
1.9302901 -0.31706899 1.249161
1.93138 -0.303765 1.248093
1.9273599 -0.28946599 1.2490159
1.90251 -0.339901 1.247057
1.90965 -0.32746601 1.245119
1.92802 -0.314518 1.2400789
1.92198 -0.297968 1.2435989
1.9151 -0.28598401 1.24766
1.8986701 -0.33973801 1.239507
1.9063201 -0.32704601 1.2365789
1.92187 -0.316147 1.231581
1.93124 -0.30310601 1.229617
1.93844 -0.29233301 1.228662
1.89125 -0.35109299 1.230588
1.8961 -0.33678299 1.231559
1.90999 -0.32616299 1.225777
1.9276299 -0.315469 1.2192
1.9455701 -0.30683002 1.213485
1.8859199 -0.36570099 1.2216469
1.8930299 -0.33747399 1.222623
1.9118899 -0.32565498 1.214602
1.8045 -0.41900399 1.2356399
1.78934 -0.402915 1.245496
1.8344799 -0.39357799 1.226211
1.85524 -0.385694 1.2196209
1.87783 -0.36388698 1.21416
1.88477 -0.35023299 1.2153389
1.89306 -0.335998 1.2113839
1.78897 -0.42646703 1.234012
1.78237 -0.41200501 1.2411029
1.7882299 -0.40277198 1.2399869
1.81759 -0.39574102 1.226735
1.8417799 -0.38497299 1.217543
1.86989 -0.37696099 1.2078071
1.87019 -0.36219102 1.207372
1.8805901 -0.349287 1.206718
1.88222 -0.33604199 1.2057619
1.9039301 -0.327149 1.19742
1.79424 -0.416987 1.226841
1.81721 -0.40854901 1.21679
1.82386 -0.39527303 1.216522
1.84244 -0.38324699 1.209215
1.85478 -0.37305999 1.205701
1.8642999 -0.36186001 1.200587
1.8723301 -0.34834 1.199645
1.88455 -0.33553201 1.195127
1.8030499 -0.41746101 1.215482
1.83075 -0.41144601 1.203621
1.87832 -0.39224601 1.1767509
1.8571601 -0.372908 1.194199
1.86683 -0.36064899 1.1903759
1.87554 -0.34720799 1.187742
1.8874699 -0.335044 1.183247
1.86938 -0.37518299 1.177159
1.87028 -0.35943699 1.179451
1.8772701 -0.34643298 1.176187
1.8849699 -0.33278197 1.174806
1.88377 -0.33329499 1.1642849
1.87561 -0.36159402 1.1555649
1.8734599 -0.34511799 1.158797
1.87252 -0.331402 1.1587169
1.88902 -0.32114398 1.1531907
1.89474 -0.31112301 1.1533182
1.86814 -0.344942 1.1516142
1.8735001 -0.33260602 1.1484076
1.8766 -0.31966799 1.1489009
1.88485 -0.30932301 1.1466968
1.87177 -0.35876501 1.1347145
1.87229 -0.344695 1.1383786
1.8713499 -0.32908198 1.1411796
1.87735 -0.31685302 1.1382273
1.88299 -0.30714801 1.1367583
1.86937 -0.35877201 1.1263634
1.87043 -0.34495997 1.1278586
1.86868 -0.328051 1.1323404
1.87 -0.31481898 1.1325589
1.87976 -0.305704 1.1274867
1.87088 -0.34616199 1.1163784
1.8677299 -0.32990199 1.1213037
1.87112 -0.315541 1.1228335
1.88015 -0.30482098 1.1168029
1.89283 -0.29626399 1.1105481
1.8680701 -0.3547 1.1067251
1.86743 -0.34411597 1.1086787
1.86475 -0.331339 1.1119466
1.86918 -0.31576002 1.1122937
1.8766201 -0.30204299 1.1084176
1.89823 -0.295825 1.0984405
1.8654 -0.342751 1.100884
1.86063 -0.327907 1.1044005
1.86766 -0.31398001 1.1018059
1.8732699 -0.301808 1.0993425
1.8854201 -0.292761 1.0950154
1.8582699 -0.34054002 1.0943704
1.8601899 -0.32686797 1.093897
1.86523 -0.312664 1.0925325
1.87696 -0.30130801 1.0872377
1.88888 -0.293136 1.0826696
1.85806 -0.339524 1.0839037
1.8634 -0.32599801 1.0809219
1.8685001 -0.312004 1.0809965
1.87442 -0.30140698 1.0779638
1.88071 -0.29162002 1.0762966
1.8574201 -0.336907 1.0729882
1.86485 -0.32669801 1.0697513
1.8657299 -0.31254101 1.0713358
1.87325 -0.300091 1.0695559
1.87814 -0.291071 1.0661724
1.85847 -0.32405898 1.06341
1.85949 -0.311014 1.0645297
1.86944 -0.299851 1.0607464
1.8750399 -0.288845 1.0567083
1.8586 -0.32470903 1.0515671
1.8607401 -0.31057701 1.0536469
1.8707299 -0.29748198 1.0486602
1.87546 -0.286782 1.0456841
1.86317 -0.32584599 1.0378492
1.8589599 -0.312489 1.0437398
1.86335 -0.29892001 1.0424788
1.87454 -0.28729999 1.0369719
1.89709 -0.2809 1.0234185
1.8662699 -0.311941 1.0286212
1.8708501 -0.297555 1.0281534
1.8758099 -0.285528 1.0255266
1.89805 -0.278909 1.0124002
1.85961 -0.312069 1.0217614
1.86703 -0.29732001 1.0185486
1.8951199 -0.27742901 1.0044011
1.8601601 -0.31108299 1.0109096
1.86343 -0.29782 1.0086682
1.8734699 -0.28625 1.0049225
1.8598399 -0.30959299 0.99918747
1.86427 -0.29521999 0.99904227
1.87772 -0.28527999 0.99172479
1.85922 -0.311892 0.98609197
1.8633701 -0.295497 0.98826861
1.85009 -0.34555697 0.97458589
1.8527901 -0.335886 0.97664809
1.85315 -0.323697 0.9776172
1.8608 -0.29820099 0.97672498
1.86843 -0.286403 0.97468722
1.83497 -0.34434199 0.97189057
1.84943 -0.33540699 0.96750337
1.84763 -0.32080102 0.97118604
1.82328 -0.34445301 0.96782094
1.84278 -0.33780202 0.95876074
1.8237399 -0.35477799 0.95625079
1.8244799 -0.34545398 0.95767426
1.84855 -0.33694801 0.944709
1.81365 -0.352788 0.95464379
1.8156799 -0.34381303 0.95500624
1.80644 -0.35156101 0.951913
1.8857499 -0.24494401 1.29491
1.90888 -0.34366 1.267048
1.91359 -0.334104 1.268515
1.90039 -0.25884399 1.2797589
1.88702 -0.245737 1.288432
1.90911 -0.330311 1.258808
1.9402699 -0.31696999 1.243624
1.91574 -0.277417 1.261595
1.90051 -0.26042601 1.2721241
1.8906 -0.247144 1.280031
1.8963499 -0.35543701 1.250756
1.90282 -0.34039298 1.2494789
1.90789 -0.325708 1.249746
1.92442 -0.31639001 1.244835
1.91978 -0.29779899 1.2483259
1.9197 -0.28271601 1.251689
1.90626 -0.26620701 1.2610049
1.90133 -0.25230801 1.2672249
1.9521401 -0.477846 1.200703
1.8939101 -0.35231301 1.241447
1.8981 -0.33883202 1.242311
1.90394 -0.32587701 1.2415529
1.9128799 -0.312446 1.241613
1.9233099 -0.30169201 1.2372
1.9227699 -0.287229 1.241598
1.88649 -0.36664599 1.2323771
1.8820599 -0.34898299 1.236591
1.89257 -0.33671001 1.2355829
1.89825 -0.323825 1.234925
1.90674 -0.31203899 1.2336119
1.9328301 -0.30536801 1.223955
1.88065 -0.36613601 1.225248
1.88482 -0.35341099 1.2255
1.8832201 -0.33684501 1.228994
1.8987801 -0.324494 1.224774
1.92511 -0.31766701 1.213962
1.7969501 -0.40033501 1.241027
1.8206799 -0.39794898 1.231622
1.88148 -0.38301399 1.211421
1.87714 -0.36478502 1.216877
1.87729 -0.34768799 1.220742
1.8862801 -0.334052 1.2171839
1.90096 -0.32253301 1.213148
1.7908 -0.423675 1.2314609
1.7838299 -0.40905103 1.2379329
1.79942 -0.401651 1.233565
1.81304 -0.39377603 1.2296989
1.86492 -0.39008 1.208365
1.86903 -0.37717998 1.207703
1.87009 -0.362124 1.2087979
1.8759599 -0.34763101 1.211134
1.88105 -0.33419999 1.2080439
1.89157 -0.32209203 1.20663
1.77653 -0.40882501 1.23448
1.82061 -0.404479 1.218506
1.82903 -0.39261299 1.216186
1.8584199 -0.38718101 1.2003499
1.8603101 -0.372807 1.2028559
1.86349 -0.36058101 1.2023009
1.87201 -0.34768 1.201474
1.87472 -0.33298099 1.200973
1.88537 -0.32163602 1.198845
1.90914 -0.316185 1.1896429
1.77644 -0.41234198 1.225619
1.8800101 -0.42674702 1.1688269
1.8773301 -0.408577 1.175904
1.87211 -0.39193299 1.182119
1.86254 -0.373447 1.191763
1.8658501 -0.35880798 1.1931599
1.87075 -0.34481603 1.1914059
1.8801301 -0.33085999 1.189611
1.88937 -0.31936198 1.1875429
1.90569 -0.31362301 1.181294
1.8885001 -0.44509 1.15487
1.90125 -0.43665901 1.1505114
1.8740699 -0.379255 1.1745549
1.86997 -0.36114201 1.180889
1.87664 -0.347821 1.176846
1.87383 -0.33174402 1.182741
1.88395 -0.319846 1.179113
1.89862 -0.312152 1.174966
1.8947501 -0.45941502 1.1434582
1.90484 -0.45241901 1.1400236
1.87897 -0.34794199 1.1649209
1.8783901 -0.33171698 1.1700779
1.8794299 -0.317848 1.171382
1.89126 -0.31068599 1.167086
1.87518 -0.36077598 1.155457
1.87649 -0.34641102 1.1565729
1.87897 -0.33359 1.1593529
1.8835499 -0.31943899 1.158958
1.88631 -0.30833098 1.159595
1.87497 -0.34918597 1.1474302
1.87617 -0.332654 1.1498935
1.8752999 -0.31658801 1.1510118
1.88325 -0.307556 1.1510754
1.86604 -0.358327 1.141327
1.86786 -0.34415901 1.1413774
1.8703301 -0.327952 1.1416063
1.86971 -0.31421301 1.1448941
1.8788201 -0.30661601 1.1419034
1.86141 -0.35441899 1.1343404
1.86224 -0.34042197 1.1330228
1.8674899 -0.32678199 1.1324849
1.86831 -0.31377301 1.1365068
1.8789799 -0.305996 1.1304307
1.85776 -0.35044202 1.1237152
1.8626699 -0.34140202 1.1227362
1.86377 -0.32855999 1.1242219
1.87035 -0.31448099 1.1234503
1.8738201 -0.304068 1.1230961
1.8636999 -0.35218298 1.1081389
1.85428 -0.337513 1.1176282
1.86024 -0.32365701 1.1166425
1.86903 -0.313263 1.113729
1.8714 -0.30348802 1.1141746
1.85778 -0.33925998 1.1041378
1.85761 -0.32544997 1.1080512
1.86343 -0.31184399 1.1063482
1.8675101 -0.30194199 1.1061443
1.86058 -0.33949402 1.0918593
1.8598599 -0.32432401 1.0957644
1.86309 -0.31045499 1.0953796
1.8636999 -0.300363 1.0985818
1.86137 -0.33817902 1.080709
1.8605 -0.32534599 1.0840267
1.85991 -0.31084698 1.0869126
1.86143 -0.30008399 1.0890415
1.86317 -0.33670601 1.0677434
1.8585601 -0.323948 1.0742165
1.86084 -0.31206399 1.0762877
1.86264 -0.30072901 1.0767242
1.86115 -0.324599 1.061323
1.8611799 -0.31062499 1.0652734
1.85681 -0.29787999 1.0695
1.8626199 -0.32648998 1.0495377
1.86195 -0.311755 1.0522386
1.8610001 -0.29846999 1.0569385
1.8580999 -0.32259601 1.0427244
1.8675599 -0.312177 1.0377762
1.8740801 -0.29805902 1.0374267
1.88815 -0.28706801 1.0316637
1.8625 -0.30722401 1.0314999
1.86659 -0.29491299 1.0319028
1.88217 -0.28651801 1.0250942
1.8626801 -0.30953601 1.0200821
1.8659101 -0.294723 1.0225434
1.8813499 -0.28484499 1.0137919
1.8603799 -0.293502 1.0129352
1.85726 -0.322505 0.99739569
1.85483 -0.30632001 1.0031865
1.86243 -0.295663 0.99926215
1.8718201 -0.283999 0.99666071
1.8522099 -0.32301399 0.98824888
1.8542999 -0.30794001 0.99158841
1.8624001 -0.29440901 0.98895144
1.8765199 -0.28389701 0.98268926
1.85218 -0.346843 0.97338605
1.8518699 -0.33610803 0.97552156
1.84769 -0.32064497 0.98105788
1.85867 -0.30794099 0.97729158
1.86571 -0.29394099 0.97596449
1.83681 -0.34422401 0.97133148
1.84199 -0.33342898 0.97052008
1.84164 -0.357667 0.9556312
1.8317 -0.34385201 0.96425635
1.8457 -0.33338699 0.95815015
1.82082 -0.351017 0.9615069
1.8483299 -0.34934503 0.94582695
1.90956 -0.33596697 1.258541
1.9584199 -0.306586 1.2392759
1.8979201 -0.34622699 1.2539279
1.9053199 -0.33520699 1.250682
1.9146899 -0.32287899 1.249577
1.9459801 -0.316515 1.236917
1.9428101 -0.300679 1.2403669
1.9627299 -0.48324099 1.194999
1.96469 -0.46870399 1.197457
1.89591 -0.34757099 1.24379
1.9029499 -0.33163601 1.24236
1.92239 -0.32203999 1.237345
1.9338001 -0.31286201 1.233116
1.9475701 -0.30413699 1.230455
1.96532 -0.297885 1.225415
1.88862 -0.360434 1.2334419
1.8907601 -0.34245899 1.235072
1.8980401 -0.32999 1.235106
1.91351 -0.32094502 1.231076
1.8848801 -0.35578701 1.224975
1.8835001 -0.33942002 1.228327
1.8973 -0.33013099 1.226372
1.9075999 -0.320467 1.222677
1.8300799 -0.42763197 1.2216589
1.8284199 -0.41574201 1.224183
1.83005 -0.40270001 1.225047
1.8530499 -0.393942 1.2181649
1.8783901 -0.373889 1.213457
1.88133 -0.357575 1.2151281
1.88331 -0.34222198 1.21893
1.8895799 -0.32831299 1.218666
1.9078799 -0.322007 1.209971
1.8217 -0.41183999 1.2213789
1.8246499 -0.40048999 1.22112
1.8405099 -0.39115298 1.2153709
1.8668801 -0.38416302 1.207217
1.872 -0.36835802 1.207137
1.8766299 -0.35380298 1.206993
1.8840899 -0.340572 1.208194
1.8960099 -0.32876801 1.204621
1.9086599 -0.322263 1.199698
1.82366 -0.41051102 1.214029
1.8393899 -0.40361699 1.207072
1.845 -0.38968399 1.2056279
1.85041 -0.37907398 1.2056019
1.86147 -0.36761799 1.202233
1.8696201 -0.354101 1.200312
1.87883 -0.34002101 1.198684
1.88937 -0.32874599 1.198117
1.89536 -0.31837401 1.1962581
1.8824 -0.44066399 1.16281
1.89489 -0.43124297 1.159471
1.85653 -0.37700501 1.193684
1.86809 -0.36554298 1.188913
1.87252 -0.35054198 1.189159
1.87815 -0.33664101 1.1888729
1.88386 -0.325928 1.190583
1.8960401 -0.31818199 1.184405
1.8977001 -0.460419 1.1458153
1.89862 -0.448149 1.1482799
1.91205 -0.43893397 1.143595
1.8753799 -0.37041801 1.173988
1.8713901 -0.35196301 1.179088
1.87556 -0.33712101 1.180161
1.8809199 -0.32336301 1.1808879
1.90048 -0.31865901 1.171894
1.90028 -0.450495 1.1405182
1.8762801 -0.33895501 1.169047
1.8798399 -0.32489398 1.1709629
1.88697 -0.313568 1.167783
1.87509 -0.35678399 1.156428
1.87895 -0.34247899 1.1566269
1.87849 -0.324352 1.160339
1.8891499 -0.31237802 1.155677
1.87222 -0.336153 1.1500418
1.87841 -0.32073298 1.1490728
1.8922099 -0.310469 1.1450657
1.8667901 -0.34718701 1.139938
1.8668 -0.33127898 1.1431572
1.87508 -0.320346 1.1393998
1.88078 -0.30823201 1.141067
1.9052901 -0.30509701 1.1296576
1.8673199 -0.349325 1.1281294
1.86481 -0.33170399 1.1334605
1.87186 -0.31952 1.1317229
1.8787301 -0.307996 1.1310455
1.89802 -0.30199701 1.1212889
1.86964 -0.35010502 1.1160605
1.8625101 -0.33381999 1.1241521
1.86708 -0.31838 1.1244478
1.8798599 -0.30629501 1.1186936
1.8963499 -0.30062598 1.1120865
1.8636301 -0.33252898 1.1135818
1.8685001 -0.316576 1.1118582
1.87423 -0.30405 1.1118778
1.8877499 -0.298053 1.1064057
1.86243 -0.330093 1.1033158
1.8671899 -0.31651801 1.1006891
1.8716701 -0.30367902 1.1033903
1.88446 -0.29670098 1.096468
1.8605701 -0.32671902 1.0931356
1.86494 -0.315539 1.0924872
1.8714501 -0.30387601 1.0913022
1.8853799 -0.296689 1.0855027
1.86264 -0.32658601 1.0797133
1.86615 -0.31594801 1.0823213
1.87024 -0.30452201 1.0803151
1.87954 -0.295306 1.0776057
1.86406 -0.32689399 1.0682113
1.86068 -0.313889 1.0736055
1.87603 -0.30548501 1.0666891
1.87911 -0.294792 1.0656472
1.85806 -0.32338101 1.0615419
1.8625901 -0.31265199 1.0626521
1.87229 -0.30336398 1.0580422
1.8776801 -0.29397699 1.0550863
1.85814 -0.323351 1.0491351
1.86174 -0.31285998 1.0524284
1.86972 -0.30238399 1.0484185
1.8843499 -0.29573098 1.0403312
1.8604201 -0.32408401 1.036029
1.8622099 -0.31297702 1.0406039
1.87129 -0.302064 1.0358728
1.87853 -0.293329 1.0338163
1.8598801 -0.32442299 1.0247062
1.86261 -0.312291 1.0281905
1.86808 -0.30077899 1.0274222
1.87414 -0.291814 1.0259099
1.8589599 -0.324442 1.0149453
1.86448 -0.314619 1.0141288
1.86701 -0.300814 1.0174744
1.8688 -0.289821 1.0181402
1.85782 -0.32339099 1.0046512
1.86026 -0.29961202 1.0103267
1.8687199 -0.29047 1.0069436
1.85663 -0.324193 0.99401212
1.86069 -0.31326202 0.99365234
1.86046 -0.29879901 0.99943489
1.86696 -0.28905198 0.99560791
1.85228 -0.32455897 0.98429197
1.85695 -0.312273 0.98329622
1.86324 -0.29916701 0.98545396
1.86274 -0.30037701 0.97427016
1.84166 -0.353035 0.95909423
1.8073599 -0.36786598 0.96240544
1.81067 -0.35719699 0.96421158
1.8240499 -0.350178 0.95956886
1.79294 -0.36215198 0.96348238
1.80058 -0.35515499 0.96085352
1.8187 -0.35248002 0.95161599
1.79775 -0.35681999 0.95202398
1.9060401 -0.345029 1.267965
1.91474 -0.33378398 1.2679499
1.9006701 -0.34100699 1.261027
1.90693 -0.32978401 1.2620929
1.9265199 -0.32327899 1.2543499
1.95533 -0.46216097 1.20925
1.8980099 -0.34184897 1.2520299
1.9075799 -0.32758999 1.251716
1.9255201 -0.31857598 1.244779
1.93784 -0.31182802 1.24054
1.8968101 -0.34472001 1.241092
1.90424 -0.32867402 1.241221
1.9139 -0.315678 1.241594
1.9397399 -0.31150401 1.2319989
1.957 -0.30601901 1.226532
1.8856 -0.37213501 1.2304209
1.88529 -0.35362098 1.2334869
1.8905901 -0.33772302 1.234244
1.90596 -0.32829499 1.2288749
1.90474 -0.31312701 1.235598
1.87878 -0.39976501 1.216471
1.87918 -0.367039 1.2221019
1.88082 -0.34791499 1.225825
1.8920599 -0.33546299 1.223761
1.9009801 -0.32562697 1.2217779
1.90983 -0.31762201 1.2202849
1.81422 -0.414217 1.224501
1.8382801 -0.41477001 1.214829
1.83075 -0.397098 1.2219989
1.8453799 -0.387804 1.2199579
1.8699899 -0.38177502 1.2133809
1.87257 -0.36653998 1.2137899
1.87615 -0.34994999 1.215831
1.88477 -0.335976 1.217294
1.8959 -0.32405701 1.2141759
1.90974 -0.31746399 1.2100049
1.83518 -0.41431499 1.208903
1.8415101 -0.40220901 1.2082371
1.8488201 -0.38588601 1.210009
1.86143 -0.375379 1.208109
1.86871 -0.36289397 1.206127
1.8803301 -0.35044 1.2025909
1.88465 -0.335531 1.206998
1.8902099 -0.32183701 1.204762
1.90851 -0.31712902 1.2002521
1.8563299 -0.42454702 1.18731
1.86532 -0.41418201 1.1840709
1.86092 -0.39415002 1.1923109
1.8591599 -0.374742 1.199026
1.8724201 -0.36270902 1.1932039
1.88159 -0.34901002 1.1921699
1.8813001 -0.33317903 1.19784
1.88929 -0.32166901 1.194886
1.8960201 -0.31196401 1.194368
1.87018 -0.443122 1.166783
1.88403 -0.43828601 1.16195
1.8896401 -0.426144 1.161262
1.8678999 -0.378876 1.1827389
1.87705 -0.36557302 1.18002
1.87808 -0.349516 1.1834511
1.8839799 -0.33351398 1.185509
1.8888201 -0.31945699 1.186211
1.90071 -0.313007 1.180702
1.89222 -0.442606 1.1480253
1.8961301 -0.43174401 1.1487867
1.87035 -0.36511397 1.174114
1.8786399 -0.352734 1.172392
1.88148 -0.33630699 1.17462
1.8842 -0.31876498 1.1766829
1.89847 -0.31207299 1.171623
1.9005001 -0.44579801 1.1352848
1.90022 -0.43175998 1.1379831
1.87334 -0.36401799 1.162246
1.8752 -0.34697601 1.165288
1.8782099 -0.331745 1.166119
1.87731 -0.315918 1.1684489
1.8899499 -0.30851999 1.1652
1.8748599 -0.36467499 1.1498436
1.87052 -0.34382197 1.157141
1.86959 -0.32571 1.161148
1.8780299 -0.31454 1.1580269
1.8878399 -0.30667901 1.156185
1.87035 -0.36033797 1.1412852
1.8703799 -0.34515598 1.1452862
1.8671499 -0.32571301 1.1521109
1.8741901 -0.31384701 1.1482567
1.87837 -0.30270901 1.1507601
1.86798 -0.356619 1.1306939
1.86642 -0.34314099 1.1361618
1.86718 -0.32688999 1.1407208
1.8735601 -0.31486902 1.1377666
1.8772501 -0.303377 1.1389158
1.8681599 -0.355984 1.1198378
1.8663299 -0.34380901 1.1257575
1.8678399 -0.32840598 1.1286857
1.87147 -0.312682 1.1287494
1.87858 -0.302674 1.1265544
1.8614501 -0.34039003 1.1184242
1.8641901 -0.32506099 1.1191945
1.8700501 -0.31048301 1.1182529
1.8784801 -0.30189401 1.1170797
1.86842 -0.356435 1.0985661
1.85877 -0.33882099 1.10798
1.8665299 -0.32492501 1.1063945
1.8708501 -0.31128499 1.106009
1.87207 -0.29960698 1.1104565
1.86543 -0.35355899 1.0895007
1.85708 -0.33480901 1.0978646
1.86622 -0.32227501 1.0963626
1.86611 -0.30871499 1.0994414
1.87208 -0.30044299 1.098491
1.8639101 -0.352999 1.077502
1.8649899 -0.340864 1.0815276
1.86142 -0.32268003 1.0878799
1.86615 -0.30921701 1.0898391
1.87712 -0.30135199 1.0835453
1.86177 -0.339688 1.0719959
1.8639599 -0.32603499 1.07555
1.8680999 -0.30990899 1.0761161
1.87914 -0.29864299 1.0713389
1.8598599 -0.32171798 1.0671149
1.8655701 -0.308126 1.0670778
1.87397 -0.29722798 1.0648103
1.86657 -0.32632899 1.0504401
1.8635899 -0.30722401 1.0585235
1.8748599 -0.29544699 1.0538989
1.89546 -0.28933001 1.0437092
1.8639599 -0.32201999 1.0408388
1.86309 -0.30616301 1.0475563
1.8764999 -0.294763 1.0418985
1.89169 -0.285492 1.0358877
1.86378 -0.32273701 1.0303074
1.8619 -0.304764 1.0360512
1.87357 -0.291132 1.0326947
1.86069 -0.32064098 1.0220082
1.86443 -0.30880502 1.0219253
1.86866 -0.29390401 1.0232816
1.8832201 -0.283678 1.0182503
1.85791 -0.31571099 1.01153
1.8607001 -0.30206698 1.0140884
1.86571 -0.28893501 1.0157115
1.88674 -0.28452 1.0051188
1.8561701 -0.31777 0.99758047
1.86148 -0.304021 1.0013633
1.87137 -0.29212299 1.0015106
1.8830701 -0.284271 0.99545789
1.8546801 -0.32001799 0.98699957
1.85926 -0.30493701 0.98968232
1.8670501 -0.29181001 0.99200797
1.85098 -0.33327401 0.97531837
1.86511 -0.29057699 0.98114878
1.8494099 -0.34699002 0.96434152
1.9018899 -0.244164 1.2884439
1.9086599 -0.2308 1.2864439
1.90808 -0.241614 1.2844949
1.9089999 -0.254832 1.281026
1.9059199 -0.26979601 1.277342
1.8997099 -0.24785 1.274096
1.90694 -0.258935 1.2718339
1.9126401 -0.268949 1.270849
1.8982201 -0.26435199 1.261218
1.9130499 -0.27077299 1.262619
1.9013801 -0.29089898 1.2536809
1.90211 -0.280121 1.24871
1.91302 -0.29042101 1.2467669
1.8945301 -0.30913001 1.239007
1.90982 -0.29423901 1.2368
1.91694 -0.30360299 1.2362829
1.8993 -0.300405 1.2246569
1.9233 -0.304158 1.229019
1.93459 -0.3168 1.228766
1.9503399 -0.312592 1.223284
1.87975 -0.241262 1.29765
1.8938 -0.239135 1.2928349
1.88963 -0.25269401 1.288123
1.88622 -0.24434799 1.2824299
1.8945 -0.25443801 1.28117
1.9046899 -0.26285201 1.280923
1.89407 -0.25828302 1.272072
1.91047 -0.26509199 1.272447
1.90662 -0.26994401 1.261763
1.90842 -0.27872401 1.260381
1.90567 -0.28414401 1.249089
1.8905499 -0.293423 1.234598
1.90446 -0.30227101 1.234352
1.8987399 -0.32092097 1.2272539
1.91638 -0.29947901 1.230606
1.92538 -0.311277 1.228699
1.92178 -0.302136 1.221063
1.93988 -0.30882099 1.223124
1.94182 -0.30878401 1.2142119
1.9165199 -0.29997998 1.134184
1.9001499 -0.48112202 1.3125529
1.91203 -0.47462001 1.300465
1.90133 -0.467406 1.303517
1.9201801 -0.47142801 1.2878231
1.9102499 -0.46252701 1.291841
1.92351 -0.47114798 1.277593
1.91302 -0.46285599 1.281864
1.90377 -0.45088002 1.282681
1.92864 -0.470092 1.267275
1.91219 -0.461804 1.271781
1.90309 -0.44680402 1.271078
1.9574001 -0.298105 1.224093
1.93434 -0.29985601 1.232764
1.91627 -0.47063702 1.260669
1.9059 -0.46013802 1.2630709
1.8959399 -0.45096198 1.26508
1.89806 -0.43468398 1.261433
1.9333299 -0.31779 1.228424
1.94942 -0.29281798 1.2192321
1.91514 -0.470617 1.249341
1.9103799 -0.459351 1.2509559
1.8969501 -0.45045501 1.2560849
1.89429 -0.43204102 1.241203
1.8883799 -0.41792402 1.240948
1.88814 -0.418733 1.231353
1.8882401 -0.41448501 1.2196959
1.88506 -0.44008201 1.215693
1.87669 -0.426027 1.215643
1.8824899 -0.40409002 1.209151
1.87878 -0.43932 1.208053
1.8740401 -0.42401901 1.205395
1.87494 -0.40797198 1.2027739
1.87255 -0.397515 1.2032371
1.90584 -0.459598 1.189654
1.8927901 -0.45062199 1.193342
1.8766099 -0.43969798 1.1981579
1.87058 -0.42606202 1.1974521
1.86037 -0.41606799 1.199672
1.83367 -0.41584098 1.206388
1.84286 -0.39790002 1.1990069
1.91711 -0.45136002 1.1715779
1.8934 -0.451296 1.182996
1.88539 -0.43748599 1.1825579
1.8647599 -0.42843601 1.189968
1.83966 -0.42426997 1.198306
1.8305099 -0.41659501 1.200405
1.9223199 -0.44996601 1.158488
1.89412 -0.44851199 1.171365
1.8802 -0.43926299 1.174971
1.8689799 -0.42898601 1.1764989
1.85728 -0.41711602 1.179634
1.84229 -0.41118699 1.185699
1.913 -0.45683601 1.1541886
1.9000701 -0.447108 1.157172
1.88011 -0.43922299 1.165614
1.87475 -0.42561099 1.163015
1.86532 -0.41429698 1.16492
1.8595799 -0.40258899 1.165216
1.9010299 -0.463462 1.1511458
1.89442 -0.45000899 1.1493177
1.8796 -0.43913898 1.1537696
1.8672501 -0.426465 1.157009
1.8687601 -0.40887699 1.151334
1.8639101 -0.39771301 1.1512591
1.8970701 -0.46340197 1.1415848
1.8853799 -0.45169801 1.144019
1.88385 -0.43665001 1.1402488
1.87025 -0.425924 1.1448424
1.8663601 -0.41080001 1.1415657
1.86094 -0.397791 1.1408006
1.90449 -0.45714402 1.1273297
1.88499 -0.450901 1.1337709
1.87819 -0.43618301 1.1328255
1.867 -0.424977 1.1356213
1.8657001 -0.40806499 1.1305323
1.8571601 -0.396209 1.1316262
1.8479201 -0.39075199 1.1351486
1.89127 -0.445885 1.120373
1.8778701 -0.43877399 1.1239816
1.8720399 -0.42352298 1.1224817
1.86388 -0.40942901 1.1200451
1.85641 -0.396709 1.1222336
1.8490801 -0.38847101 1.1250786
1.8750399 -0.43566298 1.1133976
1.8704 -0.42169103 1.1118298
1.8680701 -0.406609 1.1069027
1.85594 -0.39740899 1.1116421
1.8513299 -0.38683701 1.1136032
1.8850999 -0.42682099 1.0936791
1.87184 -0.42009699 1.099894
1.86657 -0.40719399 1.0984379
1.85874 -0.39579299 1.0988607
1.84937 -0.388046 1.103639
1.89379 -0.42139399 1.0771073
1.88235 -0.41448897 1.0824132
1.8654699 -0.40628201 1.0886645
1.85932 -0.39289901 1.0872236
1.8504801 -0.38653302 1.0916831
1.8719001 -0.404223 1.0738775
1.85813 -0.394555 1.0779428
1.85183 -0.38503602 1.0800389
1.8755901 -0.404309 1.0616341
1.8624099 -0.393608 1.0640153
1.85332 -0.38481498 1.0680873
1.8703901 -0.40309101 1.0534277
1.8661 -0.39038602 1.0503709
1.85307 -0.384525 1.0552806
1.8726401 -0.40187198 1.0419348
1.86245 -0.39048499 1.0411958
1.85103 -0.38401601 1.0454272
1.8758399 -0.39962199 1.0284997
1.86431 -0.38894403 1.0280488
1.85067 -0.38409802 1.035349
1.87203 -0.40123099 1.0180964
1.8591599 -0.39145303 1.0199344
1.8542501 -0.38202801 1.0219945
1.8648 -0.39019403 1.0068115
1.85331 -0.38223499 1.0102491
1.85835 -0.39031202 0.9987089
1.84986 -0.383028 1.000666
1.8642 -0.38861999 0.98518211
1.85189 -0.38222301 0.98841506
1.85966 -0.39112401 0.97575289
1.84807 -0.38446301 0.97913826
1.8572999 -0.39096501 0.96568292
1.84474 -0.38679901 0.97023666
1.85177 -0.39483798 0.95912093
1.8364999 -0.392836 0.96522379
1.9233201 -0.47150698 1.379265
1.93107 -0.48136398 1.366522
1.92205 -0.47248599 1.371249
1.9287699 -0.48283499 1.358418
1.9214799 -0.47284499 1.361908
1.9254601 -0.48329601 1.350491
1.9240199 -0.47090301 1.351331
1.9056101 -0.44729301 1.351783
1.92881 -0.48023102 1.3377359
1.91485 -0.473241 1.3441229
1.90797 -0.45991501 1.344921
1.9252499 -0.482261 1.329115
1.91528 -0.474078 1.33318
1.90848 -0.46054199 1.3356349
1.90514 -0.44396701 1.332248
1.90801 -0.48968101 1.3276989
1.9143801 -0.47567001 1.323992
1.9098599 -0.46126401 1.324173
1.90337 -0.44632703 1.322289
1.8994 -0.43292901 1.3244989
1.9117999 -0.48603299 1.317681
1.9148899 -0.47221401 1.3146671
1.90862 -0.459539 1.3135511
1.90496 -0.44447601 1.311378
1.89677 -0.43476897 1.3163229
1.9123501 -0.47147599 1.3048151
1.9122599 -0.45549801 1.301913
1.91251 -0.47119001 1.2937649
1.9068201 -0.461162 1.295773
1.90422 -0.44426799 1.2931629
1.9155999 -0.468236 1.282372
1.90369 -0.46073899 1.2858341
1.8916 -0.43496498 1.2856899
1.9100701 -0.31375 1.257103
1.91431 -0.30019701 1.254072
1.90847 -0.47089499 1.2751861
1.90503 -0.45982102 1.275226
1.89889 -0.44713601 1.275484
1.8910401 -0.43427399 1.276356
1.88939 -0.420333 1.2742
1.9071699 -0.317577 1.2508659
1.9157801 -0.469356 1.2608529
1.90546 -0.46040797 1.26542
1.8972701 -0.44854 1.265594
1.8895199 -0.43468103 1.267231
1.88949 -0.416298 1.2625619
1.91896 -0.32691699 1.238559
1.92014 -0.31347001 1.2382159
1.9104201 -0.470871 1.2542369
1.90334 -0.45883802 1.2563061
1.89188 -0.44797298 1.257592
1.88723 -0.43197301 1.257324
1.8863001 -0.41713002 1.255163
1.88243 -0.41972199 1.247581
1.8832899 -0.415712 1.235891
1.88299 -0.40080398 1.233714
1.87577 -0.423816 1.230059
1.88389 -0.40095198 1.223407
1.8819901 -0.38882598 1.222832
1.88368 -0.43621898 1.219713
1.87599 -0.42069501 1.2183659
1.87642 -0.40301499 1.215278
1.87968 -0.38948199 1.213843
1.8800101 -0.43583 1.210233
1.87463 -0.42237598 1.2088619
1.8684599 -0.408806 1.208963
1.8660899 -0.395648 1.2092119
1.9025799 -0.457463 1.193013
1.888 -0.44785598 1.1993159
1.87816 -0.43406799 1.200497
1.87181 -0.42137599 1.201152
1.85373 -0.415885 1.205941
1.8493899 -0.40325502 1.206266
1.86695 -0.383055 1.198324
1.9324299 -0.457353 1.171366
1.9109199 -0.45441699 1.178823
1.89175 -0.44719398 1.186756
1.8749499 -0.43908799 1.193563
1.86395 -0.42591703 1.194478
1.83196 -0.42312101 1.2066289
1.81575 -0.418504 1.212263
1.82929 -0.40091202 1.2058101
1.91105 -0.45292899 1.1678749
1.8960401 -0.44522202 1.174273
1.87428 -0.43872899 1.183665
1.86054 -0.428287 1.1842599
1.83033 -0.426184 1.1986719
1.8102299 -0.42196202 1.207287
1.79431 -0.41937697 1.213187
1.9048899 -0.458316 1.161243
1.9033 -0.44285098 1.1609321
1.8731599 -0.43950599 1.1728179
1.86307 -0.42591 1.172012
1.8458099 -0.42062101 1.1796579
1.80531 -0.42523998 1.203375
1.9012101 -0.45987099 1.1523229
1.89205 -0.44643798 1.154959
1.87165 -0.43682802 1.1616299
1.86244 -0.42470002 1.162215
1.8434801 -0.420508 1.170625
1.89472 -0.459052 1.1452659
1.88831 -0.44724202 1.1463965
1.8797799 -0.436876 1.1483719
1.86502 -0.427086 1.1525306
1.85054 -0.41730899 1.156291
1.8311 -0.41472998 1.166286
1.89148 -0.46309501 1.1365722
1.8839799 -0.447878 1.1385571
1.8737301 -0.43612 1.1413931
1.8615199 -0.42572603 1.1433368
1.8597599 -0.41046298 1.1398289
1.8463401 -0.40608898 1.1477047
1.89864 -0.456242 1.1229033
1.8880401 -0.446125 1.1253462
1.87045 -0.43642399 1.1320077
1.8656501 -0.420239 1.1298214
1.85586 -0.41070098 1.1317968
1.85307 -0.40152499 1.1334212
1.90704 -0.43442601 1.1051791
1.88003 -0.43256199 1.1158452
1.86194 -0.42478698 1.1223749
1.8590801 -0.410449 1.1208909
1.8499299 -0.40306899 1.1246762
1.88168 -0.429234 1.1034864
1.87319 -0.41901401 1.1057016
1.8580099 -0.41214401 1.1120788
1.8547 -0.40069598 1.110768
1.8941799 -0.41986302 1.0836954
1.87815 -0.415176 1.0916417
1.8589901 -0.40958402 1.1004021
1.84823 -0.40267602 1.1034858
1.8822399 -0.41255701 1.0781465
1.8599499 -0.40923598 1.0886865
1.85078 -0.40124297 1.0925626
1.86297 -0.40758801 1.0761135
1.8493401 -0.40235999 1.0828702
1.8663499 -0.40567699 1.0633198
1.84532 -0.404365 1.0740644
1.86411 -0.40649301 1.0544428
1.84905 -0.40292302 1.0604213
1.85826 -0.407594 1.0484802
1.9182 -0.464194 1.345675
1.94946 -0.48429599 1.3270841
1.9290601 -0.47424999 1.3340449
1.9149899 -0.463045 1.337633
1.93341 -0.47373402 1.322369
1.91429 -0.46586299 1.3193409
1.9071499 -0.45210499 1.3185459
1.90957 -0.46364897 1.310757
1.9005499 -0.45373902 1.3117639
1.9044 -0.46313703 1.302056
1.90272 -0.45155799 1.3010761
1.9005499 -0.43867502 1.3001699
1.90619 -0.46092302 1.2909149
1.89504 -0.45396 1.2946359
1.8975199 -0.43891898 1.291628
1.9056599 -0.460706 1.279981
1.9015199 -0.45020801 1.282452
1.89311 -0.44003701 1.284279
1.8915801 -0.4271 1.2823911
1.91041 -0.29877001 1.252651
1.9078101 -0.46071202 1.268904
1.8989199 -0.451846 1.273005
1.8934599 -0.43933201 1.275486
1.8934 -0.42311299 1.271341
1.9147301 -0.30958501 1.2443889
1.9099001 -0.29955602 1.246065
1.90897 -0.46018502 1.259522
1.89773 -0.452907 1.2629429
1.89105 -0.43894699 1.265481
1.91631 -0.31113398 1.2365379
1.9136901 -0.29951501 1.236799
1.9205201 -0.283593 1.2329179
1.90576 -0.460621 1.25099
1.8900599 -0.424703 1.2530789
1.93014 -0.30728099 1.222331
1.88666 -0.42477 1.244959
1.88579 -0.42387402 1.235685
1.88422 -0.41039699 1.22304
1.88248 -0.39312801 1.221555
1.88052 -0.38016701 1.2205559
1.8866401 -0.42555001 1.215361
1.8769901 -0.41363499 1.215989
1.87886 -0.396981 1.213219
1.87622 -0.38167301 1.2118449
1.9409699 -0.46417198 1.1870669
1.89045 -0.43925598 1.205441
1.88062 -0.42513001 1.20793
1.8721299 -0.412723 1.207911
1.8736399 -0.393884 1.2051159
1.87457 -0.37975299 1.2028329
1.89894 -0.45154399 1.1944189
1.88693 -0.44101399 1.195876
1.8776801 -0.42760101 1.1989369
1.8635499 -0.41770899 1.202114
1.8615199 -0.40222001 1.200864
1.87067 -0.38154802 1.196126
1.92118 -0.45578998 1.172961
1.89568 -0.45155102 1.183978
1.8781799 -0.440292 1.189888
1.8664399 -0.42860499 1.1937289
1.84952 -0.42086497 1.200156
1.83146 -0.41589099 1.205448
1.8375101 -0.400722 1.20278
1.9116299 -0.45962003 1.167747
1.89491 -0.450914 1.173128
1.8792701 -0.44174498 1.1792099
1.86598 -0.430888 1.1843489
1.8455 -0.42378899 1.19335
1.81533 -0.42316601 1.2052929
1.81185 -0.41278598 1.20671
1.90446 -0.44945401 1.160388
1.88508 -0.44115299 1.165885
1.8672999 -0.43200803 1.173447
1.8453101 -0.42654899 1.184422
1.79318 -0.43007001 1.210641
1.89166 -0.45388001 1.1567329
1.88377 -0.44135103 1.1559839
1.87291 -0.43044898 1.1593831
1.8479201 -0.42833698 1.172605
1.8881199 -0.454721 1.1466037
1.87772 -0.44021901 1.1489186
1.8747301 -0.427791 1.1484888
1.85466 -0.42561099 1.157499
1.89368 -0.45271599 1.1327378
1.87932 -0.442691 1.1383396
1.86971 -0.42968801 1.1409535
1.85352 -0.42504001 1.1480112
1.89922 -0.46173501 1.1236138
1.8909801 -0.44901198 1.1238936
1.87511 -0.439547 1.1294262
1.86744 -0.42887101 1.1309743
1.85461 -0.42396399 1.1379824
1.90514 -0.44239497 1.1074435
1.88115 -0.43887001 1.1169108
1.8695199 -0.429627 1.1213655
1.85307 -0.424712 1.1297898
1.90071 -0.43103299 1.0985701
1.8844399 -0.42645499 1.1051961
1.84524 -0.42826802 1.1268921
1.88537 -0.42637298 1.0978255
1.9300901 -0.47377399 1.3301759
1.91922 -0.460439 1.2944599
1.90751 -0.449451 1.2972659
1.90073 -0.43838298 1.298522
1.90934 -0.450782 1.277342
1.89763 -0.43891799 1.280789
1.90233 -0.45227298 1.270831
1.90039 -0.43832803 1.2703409
1.9040401 -0.45067501 1.260597
1.8966099 -0.436142 1.2613521
1.89202 -0.424512 1.251631
1.8866 -0.411791 1.243912
1.8897001 -0.42418802 1.2334549
1.8899499 -0.42552799 1.2230201
1.88396 -0.41274503 1.225738
1.8828101 -0.39797297 1.22375
1.88192 -0.38214803 1.221756
1.8914399 -0.43675998 1.214173
1.8860899 -0.424707 1.2153239
1.88396 -0.41166601 1.215541
1.88034 -0.396299 1.214445
1.8792701 -0.38044301 1.212947
1.89086 -0.438959 1.204473
1.88291 -0.42491299 1.207719
1.8764 -0.41095403 1.209118
1.8722999 -0.39666402 1.207438
1.88043 -0.377891 1.2029519
1.89588 -0.44832698 1.19429
1.88709 -0.43915999 1.194876
1.88121 -0.42801601 1.198572
1.87395 -0.413679 1.2001979
1.86307 -0.400756 1.2009079
1.8761001 -0.38022202 1.1946319
1.8947001 -0.448746 1.182797
1.88115 -0.44058299 1.18882
1.8763901 -0.42792198 1.190253
1.86291 -0.41584301 1.1952119
1.84491 -0.40732899 1.200212
1.8611701 -0.38644901 1.191352
1.8960099 -0.44963601 1.171927
1.8829401 -0.43901598 1.178913
1.87694 -0.42754599 1.18041
1.86002 -0.42037299 1.1872619
1.82289 -0.411028 1.2025249
1.8406301 -0.39581698 1.193311
1.90385 -0.45014 1.158502
1.88511 -0.439758 1.167495
1.87181 -0.42957199 1.1738869
1.85523 -0.42392701 1.1785179
1.84409 -0.39019299 1.1809781
1.87125 -0.36605099 1.162851
1.8961301 -0.45220602 1.1519761
1.89765 -0.43741402 1.1515657
1.87043 -0.430915 1.16318
1.84872 -0.42656398 1.172509
1.85263 -0.38331401 1.164647
1.86528 -0.367762 1.1558139
1.8961999 -0.45218602 1.1424699
1.88835 -0.43973598 1.1458298
1.8739101 -0.43064702 1.1504422
1.84829 -0.427912 1.1638659
1.8432499 -0.38664901 1.1597229
1.8619299 -0.36991799 1.1485929
1.8679401 -0.35721299 1.1439582
1.89407 -0.46267399 1.1371717
1.8959 -0.44886699 1.1339442
1.88024 -0.440312 1.1395044
1.8747001 -0.43035901 1.1404622
1.8400301 -0.38664699 1.1521943
1.8615601 -0.36868599 1.1394707
1.8683901 -0.356264 1.1324031
1.88968 -0.44807801 1.126699
1.8798399 -0.43923199 1.1299675
1.8779401 -0.42974603 1.1277328
1.83601 -0.38742599 1.1464646
1.8550301 -0.36995801 1.1332824
1.87147 -0.35351899 1.119925
1.89353 -0.44430697 1.1130211
1.8814999 -0.43842801 1.1186767
1.87457 -0.431198 1.1203765
1.86131 -0.366036 1.1173457
1.8652 -0.35522202 1.1135907
1.89859 -0.43145502 1.0985937
1.8851401 -0.42748001 1.1058779
1.8532801 -0.369607 1.1101562
1.85929 -0.35783601 1.106517
1.89422 -0.423518 1.0915217
1.8351899 -0.386264 1.1124835
1.85416 -0.37014499 1.1000203
1.85432 -0.36025798 1.0990719
1.8901199 -0.42379901 1.0861127
1.8469299 -0.382608 1.0971795
1.8472301 -0.37342399 1.0936338
1.85195 -0.36112702 1.0896895
1.85201 -0.38084301 1.0842602
1.8564 -0.36890498 1.0780286
1.85144 -0.36013001 1.0795751
1.8514501 -0.38077998 1.0740747
1.85411 -0.36992902 1.068687
1.8539799 -0.35845003 1.0671177
1.85109 -0.380438 1.0633708
1.85788 -0.36710301 1.0560472
1.85235 -0.358096 1.0584506
1.85648 -0.37717602 1.0485281
1.8496499 -0.37045398 1.0507661
1.8544501 -0.35829499 1.0465683
1.85461 -0.377415 1.0393398
1.8537101 -0.36813 1.0385692
1.84813 -0.36032501 1.0395141
1.8556199 -0.366171 1.0271033
1.85692 -0.35468799 1.0228902
1.85271 -0.36495399 1.0166534
1.8578399 -0.352166 1.0121766
1.84332 -0.36879101 1.0107991
1.84953 -0.357198 1.0058088
1.84769 -0.36880001 0.99680567
1.84718 -0.35978001 0.99631506
1.86351 -0.39010501 0.97737807
1.84864 -0.381378 0.98677915
1.85588 -0.36707699 0.98187959
1.8423899 -0.36215302 0.98848993
1.85904 -0.394869 0.97188616
1.8530201 -0.38483799 0.97496909
1.84426 -0.373236 0.97908342
1.84229 -0.36191201 0.97651911
1.85297 -0.39695498 0.96751839
1.8452901 -0.38566798 0.96975136
1.83039 -0.376288 0.97541028
1.8431799 -0.360405 0.96588022
1.8438001 -0.39701998 0.96404749
1.83898 -0.38531399 0.96354312
1.8218601 -0.37910199 0.9699837
1.82895 -0.36598599 0.96527982
1.8255099 -0.38922501 0.96356177
1.8109399 -0.38229197 0.96880746
1.81752 -0.37020501 0.96316648
1.8125999 -0.371409 0.95878744
1.94267 -0.481217 1.332249
1.928 -0.46962398 1.318929
1.91536 -0.45875302 1.3151239
1.91321 -0.455228 1.295921
1.90169 -0.44616401 1.298923
1.91302 -0.45414299 1.285622
1.9075799 -0.45439997 1.2774169
1.89815 -0.44487098 1.280651
1.91136 -0.45630002 1.2647159
1.90248 -0.445564 1.269654
1.89456 -0.434562 1.273442
1.92015 -0.456871 1.251879
1.90402 -0.447496 1.259163
1.89553 -0.43018001 1.2535609
1.89086 -0.419339 1.243206
1.88354 -0.39209998 1.235343
1.87925 -0.38257301 1.236347
1.88737 -0.41859502 1.225333
1.8836 -0.39175498 1.2260801
1.89105 -0.43161201 1.215665
1.8850399 -0.41693902 1.215858
1.87985 -0.40554798 1.2178509
1.8766299 -0.395634 1.218792
1.8944501 -0.44325802 1.205765
1.88922 -0.43015301 1.20596
1.88238 -0.41764599 1.207019
1.8765401 -0.40583599 1.210103
1.8660899 -0.39787701 1.214018
1.9064 -0.43929401 1.189265
1.8947301 -0.43175802 1.194084
1.87828 -0.42241099 1.200493
1.8727001 -0.40818402 1.2010599
1.865 -0.39721099 1.2043589
1.9032 -0.43875599 1.180552
1.8837301 -0.43224201 1.190375
1.8696699 -0.42260301 1.194854
1.84981 -0.41296101 1.201755
1.85648 -0.399028 1.199329
1.8406799 -0.39265901 1.204608
1.90056 -0.441755 1.170303
1.88214 -0.432859 1.1817329
1.8556501 -0.42532003 1.192821
1.82772 -0.41717201 1.204729
1.84215 -0.40115899 1.197165
1.8517799 -0.38767397 1.188967
1.9060401 -0.45576 1.159421
1.8992 -0.444803 1.161142
1.88528 -0.43479902 1.1704201
1.84298 -0.42508301 1.192484
1.8450999 -0.39784199 1.186132
1.8544 -0.38532397 1.177444
1.8968899 -0.46024501 1.155394
1.89397 -0.446513 1.1538315
1.8896401 -0.43654001 1.157813
1.8493299 -0.39403701 1.173381
1.8551601 -0.384354 1.166858
1.89517 -0.457809 1.1464775
1.89368 -0.44572899 1.1440413
1.89157 -0.43638 1.1465518
1.85709 -0.391128 1.159153
1.8531799 -0.38470101 1.157864
1.9043 -0.45554698 1.1325094
1.9002299 -0.44277599 1.1313446
1.89047 -0.43607 1.1370654
1.85647 -0.39106998 1.1494169
1.8608 -0.38176101 1.1435425
1.90847 -0.440575 1.1200483
1.89349 -0.43467098 1.1269414
1.8601899 -0.389063 1.1367615
1.8636099 -0.37873 1.1309105
1.9057001 -0.43137401 1.1136162
1.8622099 -0.38731202 1.1244971
1.85997 -0.37836102 1.1240038
1.85695 -0.36695999 1.1233233
1.8641499 -0.34819499 1.1167705
1.8513499 -0.39029098 1.1207632
1.85394 -0.37907201 1.1176242
1.86235 -0.36050901 1.1110617
1.86883 -0.34479901 1.1063343
1.87077 -0.33445099 1.1023746
1.84892 -0.391619 1.112574
1.85163 -0.38121498 1.108168
1.85558 -0.36646703 1.104964
1.8615199 -0.34835601 1.0995876
1.8578501 -0.39033401 1.0965495
1.8539101 -0.37981799 1.0971547
1.85575 -0.36452401 1.0943509
1.85733 -0.35028499 1.0907187
1.8702201 -0.33354101 1.0816498
1.85349 -0.40215197 1.089842
1.85892 -0.39050201 1.0856384
1.8579299 -0.37738201 1.0847815
1.85832 -0.36287999 1.0826294
1.85611 -0.34933499 1.0815841
1.8660699 -0.39879599 1.0721542
1.85741 -0.38944697 1.076412
1.8573599 -0.376008 1.075747
1.85666 -0.36288798 1.0735624
1.86181 -0.34652197 1.0679736
1.8680201 -0.330571 1.0621308
1.8682699 -0.399432 1.0590162
1.8633 -0.38912103 1.0625153
1.8528999 -0.378212 1.0686369
1.8584 -0.361615 1.0618427
1.85928 -0.34551898 1.0582422
1.8611701 -0.39039099 1.0526941
1.8565199 -0.37656701 1.0551078
1.8582801 -0.35975102 1.0511676
