# .PCD v0.7 - Point Cloud Data file format
VERSION 0.7
FIELDS x y z
SIZE 4 4 4
TYPE F F F
COUNT 1 1 1
WIDTH 553
HEIGHT 1
VIEWPOINT 0 0 0 1 0 0 0
POINTS 553
DATA ascii
2.18771 -0.63590699 3.9880199
2.1981399 -0.64111602 3.9855201
2.2086701 -0.64415097 3.9778101
2.2067301 -0.64192802 3.95943
2.2102201 -0.65228498 3.9510901
2.2086 -0.64099902 3.9445601
2.2088299 -0.65333295 3.9316299
2.2093101 -0.64176202 3.9302702
2.21316 -0.65736604 3.91943
2.21521 -0.64450699 3.9200699
2.2312 -0.69071698 3.9282198
2.2282801 -0.67644602 3.91978
2.21578 -0.65738702 3.9084699
2.2142599 -0.64566201 3.9047501
2.23421 -0.69251502 3.9137602
2.2325201 -0.68001097 3.9067898
2.2260299 -0.66303998 3.90096
2.2337801 -0.69403803 3.8954902
2.2347901 -0.67991203 3.8924999
2.23317 -0.66614306 3.8900499
2.2369399 -0.69556898 3.8815501
2.2421501 -0.68238401 3.8839402
2.2443399 -0.67038298 3.8831
2.2428598 -0.68287694 3.8704598
2.2601099 -0.674218 3.8785999
2.2488699 -0.68396896 3.85882
2.2730901 -0.67697197 3.8760998
2.27338 -0.67666399 3.8664899
2.2371202 -0.68113196 3.81497
2.25804 -0.67516702 3.83042
2.23839 -0.68022698 3.80056
2.2460001 -0.67066598 3.8072801
2.2539399 -0.53430998 4.1064801
2.26331 -0.54139501 4.1004
2.2576401 -0.54858702 4.0873499
2.25472 -0.55496103 4.0735698
2.2625201 -0.564713 4.0673003
2.2646699 -0.58222002 4.0695896
2.25072 -0.56016898 4.06318
2.2607601 -0.56703603 4.05509
2.26794 -0.57907796 4.05159
2.2748499 -0.59310699 4.0500898
2.2639501 -0.68591499 4.11236
2.25823 -0.57127398 4.04247
2.2674301 -0.58068001 4.0371499
2.27105 -0.59626901 4.0394001
2.2744701 -0.61363399 4.0436897
2.2546601 -0.65824801 4.0896797
2.2557201 -0.67468804 4.0994802
2.27319 -0.67599505 4.0794902
2.2449601 -0.581545 4.0378699
2.2593 -0.58743799 4.0304799
2.26636 -0.600941 4.0295601
2.2720101 -0.616687 4.0304399
2.26052 -0.66898805 4.0735402
2.2376199 -0.58684802 4.0301099
2.24997 -0.592875 4.0222902
2.25915 -0.60638201 4.0215702
2.26805 -0.62124699 4.01791
2.2665401 -0.64144206 4.0314898
2.25999 -0.66540498 4.0541701
2.2365401 -0.60328501 4.0234499
2.2492101 -0.61167699 4.0148201
2.2618699 -0.621746 4.0087099
2.25982 -0.64377505 4.0191002
2.25772 -0.66253096 4.0346699
2.3180299 -0.65219003 3.96264
2.2391701 -0.62109101 4.0122199
2.2514799 -0.63121104 4.00456
2.2567399 -0.64655995 4.0044799
2.2580001 -0.66021401 4.01333
2.3139701 -0.65369004 3.9549398
2.32359 -0.66980398 3.9553101
2.24892 -0.633883 3.9923401
2.2559299 -0.64493299 3.99
2.2575102 -0.65905297 3.9934602
2.3124499 -0.65374601 3.9429901
2.2467101 -0.65324998 3.98543
2.2578001 -0.65903699 3.9729099
2.24997 -0.65371495 3.96292
2.2611001 -0.65826899 3.95081
2.24982 -0.65470296 3.9447298
2.26582 -0.656048 3.9279401
2.26706 -0.65552199 3.9110999
2.2883101 -0.65801299 3.8945
2.3005099 -0.67092597 3.8910902
2.3051 -0.68365097 3.8907001
2.2704699 -0.65394402 3.8917098
2.2865899 -0.66191703 3.8799398
2.2904601 -0.68012202 3.8863699
2.2893 -0.69580001 3.8947101
2.2720799 -0.65141404 3.8724601
2.2869999 -0.65765601 3.85936
2.2908399 -0.67451203 3.8678401
2.2900801 -0.69118899 3.87797
2.2721801 -0.64859301 3.85396
2.2834001 -0.656838 3.8459001
2.2828 -0.67576402 3.8591101
2.2667201 -0.65136099 3.84323
2.27842 -0.65828794 3.8348401
2.2653201 -0.65127999 3.8259399
2.2701299 -0.66037399 3.8234799
2.25156 -0.64522499 3.81497
2.2597399 -0.65302396 3.8143299
2.2533998 -0.669532 3.82582
2.2502902 -0.64358801 3.7992599
2.2540801 -0.653359 3.8021798
2.2424898 -0.64657205 3.7906201
2.2437601 -0.65729105 3.7952499
2.2651801 -0.54519701 4.1079903
2.2488799 -0.54003698 4.10361
2.25493 -0.55162698 4.1017699
2.2462199 -0.55609697 4.0953503
2.2536199 -0.56723803 4.0890298
2.2466199 -0.55843198 4.0740099
2.25439 -0.56830603 4.0681801
2.26336 -0.57960999 4.0622196
2.2396898 -0.56379104 4.0657802
2.25664 -0.57042301 4.0503101
2.2674699 -0.581092 4.0422101
2.2705901 -0.594181 4.0437298
2.25754 -0.68176901 4.1020298
2.23171 -0.56669402 4.0619798
2.24857 -0.57333899 4.0457597
2.26194 -0.58257598 4.0349898
2.2669001 -0.59741598 4.03332
2.2630701 -0.61643702 4.0434899
2.24982 -0.67368895 4.09093
2.2616701 -0.67737901 4.0770001
2.2519701 -0.59210199 4.0327396
2.2574799 -0.605003 4.0299001
2.26529 -0.61549699 4.0257001
2.26528 -0.63445598 4.0316901
2.2507 -0.67192101 4.0722699
2.2642 -0.67384696 4.0541501
2.2551899 -0.60984302 4.01753
2.25756 -0.624659 4.0206599
2.2601299 -0.64171797 4.0228701
2.25489 -0.66369003 4.0433598
2.2677698 -0.67032099 4.0297699
2.24509 -0.61812001 4.0116501
2.25296 -0.628151 4.0083899
2.2507401 -0.64848101 4.0177097
2.2586401 -0.66103995 4.0198302
2.2739899 -0.66715503 4.0025601
2.2432299 -0.63298696 4.0030799
2.2523699 -0.64393502 3.99651
2.25633 -0.66188794 4.0040898
2.2797301 -0.66358596 3.97772
2.29337 -0.667983 3.9679301
2.2381699 -0.63801301 3.9913502
2.2455702 -0.64779902 3.9846399
2.25437 -0.66099298 3.98701
2.27384 -0.66651297 3.96788
2.2885799 -0.672324 3.95767
2.2328999 -0.64151198 3.97894
2.2380099 -0.65095496 3.9756601
2.2469001 -0.66116697 3.97437
2.2851 -0.66422796 3.9393499
2.2913799 -0.67200994 3.93751
2.2305601 -0.64189005 3.9623001
2.23612 -0.65208799 3.9626999
2.2417099 -0.66071099 3.9583802
2.2883701 -0.66194803 3.9177101
2.29193 -0.67112702 3.9172101
2.2226601 -0.64493203 3.9534101
2.23118 -0.65267998 3.94923
2.2429099 -0.65895599 3.9378099
2.2802401 -0.66312897 3.9075899
2.2885401 -0.67269796 3.9031401
2.28269 -0.69063598 3.9161599
2.22808 -0.64078796 3.9302099
2.2356501 -0.65013605 3.92555
2.2516799 -0.65885901 3.91434
2.27721 -0.66379797 3.8931501
2.2796099 -0.68042803 3.9009399
2.2764001 -0.69601798 3.90991
2.2375 -0.634893 3.89995
2.24736 -0.64352602 3.8963501
2.25527 -0.65580398 3.89259
2.2767 -0.65925902 3.8725801
2.2748199 -0.682042 3.89241
2.2697401 -0.69996297 3.90589
2.2313099 -0.63608301 3.8864498
2.2428999 -0.64400804 3.8838501
2.2553201 -0.65360904 3.8738501
2.2707601 -0.66007203 3.8613501
2.28653 -0.66267699 3.8500299
2.2271001 -0.63694 3.8747799
2.23595 -0.64599299 3.87202
2.2569399 -0.65185702 3.8536801
2.2688799 -0.66025704 3.8500199
2.2239199 -0.638735 3.8632097
2.2346101 -0.64712501 3.8552599
2.2511501 -0.65311599 3.8408301
2.2578001 -0.66450202 3.8447602
2.2534399 -0.64996397 3.82055
2.25424 -0.66406995 3.8303201
2.23489 -0.62918997 3.8137798
2.24124 -0.63973898 3.8132901
2.25495 -0.64782 3.8016198
2.2546601 -0.662615 3.8125298
2.23735 -0.62744302 3.7946
2.2439699 -0.63846296 3.79423
2.25207 -0.64882797 3.7881699
2.2494199 -0.66497594 3.8013
2.2295399 -0.630395 3.7841101
2.237 -0.640903 3.7852302
2.2514 -0.66247499 3.7820098
2.2660301 -0.55630296 4.08957
2.2453301 -0.539078 4.0927901
2.2557299 -0.54932803 4.08358
2.25892 -0.562693 4.0805998
2.23473 -0.55935502 4.09694
2.2506301 -0.56757498 4.0781898
2.2583501 -0.57968897 4.0695601
2.2680001 -0.59169602 4.0587697
2.25211 -0.57336199 4.0601902
2.2625999 -0.58148801 4.0498199
2.2683201 -0.59307599 4.0455198
2.27566 -0.60468501 4.0404301
2.2757599 -0.61894202 4.0459399
2.25387 -0.67496401 4.0991697
2.257 -0.586092 4.0408702
2.26472 -0.596591 4.0359402
2.27039 -0.60772699 4.0317597
2.2772701 -0.617818 4.0290298
2.2562301 -0.66094202 4.0695601
2.25616 -0.67185098 4.07723
2.2463 -0.591694 4.03618
2.2560601 -0.600339 4.0292802
2.26671 -0.61227399 4.0197501
2.27511 -0.62152898 4.0164299
2.2579699 -0.65635103 4.0465298
2.25614 -0.67028999 4.05967
2.2467201 -0.592902 4.0218201
2.2538199 -0.60516602 4.0157199
2.2558298 -0.62029499 4.0160503
2.2613499 -0.63405496 4.01791
2.25806 -0.65322995 4.02807
2.2579501 -0.66606104 4.0370898
2.3110001 -0.66157997 3.9695199
2.24751 -0.62479502 4.0118699
2.2564399 -0.63515699 4.00599
2.2574401 -0.65017599 4.0125399
2.25929 -0.66281199 4.0146699
2.3150599 -0.65983701 3.9529099
2.3192599 -0.667301 3.9514499
2.2430999 -0.64424002 4.00805
2.2535801 -0.65240097 4.0005798
2.2630301 -0.65999198 3.9893899
2.30742 -0.66210604 3.9468899
2.3073199 -0.67228895 3.9521301
2.2530401 -0.654338 3.9839499
2.26087 -0.66270202 3.9742899
2.3008502 -0.66193199 3.93384
2.30849 -0.67030501 3.9335001
2.2560899 -0.65509802 3.9620199
2.2759199 -0.65816599 3.94032
2.30303 -0.65953302 3.91258
2.2553301 -0.65660399 3.9453001
2.2781 -0.65690398 3.9193799
2.2969599 -0.66165298 3.9037499
2.3047199 -0.67151904 3.8999898
2.31304 -0.67945504 3.8946099
2.20193 -0.60770804 3.9503798
2.20753 -0.61733103 3.9473701
2.2154601 -0.62852103 3.9427199
2.2548499 -0.65404201 3.9258201
2.27037 -0.65722394 3.9086599
2.28809 -0.66516405 3.89729
2.2914801 -0.68094999 3.8995898
2.2825301 -0.70129097 3.91219
2.19874 -0.609837 3.94171
2.2156599 -0.61432803 3.92506
2.22471 -0.62471598 3.9207902
2.22997 -0.63791299 3.9202099
2.2536199 -0.64852697 3.9043899
2.2718499 -0.65774202 3.8902099
2.27863 -0.67377299 3.8926001
2.2789199 -0.69035602 3.8993101
2.27475 -0.70534897 3.9096301
2.1975501 -0.61061299 3.9273701
2.20754 -0.61772597 3.9196501
2.22158 -0.62611097 3.9101701
2.23754 -0.63750196 3.89695
2.2567399 -0.64767504 3.8835402
2.2735 -0.65504402 3.8701098
2.27981 -0.66725403 3.87251
2.2721801 -0.68830001 3.89061
2.2788999 -0.70074999 3.8926301
2.1891601 -0.61450297 3.92344
2.20456 -0.62054199 3.9105499
2.21997 -0.62936997 3.89747
2.23176 -0.63854003 3.88675
2.24596 -0.64770895 3.8771899
2.2665601 -0.65412104 3.86044
2.2750199 -0.66636598 3.85918
2.2160299 -0.63216501 3.8893299
2.23439 -0.64083803 3.87163
2.2500601 -0.64876801 3.859
2.2639999 -0.65722197 3.8466198
2.2672601 -0.66915601 3.8497601
2.2528999 -0.64834899 3.8403699
2.26406 -0.65542901 3.82722
2.25793 -0.67238295 3.84306
2.25284 -0.64912695 3.82199
2.26104 -0.65632796 3.81409
2.26266 -0.66736102 3.81809
2.2525899 -0.649571 3.80441
2.2521899 -0.66178596 3.8106101
2.2583501 -0.66950399 3.8052201
2.25067 -0.64889395 3.7873898
2.24914 -0.66244501 3.7975399
2.2571201 -0.66930002 3.7892599
2.2776101 -0.54506898 4.1118999
2.27931 -0.55556703 4.0928297
2.2497702 -0.53037399 4.1024599
2.2711501 -0.548509 4.0837898
2.2706001 -0.56305403 4.0860901
2.2558298 -0.54018301 4.0812798
2.26105 -0.55137199 4.0775099
2.2665401 -0.56475198 4.0747499
2.2623899 -0.58102202 4.08253
2.2543201 -0.55470103 4.0707903
2.2577698 -0.56711203 4.0687799
2.2583702 -0.58251899 4.07163
2.26177 -0.59728801 4.0692
2.2500901 -0.56041199 4.06179
2.2560999 -0.573228 4.0557699
2.26421 -0.58513999 4.04737
2.2711899 -0.59678102 4.0416002
2.2667 -0.61144197 4.0510402
2.25401 -0.67076302 4.0917997
2.25806 -0.58840197 4.0402203
2.2651 -0.59922796 4.0345001
2.2685201 -0.611215 4.03509
2.27426 -0.62326801 4.02881
2.2579899 -0.65729696 4.0620599
2.26104 -0.66656899 4.0645499
2.25999 -0.60301602 4.02561
2.2644701 -0.61447299 4.02426
2.2714701 -0.62683702 4.0168099
2.27036 -0.644629 4.02494
2.26051 -0.66470903 4.04809
2.2588301 -0.62045896 4.0135298
2.2648699 -0.63272899 4.0108299
2.26175 -0.648543 4.01687
2.26161 -0.66106498 4.0268497
2.2962101 -0.67132699 3.9791801
2.2498801 -0.62621498 4.0050797
2.25526 -0.63647902 4.0053501
2.2576799 -0.65021002 4.0035701
2.2616 -0.66105103 4.0074701
2.2897501 -0.67170304 3.9737899
2.2386599 -0.63155001 4.00494
2.2472901 -0.64090401 3.9984798
2.2571299 -0.65081495 3.98913
2.2634802 -0.66343004 3.9870598
2.2848399 -0.67070097 3.96311
2.2520399 -0.65473199 3.9815099
2.26209 -0.66527098 3.9703798
2.28618 -0.66805297 3.94238
2.2461801 -0.65982801 3.9702101
2.26561 -0.66279298 3.94733
2.2790499 -0.669927 3.93363
2.29146 -0.67815804 3.9242401
2.1758099 -0.58424801 3.9870002
2.1756599 -0.59511203 3.9895098
2.24314 -0.661066 3.9570599
2.26583 -0.66204906 3.9305201
2.2832301 -0.66864604 3.9126198
2.28702 -0.68202299 3.9124498
2.2813401 -0.69786698 3.92454
2.1690199 -0.58690798 3.9825699
2.1804202 -0.593068 3.9711099
2.18804 -0.60372001 3.9648898
2.2042398 -0.61441797 3.94872
2.2441599 -0.659841 3.94259
2.27054 -0.65910101 3.90466
2.2788498 -0.67190903 3.9001701
2.27581 -0.68979204 3.9119401
2.2779601 -0.70022398 3.9142401
2.16572 -0.589095 3.97157
2.17785 -0.59643 3.96099
2.1902499 -0.60686404 3.9487901
2.2051001 -0.61561799 3.93611
2.21838 -0.624017 3.9236801
2.2319801 -0.63724899 3.9134698
2.2520301 -0.64811999 3.8997698
2.2687399 -0.65800697 3.8882301
2.27966 -0.66834098 3.87988
2.2734399 -0.68730301 3.8980398
2.27053 -0.70181298 3.90833
2.1530199 -0.59433103 3.9723802
2.1758599 -0.598248 3.9492199
2.1837301 -0.60930401 3.9424701
2.19877 -0.61866701 3.9298801
2.22139 -0.62724203 3.90663
2.23841 -0.63763803 3.89466
2.2490799 -0.64977801 3.8876002
2.2703102 -0.65673697 3.8704901
2.2743101 -0.66810304 3.8690701
2.2728601 -0.68367898 3.8810599
2.1833999 -0.61105001 3.93138
2.2001901 -0.62222999 3.9145701
2.2138901 -0.63076997 3.90116
2.2322302 -0.63899702 3.8850501
2.24331 -0.65016997 3.8777099
2.26143 -0.65751702 3.8631299
2.26913 -0.66860497 3.8584499
2.2156501 -0.63118303 3.8873301
2.2269502 -0.64283097 3.87656
2.2386301 -0.65213799 3.8688002
2.2598901 -0.65788597 3.84693
2.26846 -0.66648597 3.8386199
2.2430799 -0.65190804 3.8477399
2.26227 -0.65685898 3.8257301
2.2675102 -0.66594005 3.82443
2.25068 -0.65007001 3.8210502
2.26054 -0.65647101 3.8092401
2.26578 -0.66551 3.8112099
2.2495699 -0.65019995 3.8041799
2.2609599 -0.65509599 3.7912202
2.2584901 -0.66736901 3.8018799
2.25263 -0.64739197 3.7825401
2.2529299 -0.658005 3.7855999
2.25983 -0.66516703 3.7817199
2.2811799 -0.55391401 4.0928102
2.27911 -0.56912303 4.08008
2.2671299 -0.54620099 4.0707598
2.2726099 -0.55834401 4.0704403
2.2741899 -0.57262498 4.0683899
2.2576499 -0.55147803 4.0675402
2.2661099 -0.56099802 4.06075
2.2651801 -0.57546002 4.0624599
2.2657099 -0.58871198 4.06533
2.25773 -0.56693 4.0557199
2.25929 -0.58013499 4.0549898
2.25804 -0.59380603 4.0561299
2.25791 -0.60423398 4.0605202
2.2504499 -0.58545703 4.0510302
2.25892 -0.59481001 4.0397701
2.2653799 -0.605555 4.03303
2.27932 -0.61897999 4.0165701
2.28245 -0.63391602 4.0173097
2.2855201 -0.644714 4.01794
2.33145 -0.65083504 3.97282
2.3346801 -0.66025102 3.9733398
2.2536199 -0.59900099 4.0322199
2.2623701 -0.60807401 4.0214
2.2639301 -0.62115002 4.0223498
2.27439 -0.63389701 4.0125599
2.2832 -0.64684302 4.0075397
2.3104401 -0.654001 3.9788599
2.3283901 -0.65955704 3.96087
2.25453 -0.61384302 4.0164299
2.26301 -0.62415701 4.00845
2.2632201 -0.63749903 4.0098701
2.2732201 -0.64795095 4.0025697
2.2932601 -0.65563202 3.98224
2.3151 -0.66197801 3.9591901
2.3130901 -0.67552298 3.9644001
2.2549698 -0.61508399 4.0008302
2.2525399 -0.62953901 4.0065498
2.2633901 -0.63987899 3.9954498
2.2688401 -0.65220702 3.9919198
2.28614 -0.65935099 3.9742999
2.31373 -0.66546202 3.9436998
2.3020399 -0.68170196 3.9605999
2.25546 -0.644095 3.9914498
2.2678301 -0.65343398 3.97858
2.2904999 -0.66176397 3.95362
2.3048699 -0.66927397 3.9372299
2.2980201 -0.68282205 3.9513001
2.2535698 -0.65571898 3.98419
2.29371 -0.661645 3.9312
2.3008599 -0.66893899 3.92149
2.29421 -0.68328905 3.9413998
2.29052 -0.66021895 3.91395
2.2978599 -0.66847199 3.9065499
2.30479 -0.67886496 3.9007599
2.1631799 -0.58480704 4.0055399
2.2772999 -0.65354401 3.9095199
2.29004 -0.65953499 3.89624
2.29615 -0.67069602 3.8948498
2.2882001 -0.68789703 3.9071
2.28545 -0.70321602 3.9138598
2.28741 -0.71652901 3.9141901
2.15204 -0.57557899 4.00383
2.16328 -0.58671904 3.9921501
2.1761401 -0.59689701 3.9803901
2.18419 -0.61124599 3.97366
2.20192 -0.62036097 3.95437
2.28004 -0.65135801 3.88889
2.2881401 -0.65931803 3.8801098
2.28332 -0.67636102 3.89395
2.2785599 -0.69508797 3.9045801
2.27563 -0.71099097 3.9126699
2.2739301 -0.72294998 3.9185998
2.14903 -0.57899797 3.9918702
2.1666601 -0.58944696 3.9746702
2.17488 -0.60179299 3.9698498
2.18855 -0.612001 3.9554701
2.2015901 -0.62190896 3.94279
2.2151802 -0.63099998 3.9299898
2.23118 -0.64135903 3.91326
2.2423301 -0.65248704 3.9037299
2.27982 -0.66016603 3.8720002
2.2771001 -0.67638099 3.88235
2.2728999 -0.69354898 3.89521
2.26965 -0.70995402 3.9041102
2.27159 -0.72216904 3.90803
2.1417398 -0.57819903 3.98682
2.15571 -0.59070402 3.97276
2.17154 -0.60311902 3.95788
2.1870599 -0.61503899 3.94238
2.2065101 -0.622724 3.9242802
2.21924 -0.63311499 3.9117098
2.2360499 -0.64321405 3.8948498
2.2564001 -0.652399 3.8775399
2.2727001 -0.66086996 3.8637698
2.2788 -0.67271101 3.8607299
2.2677901 -0.69477499 3.88538
2.15925 -0.60513902 3.9584
2.1765199 -0.616162 3.94013
2.20223 -0.62405896 3.9134901
2.21925 -0.635185 3.8966901
2.2293401 -0.64538199 3.88833
2.2413599 -0.65466499 3.8789098
2.26582 -0.66188002 3.8552999
2.27701 -0.67268896 3.8436801
2.2749 -0.68649298 3.8552301
2.1940601 -0.62436795 3.90978
2.2107201 -0.634139 3.89361
2.22439 -0.64739603 3.8817499
2.2437 -0.656165 3.8628602
2.26473 -0.663616 3.8389301
2.27843 -0.67204803 3.8266199
2.2354701 -0.65900099 3.8609099
2.2646301 -0.66397697 3.81954
2.2690401 -0.67573702 3.8210998
2.25757 -0.65434897 3.8069501
2.2645102 -0.664563 3.8053
2.2683098 -0.67601198 3.8061199
2.25123 -0.65477502 3.7994399
2.2562699 -0.66461301 3.7963901
2.2620499 -0.67902297 3.79759
2.2484801 -0.65493399 3.7876999
2.2581 -0.67776299 3.7845402
2.20035 -0.64593697 3.9765899
2.19751 -0.646056 3.96755
2.2004099 -0.64672202 3.9758599
