# .PCD v0.7 - Point Cloud Data file format
VERSION 0.7
FIELDS x y z
SIZE 4 4 4
TYPE F F F
COUNT 1 1 1
WIDTH 152
HEIGHT 1
VIEWPOINT 0 0 0 1 0 0 0
POINTS 152
DATA ascii
2.0050399 -0.36935398 0.55541599
2.0164199 -0.374695 0.54780596
2.00282 -0.36940899 0.54793698
2.01125 -0.37553599 0.53937298
1.99579 -0.370336 0.540254
2.0020599 -0.379668 0.53047097
1.98429 -0.373936 0.533158
2.00193 -0.38113499 0.52082396
1.9909199 -0.374064 0.52218401
1.99765 -0.38221902 0.51246697
1.9843299 -0.37466702 0.51302499
1.9895101 -0.38454801 0.50332999
1.9819 -0.376311 0.50426501
1.99071 -0.38523102 0.49210697
1.9968801 -0.38297001 0.481639
1.98748 -0.375218 0.48303199
1.98655 -0.386911 0.47533497
1.9861 -0.38580701 0.46437299
1.98551 -0.38639998 0.45443398
1.98166 -0.388394 0.44529
1.9779601 -0.39118198 0.43702796
1.97657 -0.390737 0.42792895
1.97259 -0.39118198 0.41800898
1.96776 -0.39358503 0.40824798
1.9744999 -0.389983 0.39532295
1.97076 -0.39199501 0.38619897
1.9722501 -0.39091802 0.37555
1.97545 -0.38967898 0.36450699
1.9734 -0.390668 0.35607201
1.9739101 -0.38988498 0.34593201
1.96797 -0.393563 0.33857101
2.0237501 -0.37024102 0.54483998
2.0338099 -0.37851399 0.53565097
2.0197999 -0.37071899 0.536309
1.9986701 -0.36813203 0.54140997
2.0304201 -0.38012299 0.52689999
2.0163901 -0.37179297 0.52817899
2.0064101 -0.36333001 0.53038198
2.0253201 -0.38140702 0.51801097
2.0095701 -0.37292302 0.52172601
1.9998699 -0.36542499 0.52163196
2.0223701 -0.38407698 0.50887197
2.01055 -0.37365001 0.51154697
2.0191801 -0.38354599 0.50118399
2.00073 -0.37680098 0.50320399
2.01407 -0.38710701 0.49263495
2.0008199 -0.37820703 0.49307498
2.0181599 -0.39902002 0.48337799
2.0088 -0.38927799 0.48333499
1.9907001 -0.38029301 0.48600399
2.01721 -0.40159801 0.47224098
2.0039301 -0.38984698 0.47374496
1.98875 -0.38002801 0.47681499
2.0141201 -0.40258598 0.463862
2.0015199 -0.39263001 0.46417198
1.9899601 -0.381396 0.46728599
1.99517 -0.39601898 0.45735896
1.9903901 -0.382723 0.45756996
1.9968801 -0.39484701 0.44730499
1.98 -0.38312399 0.45062697
1.9997901 -0.39495498 0.43620697
1.98694 -0.38385299 0.43886799
2.0041099 -0.409053 0.42778501
1.9895799 -0.39678001 0.42959797
1.98191 -0.38240299 0.42989898
1.99694 -0.40819499 0.41914898
1.98411 -0.39596698 0.421424
1.9847301 -0.38143799 0.41979799
1.9995301 -0.41143399 0.407976
1.98394 -0.400139 0.412817
1.9788499 -0.385028 0.41249999
1.9866099 -0.39831698 0.40085396
1.9772201 -0.40231097 0.392975
1.9721 -0.386805 0.39332694
1.97588 -0.39906201 0.38415101
1.96281 -0.38959 0.37847596
1.96459 -0.39025101 0.36698395
1.96575 -0.38792598 0.35580298
1.97163 -0.39989102 0.33579102
2.00912 -0.40889901 0.42591697
1.99614 -0.397874 0.42860997
1.97813 -0.38297099 0.43326199
2.0042999 -0.407996 0.41856298
1.9871899 -0.39660498 0.42270398
1.97504 -0.38361999 0.42489696
1.99683 -0.40835899 0.41083595
1.98248 -0.39586601 0.41510597
1.9994701 -0.409987 0.40028802
1.98215 -0.397475 0.40468499
1.9787101 -0.39894298 0.39477798
1.9827499 -0.39904499 0.38443297
1.97166 -0.38612801 0.38671097
1.9746499 -0.40050399 0.37803298
1.97427 -0.398871 0.367966
1.9679201 -0.39967602 0.35165796
1.96372 -0.38889599 0.33208597
2.00845 -0.37845501 0.51377398
2.0133901 -0.37974998 0.50554496
1.98857 -0.37168801 0.51250601
2.0085001 -0.381749 0.49864596
1.9987199 -0.37016401 0.50141299
2.0199099 -0.39035597 0.48799396
1.999 -0.38079101 0.492939
2.0037801 -0.38292599 0.48203796
2.00051 -0.38462201 0.47284198
1.99323 -0.383735 0.46548396
2.0093501 -0.39344898 0.45365596
1.99286 -0.38548499 0.45607698
2.0025101 -0.396548 0.445593
1.98475 -0.38514802 0.44953197
2.0000401 -0.39938203 0.43618897
1.9896001 -0.38783199 0.43881699
1.9882801 -0.40191701 0.43055397
1.97764 -0.38806301 0.432282
1.98629 -0.40121201 0.42159697
1.97881 -0.38819 0.42209598
1.9824201 -0.400525 0.41328993
1.96829 -0.388648 0.416446
1.9872099 -0.403451 0.40260795
1.9773101 -0.38977402 0.40473998
1.98136 -0.40108001 0.39453796
1.9693201 -0.387954 0.39751703
1.98568 -0.40340599 0.38399896
1.96869 -0.39120302 0.38783601
1.97246 -0.390598 0.37688196
1.9663901 -0.39069501 0.36981499
1.9706799 -0.38897097 0.35864601
1.96584 -0.38948798 0.34992096
1.9652499 -0.39073601 0.34030601
2.03146 -0.39323002 0.51251101
2.03126 -0.39500198 0.50597399
2.02442 -0.40296599 0.50446796
2.02877 -0.40332803 0.49880698
1.98183 -0.37923801 0.56069201
1.98611 -0.38012901 0.553321
1.9957299 -0.38272202 0.547077
2.0407898 -0.379852 0.53868598
2.0265 -0.38523602 0.53825796
2.03719 -0.38841203 0.53232998
2.0076602 -0.40160701 0.48260799
1.99868 -0.406941 0.47575599
1.9802001 -0.37830898 0.54305196
1.98277 -0.379776 0.53497195
1.99985 -0.38311401 0.52867299
2.01263 -0.38612401 0.52381796
2.0272601 -0.38924599 0.51922601
1.99554 -0.39201 0.51425999
2.0313201 -0.39225602 0.51193297
1.9991001 -0.39541802 0.506787
2.0123398 -0.398206 0.500664
2.01579 -0.40040901 0.493056
2.00407 -0.406174 0.48449898
