# .PCD v0.7 - Point Cloud Data file format
VERSION 0.7
FIELDS x y z
SIZE 4 4 4
TYPE F F F
COUNT 1 1 1
WIDTH 1724
HEIGHT 1
VIEWPOINT 0 0 0 1 0 0 0
POINTS 1724
DATA ascii
2.01408 1.02943 1.7080249
2.01863 1.01765 1.707526
2.0195301 1.0060199 1.7077451
2.01636 0.99597198 1.7117959
1.98131 1.0443801 1.709412
2.00578 1.03889 1.7024109
2.0164101 1.02872 1.6996289
2.02246 1.01747 1.699793
2.0305099 1.00969 1.696853
2.01667 0.99583 1.7041
1.99703 1.0460601 1.6976889
2.0096002 1.03956 1.693457
2.0213499 1.03151 1.6897529
2.0223398 1.0185399 1.692627
2.03297 1.01086 1.6886259
2.0253301 0.99907404 1.6936259
1.99909 1.0471801 1.688695
2.0117102 1.0411299 1.6851529
2.02038 1.0324 1.682868
2.02791 1.02096 1.6825811
2.03304 1.0106701 1.6823819
2.0378199 1.00368 1.681738
1.9928501 1.05512 1.682466
2.0019999 1.04941 1.6802539
2.01246 1.04158 1.6777649
2.0287399 1.0340899 1.673713
2.03508 1.0232199 1.672303
2.0330801 1.01089 1.6761209
2.04006 1.00429 1.6732479
1.99812 1.0574 1.674269
2.0004101 1.0493 1.6735018
2.0132999 1.04164 1.670331
2.02899 1.03396 1.666326
2.0378699 1.02416 1.6640109
2.0397201 1.01308 1.6666729
2.04035 1.00374 1.665615
1.99923 1.0486 1.6665109
2.0143201 1.0417501 1.6628709
2.0313201 1.03473 1.6583899
2.04109 1.02561 1.655771
2.0390301 1.01266 1.6594729
2.04567 1.00425 1.6562829
1.99804 1.04757 1.660291
2.02109 1.04392 1.6538119
2.03264 1.03536 1.6508631
2.04215 1.02705 1.6485668
2.0484099 1.01616 1.648736
2.05039 1.00388 1.6478459
2.0417101 0.99211097 1.6519259
2.01913 1.043 1.6470701
2.03846 1.03671 1.642365
2.0436099 1.02593 1.641909
2.05318 1.01571 1.6395819
2.04652 1.00052 1.642406
2.02562 1.04347 1.638275
2.04409 1.03722 1.634456
2.0531499 1.02842 1.631691
2.0529499 1.01636 1.632951
2.05951 1.0066 1.6317611
2.04654 0.99011397 1.6373169
2.03162 0.97603202 1.6427939
1.9862 1.04498 1.640353
2.01968 1.0441 1.632915
2.0383401 1.03737 1.6287259
2.05603 1.03131 1.6235859
2.0527401 1.01692 1.6258589
2.0615199 1.00642 1.6240729
2.05217 0.99193001 1.6286609
2.04054 0.97866303 1.6339029
2.02227 1.043 1.624956
2.0448198 1.0381501 1.620214
2.0657301 1.02229 1.614836
2.0612199 1.0087 1.617527
2.05757 0.99437898 1.6194699
2.0478899 0.98136497 1.6247721
2.0102301 1.03903 1.6214459
2.04037 1.03676 1.6147909
2.05671 1.02975 1.6099091
2.0599298 1.01823 1.610734
2.06179 1.00677 1.6102179
2.05744 0.99325204 1.6123348
2.0494599 0.98178101 1.616823
2.04301 1.03646 1.607244
2.0553999 1.03043 1.6030899
2.0617301 1.02045 1.602916
2.0682201 1.01079 1.601144
2.0646 0.99741203 1.6035559
2.0590301 0.98513901 1.606388
2.0462999 1.03591 1.5989439
2.05634 1.0296299 1.596315
2.06511 1.02064 1.594793
2.0686998 1.0087301 1.5942999
2.0625701 0.99432099 1.5976709
2.06002 0.98462999 1.599417
2.05709 1.03905 1.588055
2.06305 1.0307801 1.5882889
2.06919 1.021 1.5866569
2.0650301 0.99684304 1.5895929
2.0583901 0.98445702 1.5934501
2.0389299 1.04184 1.58513
2.0518 1.03795 1.582341
2.0576501 1.0297199 1.5828259
2.06477 0.99673301 1.582144
2.0657499 0.98800498 1.5844189
2.0573199 1.03951 1.575186
2.0570099 1.02924 1.5758979
2.06213 1.008 1.5760669
2.0728199 0.99953902 1.572907
2.0633299 0.98687398 1.577917
2.0599699 1.01894 1.5699399
2.0777299 1.0011799 1.564749
2.07074 0.98964202 1.56914
2.07019 1.02226 1.560623
2.07529 1.0116401 1.558749
2.0815601 1.00254 1.55694
2.08302 0.99437404 1.55905
2.07131 1.0214601 1.5533991
2.0867 1.00436 1.5498739
2.0838001 0.99499601 1.5513541
2.0862701 1.0048699 1.543803
2.076 0.99146497 1.54564
2.0738499 1.0191101 1.537563
2.07057 1.00906 1.540615
2.06569 0.98622298 1.541615
2.0774698 1.02057 1.529219
2.0767798 1.01018 1.531575
2.07342 0.99809301 1.5259889
2.0782299 1.00034 1.5180879
2.06969 0.98443705 1.521045
2.0581 1.04146 1.510857
2.0839601 1.03922 1.5073849
2.0894299 1.00578 1.5083619
2.0773199 0.98774004 1.512554
2.06005 1.04159 1.504518
2.0742998 1.03618 1.503109
1.93651 1.0441201 1.9151621
1.96589 1.01043 1.906801
1.93967 1.0424501 1.9048221
1.9619501 1.0001301 1.902697
1.93211 1.0410399 1.900616
1.9624699 1.03539 1.888648
1.94304 1.04194 1.889516
1.95076 1.03493 1.885389
1.98297 0.99372399 1.877148
1.93562 1.0411299 1.8852279
1.9559801 1.03502 1.874946
1.9361501 1.04118 1.8771451
1.97504 0.97606903 1.8648151
1.95275 1.04094 1.862446
1.98481 1.02658 1.8492529
1.95506 1.04014 1.853528
1.9717799 1.03459 1.846447
1.9876199 0.99089795 1.843609
1.95883 1.04092 1.8433411
1.97795 1.0357 1.8365769
1.98406 1.0273401 1.833745
1.94875 1.0395 1.83952
1.97631 1.03654 1.829368
1.9852999 1.02583 1.825799
1.9892999 1.01359 1.826803
1.97394 0.97563696 1.8370371
1.9801199 1.03684 1.8196689
1.9872999 1.0131301 1.819335
1.97903 0.998191 1.8239399
1.97287 1.04432 1.814968
1.98146 1.03728 1.8111639
1.98873 1.0285 1.8084259
1.9859101 1.01509 1.8107269
1.9828999 1.00155 1.814357
1.9786 1.04651 1.803504
1.99046 1.02801 1.8009681
1.97324 1.0470901 1.7980429
1.9819599 1.03834 1.7965
1.99695 1.029 1.7908499
1.9971001 1.0168 1.7905139
1.9960001 1.00525 1.793422
1.97058 1.0458 1.79237
1.9868801 1.03789 1.7875479
1.9919901 1.02697 1.7851059
1.96532 1.0439299 1.786608
1.98492 1.03816 1.780934
1.99278 1.02806 1.7769071
1.9955299 1.0164 1.77853
1.99763 1.00532 1.7769409
1.98879 0.99413496 1.78276
1.98385 1.03749 1.773739
1.99685 1.02914 1.7676998
1.99825 1.01705 1.7697859
2.0082002 1.0070601 1.7652249
1.9885499 1.0371801 1.7648649
2.0011201 1.0303 1.7589669
2.0085201 1.01965 1.7575479
2.0115199 1.0074401 1.7569879
2.00877 0.99644899 1.7595509
1.99067 0.98337603 1.767225
1.99095 1.03606 1.7563369
2.01215 1.03123 1.747879
2.0198801 1.0225 1.7463421
2.01666 1.01097 1.7484149
2.01162 0.99776 1.75138
1.9946201 1.03686 1.7472119
2.0120599 1.0327899 1.7402381
2.0182002 1.0218199 1.739453
2.0128601 1.00677 1.743168
2.00579 0.99456 1.747231
1.9927601 0.98346102 1.7522349
1.9991901 1.0395 1.737291
2.0167599 1.0336699 1.7316279
2.02479 1.02369 1.7287129
2.0209398 1.0106701 1.732592
2.01249 0.99770302 1.7381549
1.9869 1.0457901 1.733394
2.0063901 1.0418 1.7275059
2.0189199 1.03415 1.723724
2.0264599 1.02495 1.721055
2.0295899 1.0141799 1.7213659
2.0205801 1.00227 1.7271659
1.99379 1.04763 1.723876
2.01881 1.03396 1.716837
2.03 1.00445 1.715542
1.9915401 1.0474601 1.7167569
2.0269098 1.02386 1.706332
2.0262499 1.01107 1.7090241
1.9826801 1.04503 1.7132419
2.00914 1.04267 1.706127
2.0177 1.03382 1.702755
2.0324299 1.02632 1.6975009
2.03529 1.01457 1.697842
2.02947 1.00132 1.7014608
2.01068 0.987863 1.708427
2.00897 1.04136 1.6994159
2.02263 1.03413 1.6940171
2.03374 1.02455 1.6905761
2.0365899 1.0141799 1.6911149
2.0377901 1.00398 1.6913269
2.0194299 0.99011904 1.6993159
2.0137601 1.0412 1.690035
2.0344701 1.03635 1.682386
2.03756 1.01399 1.6845089
2.03337 0.99368596 1.687373
2.0122199 1.04213 1.682027
2.0323899 1.03838 1.675603
2.0376 1.02803 1.675246
2.04637 1.0163701 1.673799
1.988 1.0461299 1.6829059
2.01612 1.04386 1.6743199
2.03174 1.03688 1.669596
2.04211 1.0270801 1.666826
2.0427499 1.01546 1.6680341
2.0462899 1.00546 1.667798
1.9862 1.04611 1.678568
2.02196 1.0430501 1.666077
2.0328999 1.03627 1.6623989
2.0447199 1.02918 1.658739
2.0492201 1.01796 1.659146
2.0493801 0.99678302 1.661111
2.0234001 1.04258 1.6588401
2.0392399 1.03787 1.6535621
2.0474 1.02895 1.6516919
2.0536599 1.01827 1.650438
2.0599201 1.00792 1.648199
2.0225501 1.04223 1.6518289
2.0411201 1.0377899 1.646153
2.0516 1.02925 1.643618
2.0580099 1.01886 1.6422009
2.0602 1.00757 1.641342
2.0544901 0.99563003 1.6449749
2.0390501 0.98338801 1.6506701
2.02776 1.04337 1.642612
2.04807 1.03878 1.637668
2.0541799 1.02913 1.6357499
2.0605199 1.01845 1.6353589
2.0631199 1.00832 1.633794
2.0634 0.99761397 1.6356281
2.0427001 0.98371804 1.643432
2.0215199 1.04221 1.637414
2.0467901 1.03933 1.6309609
2.05902 1.03101 1.626719
2.0576501 1.0186 1.6295689
2.0636201 0.99780601 1.628595
2.0508299 0.98567098 1.6343579
2.02754 1.0426 1.62985
2.0481598 1.03852 1.62396
2.0617599 1.03178 1.6189489
2.0624299 1.01941 1.6208709
2.0654202 1.00888 1.620484
2.06868 0.99943602 1.619916
2.05654 0.98716903 1.625317
2.05196 1.0388501 1.6167909
2.0599298 1.03204 1.6131189
2.0678399 1.02264 1.611496
2.06849 1.00912 1.613431
2.0659699 0.997527 1.614436
2.0604 0.98670197 1.6161029
2.0567501 1.03891 1.608483
2.0649099 1.03223 1.605571
2.0662801 0.99654001 1.607933
2.05392 0.98235202 1.6111898
2.03251 0.96907204 1.617921
2.05724 1.03826 1.6016259
2.06745 1.0323501 1.598269
2.07265 1.02231 1.5966201
2.0705299 0.99874097 1.599619
2.0536201 0.982912 1.605001
2.04545 0.97205704 1.608353
2.0652599 1.04011 1.5927539
2.0694001 1.02292 1.5905828
2.07307 1.01176 1.5906501
2.07809 1.00195 1.591235
2.05896 0.98573798 1.596642
2.0445399 0.971766 1.601171
2.0664999 1.0319101 1.584805
2.06985 1.02088 1.5841581
2.07215 1.01052 1.5848129
2.0723801 0.99926805 1.5856949
2.05598 0.98264098 1.590627
2.0408399 0.969854 1.5951041
2.06845 1.03116 1.577562
2.0725501 1.02115 1.5768269
2.0683298 0.99786204 1.580156
2.06072 0.985654 1.58269
2.0409 0.97047305 1.5881059
2.07463 1.05136 1.568779
2.0624499 1.0322599 1.572157
2.0727201 1.02359 1.5711479
2.0722301 1.01132 1.5711
2.06674 0.99645698 1.574278
2.04123 0.97008204 1.5806251
2.06039 1.0405201 1.5669039
2.06181 1.03128 1.5652789
2.06863 1.02214 1.565799
2.0790701 1.0126001 1.5621289
2.03894 0.96925598 1.5750431
2.05864 1.0387501 1.560131
2.0682201 1.0217 1.55899
2.0833399 1.01388 1.554366
2.07972 1.00128 1.556762
2.03933 0.96940303 1.568732
2.07494 1.02404 1.550409
2.0847399 1.01457 1.547374
2.08583 1.00413 1.549201
2.0446301 0.97021598 1.5592179
2.08092 1.0245099 1.5422119
2.0578399 0.98234499 1.548844
2.0772901 1.02195 1.536734
2.0853901 1.0128399 1.535911
2.07125 0.99782503 1.5385879
2.0818899 1.0135701 1.5299921
2.07516 1.00051 1.5307419
2.0806301 1.0116 1.5228391
2.07476 0.99742997 1.524946
2.0828102 1.00082 1.5165908
2.0776401 0.98827797 1.512059
2.06861 1.04468 1.504024
2.0571899 1.0419101 1.4996039
1.9672199 1.01315 1.9011559
1.9875 1.0298899 1.8840461
1.93005 1.04611 1.8985089
1.95797 1.03684 1.8877679
1.94871 1.03721 1.8844169
1.9372001 1.03776 1.8817619
1.95727 1.03496 1.86543
1.95758 1.0346 1.8577839
1.96558 1.02759 1.854764
1.9628 1.03504 1.8487369
1.97044 1.0271701 1.8451278
1.98717 0.99558294 1.840121
1.98289 0.98264098 1.8425189
1.9654801 1.0346 1.84017
1.97572 1.02703 1.835004
1.9719501 1.03545 1.8293179
1.98007 1.0273 1.8250009
1.98435 1.01736 1.8242559
1.97509 1.03706 1.8188061
1.97611 1.02783 1.819387
1.983 1.01727 1.817397
1.9765601 1.0021499 1.82075
1.98151 1.03993 1.809082
1.9819299 1.02999 1.8100079
1.9826801 1.0186599 1.809176
1.9735899 0.98290497 1.8167599
1.9725599 1.03935 1.805629
1.9772999 1.02876 1.8039969
1.98703 1.01805 1.8003321
1.9767101 1.0387501 1.7970591
1.98137 1.02882 1.7950699
1.9897301 1.01808 1.7918091
1.99472 1.0067401 1.789361
1.9704601 1.0378801 1.7922349
1.98646 1.02917 1.785766
1.99194 1.01818 1.7836239
2.00159 1.0077701 1.7793289
1.99164 0.99517798 1.785256
1.9751199 1.03719 1.7825999
1.98964 1.02868 1.7777079
1.99584 1.01888 1.774812
1.99896 1.00736 1.7728909
1.9978501 0.99615097 1.7754889
1.98194 1.02874 1.772893
2.0019 1.01994 1.765062
2.0092599 1.0089 1.761745
2.0030601 0.99696195 1.766165
2.00195 0.98828501 1.768575
1.97544 1.0362101 1.7677939
1.98911 1.02915 1.7624359
2.00155 1.01959 1.757674
2.0120499 1.00896 1.7534329
2.0061901 0.99744397 1.7576699
2.0034699 0.98850703 1.760633
1.97216 1.03531 1.7616229
1.99611 1.0297899 1.752412
2.00981 1.0198799 1.746987
2.0150301 1.00862 1.7458209
2.0119801 0.99844599 1.7483259
2.0020499 0.98838896 1.753539
1.9986701 1.03012 1.7439909
2.0148699 1.0214601 1.737381
2.0133801 1.0092 1.7398279
2.01458 0.99925101 1.740849
2.0070701 0.98922503 1.743739
1.99401 1.0381 1.739238
2.00933 1.03168 1.732908
2.02018 1.0228601 1.728268
2.0177801 1.01064 1.7309179
2.01421 0.99858701 1.733706
2.00386 0.98811603 1.7373348
2.00527 1.0393801 1.7278991
2.01494 1.03232 1.723823
2.02228 1.02378 1.7209359
2.0249 1.01322 1.7211249
2.0235701 1.00126 1.722703
2.0152001 1.03177 1.7172
2.0218899 1.02211 1.7143021
2.0218301 1.0092601 1.715542
2.01806 0.99773902 1.717455
2.0060899 1.04017 1.7124929
2.0077801 1.03192 1.7124209
2.0260801 1.02449 1.7054989
2.02457 1.0119001 1.7068559
2.02634 1.00053 1.7081839
2.0134101 1.03221 1.703118
2.0209801 1.02253 1.700659
2.0295799 1.01186 1.6975709
2.0221801 0.99940699 1.7025479
2.02354 0.98884004 1.701017
2.00211 0.97772598 1.70898
2.0023301 1.0389299 1.699361
2.01582 1.0317501 1.695838
2.0283 1.0233799 1.6913269
2.0349898 1.01273 1.688593
2.03053 0.99964106 1.692287
2.0135899 0.97927004 1.698987
1.99909 1.03924 1.6932429
2.01385 1.03266 1.689243
2.0335801 1.0241799 1.682431
2.0372901 1.01306 1.6808839
2.03861 1.00265 1.6826661
2.0355 0.99114305 1.684088
2.0093899 1.04029 1.683472
2.02162 1.0329499 1.6793209
2.04057 1.02416 1.673134
2.0479801 1.0144 1.671788
2.03162 0.98892599 1.6776249
2.0211401 0.97973394 1.681868
2.0188 1.04065 1.6729199
2.0288999 1.0331501 1.670437
2.0383 1.02449 1.6666789
2.0422502 1.01359 1.6676309
2.0482399 1.00332 1.664494
2.0262198 0.98017901 1.6741229
2.0163698 1.04116 1.665754
2.02807 1.0339299 1.6639011
2.04129 1.02557 1.6585629
2.04146 1.01379 1.660697
2.05021 1.0044 1.657279
2.0483298 0.99339795 1.658524
2.0317299 0.98174596 1.6656839
2.01333 1.0412 1.6602401
2.02688 1.03478 1.6568149
2.0446601 1.02689 1.6506959
2.04987 1.0149 1.6505131
2.0458 1.00205 1.652755
2.0478301 0.99322802 1.651987
2.0409 0.98398596 1.655764
2.0113401 1.04064 1.654869
2.02953 1.03433 1.648827
2.05058 1.0256 1.642527
2.0571601 1.01573 1.641856
2.05619 1.00459 1.6427069
2.01457 1.04002 1.6469629
2.03493 1.03407 1.639904
2.0551701 1.02608 1.6343369
2.0550101 1.01528 1.6362649
2.0557401 1.00493 1.6350091
2.0578699 0.996548 1.6365908
2.01951 1.0397201 1.638783
2.03601 1.03468 1.633566
2.04758 1.0269899 1.6302938
2.0593901 1.01608 1.6272459
2.0645101 1.00572 1.625867
2.0620799 0.99767798 1.6283909
2.03672 1.03298 1.627586
2.0553999 1.0250599 1.621632
2.05917 1.01573 1.62079
2.05878 1.0055699 1.6208609
2.0616999 1.02665 1.61245
2.0580499 1.01517 1.6146381
2.0632 1.005 1.61291
2.0608201 0.99631202 1.614236
2.03441 1.0319999 1.6121299
2.0608299 1.02706 1.6059439
2.06408 1.01781 1.605563
2.0622702 1.0064399 1.6074539
2.06602 0.99676299 1.6062269
2.01455 1.03396 1.611765
2.0571601 1.0269899 1.6004199
2.0715699 1.01806 1.597332
2.06868 1.00616 1.598581
2.06831 0.99371696 1.598933
2.0385599 1.03466 1.5980649
2.0655499 1.01627 1.5924381
2.0726299 1.0057 1.590495
2.07143 0.99510801 1.5916929
2.0627902 0.983329 1.5942439
2.0483 0.97289705 1.598222
2.0281899 1.04091 1.5937891
2.0497401 1.03591 1.588215
2.06322 1.01773 1.585587
2.06675 1.0060099 1.5858539
2.07024 0.99621695 1.5858279
2.04246 0.97178495 1.593199
2.0346999 1.04225 1.5853571
2.0465801 1.0363201 1.5829669
2.0664101 1.01736 1.5777469
2.0619199 0.99385399 1.5810339
2.06001 0.98208505 1.582256
2.03671 0.96969801 1.5872679
2.02597 1.04278 1.579896
2.0456901 1.03592 1.576802
2.0650399 1.02686 1.5720689
2.07339 1.0177799 1.570172
2.06991 0.99500704 1.572302
2.03371 0.96904701 1.5819
2.01897 1.04335 1.575223
2.0372701 1.03756 1.5715089
2.06674 1.0171399 1.5653949
2.0669701 1.006 1.5659461
2.06622 0.99470901 1.5667748
2.03387 0.96886003 1.5756439
2.02209 1.04294 1.5692309
2.0485001 1.0369 1.5625299
2.0651801 1.02763 1.558373
2.0768402 1.01855 1.556379
2.0538099 0.97990197 1.562392
2.0364001 0.96841002 1.567379
2.0388601 1.04252 1.558717
2.05744 1.03571 1.5538831
2.0644901 1.0274401 1.5524299
2.07584 1.01834 1.550065
2.06512 0.99472398 1.5541149
2.0555401 0.98221999 1.556219
2.04087 0.96877801 1.559724
2.0801301 1.01922 1.5429709
2.0484099 0.97788697 1.5514319
2.0783701 1.01912 1.537567
2.0739601 1.0079399 1.537318
2.0696299 0.99523497 1.5386881
2.0197899 0.95283997 1.5513049
2.0739901 1.01796 1.5312289
2.0708702 1.00503 1.5318199
2.01963 0.95007497 1.545092
2.0767901 1.00888 1.524354
2.07477 0.995924 1.5244859
2.0813301 1.0074099 1.5165249
2.0820301 0.995776 1.516324
2.0697999 0.98317397 1.5199859
2.0888801 1.00899 1.508881
2.08465 0.99782503 1.509522
2.0724099 0.98394305 1.5129551
2.0484099 1.04513 1.5081298
2.07813 1.04056 1.503376
2.0755601 0.98460901 1.4997479
1.9015801 0.99898005 1.827099
1.9059399 0.99785006 1.8216079
1.93259 0.98748296 1.792511
1.92737 0.98835701 1.786428
1.91671 0.93451601 1.7771289
1.91282 0.99187696 1.770613
1.9244701 0.981399 1.760016
1.91634 0.99462098 1.761287
1.9225501 0.99725097 1.751192
1.94116 0.99971199 1.737528
1.94109 1.01097 1.7185899
1.94379 1.01149 1.7095649
1.94995 1.0107499 1.6980679
1.9548801 1.0111699 1.6883701
1.98578 0.99722803 1.66817
1.9615101 1.00992 1.6763809
1.98932 0.99713403 1.6586701
1.9688901 1.0094 1.665697
1.9888699 0.99627405 1.6495689
1.9488901 1.02448 1.662536
1.99437 0.99552399 1.6396469
2.00174 0.99588203 1.6176629
1.97157 1.00984 1.627359
2.00049 0.995763 1.609189
1.9982699 0.99657899 1.589736
1.98392 1.0091001 1.595296
1.9982699 0.99591696 1.58125
1.9921401 1.00648 1.583357
1.97491 1.00893 1.579223
2.0222399 0.97359395 1.5522361
1.97295 1.01124 1.56967
2.0303199 0.97132897 1.5399569
2.0183899 0.97574598 1.5342389
2.0244901 0.97495598 1.5236591
2.0266299 0.97558999 1.5142819
1.9436799 0.97989601 1.7526801
1.91619 0.99973297 1.757802
1.9525399 1.01729 1.66334
1.96534 1.01598 1.64105
1.9830999 1.01305 1.589503
1.93347 0.98405099 1.8659539
1.9331399 0.98528504 1.8582749
2.0447099 1.04986 1.619072
2.0362 1.04708 1.609331
2.0344501 1.04647 1.601236
2.0571101 1.0454201 1.6122459
2.0778799 1.0185701 1.6154579
2.0836501 1.00913 1.615661
2.0345199 1.04723 1.593599
2.0555201 1.0453601 1.603732
2.0640402 1.03774 1.6073771
2.07864 1.02986 1.611787
2.0830901 1.01808 1.611977
2.03406 1.04728 1.586271
2.0526099 1.04522 1.5946381
2.063 1.0373 1.598707
2.04195 1.0492901 1.5826199
2.0601602 1.04583 1.59123
2.03369 1.04932 1.5701081
2.0651901 1.04763 1.5862039
2.06656 0.99253303 1.576131
2.06464 1.04644 1.5778919
2.0718501 1.02633 1.575284
2.0773199 1.0163701 1.578429
2.0772099 1.00537 1.575404
2.0680001 1.03523 1.5679871
2.075 1.0276799 1.5699939
2.0750101 1.01639 1.5688019
2.06199 0.99001998 1.557343
2.05351 1.04589 1.5540199
2.0748301 1.0283799 1.5629059
2.07394 1.01525 1.559567
2.06548 0.99171698 1.5511999
2.0560899 1.0462999 1.546948
2.06674 1.03703 1.5516559
2.06669 1.0237401 1.55053
2.0613902 0.98942 1.5406549
2.04335 1.05124 1.5343089
2.06902 1.02504 1.5439839
2.0690899 1.01249 1.540049
2.0798299 1.0182099 1.537992
2.0724699 1.00234 1.531577
2.05251 1.0446601 1.521337
2.0791001 1.01689 1.529619
2.0787899 1.0045099 1.5259919
2.0710499 0.989402 1.5209739
2.0616601 1.03666 1.5170639
2.0780299 0.99327904 1.517572
2.0602901 1.03588 1.507901
2.08214 0.99409896 1.513618
2.05778 1.0455899 1.5001349
2.07482 1.03899 1.507728
2.0552299 1.04705 1.469745
1.9616001 1.00317 1.9087299
2.0376899 1.04928 1.585009
2.0538399 1.04363 1.592546
2.07178 1.0387 1.6004109
2.03035 1.05044 1.575386
2.0539 1.04531 1.587148
2.02634 1.05014 1.5667208
2.0464501 1.04502 1.5769739
2.0696099 1.0264701 1.5854939
2.0720201 1.01493 1.5843049
2.05193 0.97752899 1.5680679
2.04181 0.96529001 1.5611451
2.0475302 1.0439601 1.569684
2.07375 1.0396 1.5816001
2.0720301 1.02906 1.579253
2.07232 1.0162799 1.5773529
2.07532 1.0051399 1.578683
2.06759 0.99104899 1.572003
2.0496202 0.97490996 1.5609289
2.04722 1.04518 1.560748
2.0648801 1.03716 1.5702358
2.06809 1.02584 1.5686411
2.0725 1.01561 1.5696629
2.0503399 0.97443497 1.554704
2.05094 1.0439399 1.554068
2.0674698 1.02654 1.5604779
2.0729201 1.0158499 1.562131
2.0761099 1.0056 1.5626609
2.0719399 0.99402702 1.5590909
2.0585601 0.97917002 1.551198
2.04792 1.04454 1.544953
2.0647199 1.03627 1.553383
2.07145 1.0262101 1.555513
2.0689499 0.99151701 1.548574
2.04913 1.04644 1.5380599
2.0736899 0.99281001 1.543313
2.02689 0.95193297 1.510488
2.03947 1.05198 1.5264779
2.0739501 1.01466 1.538105
2.06635 1.00183 1.533049
2.06915 0.99186701 1.533421
2.0579 1.04658 1.5269181
2.0615401 1.0364701 1.526727
2.07581 1.01623 1.5303929
2.0737801 1.00326 1.529407
2.0696499 0.98976499 1.5251621
2.0587301 1.04544 1.518699
2.06387 1.03657 1.5201911
2.0704601 1.0272599 1.522674
2.0822201 1.01847 1.5256729
2.0783799 1.0059301 1.523388
2.0517399 1.0443801 1.506174
2.0824401 0.99611902 1.516825
2.0591002 1.03657 1.5009429
2.0799899 1.0290899 1.512567
2.08795 1.00822 1.5125459
2.0857201 1.03107 1.5067569
2.0571001 1.04511 1.4866159
1.9102299 0.99318606 1.767378
1.91821 0.98467398 1.7601849
1.9156101 0.99663001 1.759124
1.91787 0.98352301 1.750904
1.92484 1.0009301 1.747916
1.9372301 0.97730303 1.7366809
1.92584 0.98603898 1.7404
1.9246401 1.00042 1.738526
1.94464 0.97719401 1.724556
1.93694 0.98897696 1.72875
1.9439101 1.0066 1.7244738
1.9492 0.97806394 1.7146399
1.9389501 0.98870796 1.7186248
1.95084 0.97710699 1.705433
1.94493 0.99059504 1.7068731
1.9563401 1.00887 1.702366
1.9826199 0.97315401 1.6869
1.95472 0.97668505 1.69485
1.94512 0.98798698 1.6975479
1.94742 1.00251 1.695112
1.99045 0.96330297 1.676578
1.98561 0.97266001 1.678174
1.9564101 0.97517306 1.6849049
1.94721 0.98864001 1.6869569
1.94849 1.00237 1.685186
2.0060301 0.96847504 1.662864
1.9791901 0.97138 1.6706948
1.9561501 0.97918099 1.6754969
1.9485099 0.99028099 1.6773571
2.0055399 0.96678197 1.6529599
1.98227 0.97129995 1.659233
1.9618601 0.97902 1.6641901
1.95172 0.98897201 1.66698
2.00647 0.96705705 1.643698
1.98648 0.97212601 1.647687
1.9679899 0.98021698 1.6524409
1.9604801 0.99057001 1.654585
2.0014799 0.96578598 1.6350009
1.9816201 0.97176695 1.6389279
1.97392 0.98210502 1.641618
1.9645101 0.99267197 1.642347
2.0060201 0.96738297 1.6238739
1.98683 0.97268206 1.627759
1.9746001 0.98397905 1.631626
1.9766499 1.00335 1.6268469
2.0027201 0.96667296 1.6147361
1.98686 0.97273302 1.6185789
1.9810201 0.98647904 1.6189669
1.98228 1.02402 1.615629
1.99464 1.04598 1.6116569
2.0010099 0.96678597 1.60403
1.98672 0.97394997 1.6095439
1.9861 0.99113297 1.60638
1.99217 1.0264801 1.603994
1.9997001 0.96543604 1.5936689
1.9876699 0.975151 1.5980741
1.9888699 0.991355 1.59627
1.97513 1.00059 1.599424
1.97244 0.996719 1.588586
1.9781101 0.98578596 1.580056
1.97421 0.99717695 1.5773458
1.98663 0.97302198 1.5666251
1.9750301 0.99800402 1.5667149
2.0288401 0.95512003 1.5438499
2.00177 0.96123397 1.5436831
2.0039201 0.96073097 1.5329739
1.97089 0.99776101 1.5189319
1.9209599 0.98412496 1.757605
1.9198101 0.99586505 1.7571509
1.94013 0.97402 1.74437
1.9241099 0.98331398 1.748655
1.92063 0.99783796 1.7484399
1.94199 1.02042 1.741805
1.9467701 0.97412902 1.73428
1.9302001 0.98254997 1.738026
1.92459 0.997509 1.738747
1.93761 1.02001 1.733833
1.95172 1.04146 1.72884
1.9409 0.974868 1.727119
1.92884 0.98697698 1.729509
1.9268601 1.00188 1.729672
1.94201 1.0215 1.724527
1.9501899 0.976381 1.7156219
1.9379201 0.98725802 1.7180561
1.9295 0.99985701 1.7206399
1.97787 1.0457 1.708266
1.9699 1.05475 1.709482
1.95332 0.97687501 1.705386
1.9397 0.985636 1.70903
1.93661 0.997931 1.708234
1.95504 0.97781199 1.6954179
1.94206 0.98740697 1.699356
1.93785 0.99847198 1.696987
1.97113 0.97092402 1.680609
1.95798 0.97907901 1.6848509
1.94593 0.98944801 1.6884789
1.94128 1.00063 1.6862179
1.9742799 0.97094202 1.6704419
1.9583501 0.97858399 1.674731
1.9478301 0.99082494 1.677524
1.9441701 1.0021601 1.6769519
1.9796201 0.97243601 1.6604179
1.96312 0.97854799 1.664143
1.95839 0.99226302 1.6639929
1.947 1.00222 1.6675769
1.9777299 0.973212 1.651682
1.9604801 0.98008001 1.656039
1.96061 0.99351197 1.653306
1.95787 1.00642 1.6532789
1.98086 0.974935 1.639729
1.97304 0.98475802 1.6433079
1.9653599 0.99795502 1.6421039
1.9839301 0.97471499 1.628709
1.9752001 0.98561895 1.632014
1.9597099 0.99538004 1.6347229
1.9916099 0.97666395 1.6176579
1.97334 0.98245203 1.622471
1.9700799 0.997513 1.622869
2.0092499 1.05162 1.6135739
1.98324 0.97502798 1.610605
1.9728799 0.98486704 1.613447
1.97726 0.98646402 1.601524
1.96635 0.99828798 1.6038519
1.9819 0.98800695 1.588724
1.9699401 0.99842501 1.593533
1.98098 1.01449 1.5867649
1.9806 0.98797899 1.579144
1.97407 0.999924 1.58199
1.9875901 1.0172499 1.57459
1.9849401 0.97023803 1.570066
1.98183 0.98443604 1.570195
2.0172601 0.964854 1.550401
1.98727 0.97047305 1.5608189
2.0216 0.96353304 1.5395759
1.98543 0.971237 1.551083
2.0232201 0.96598101 1.528873
1.9727499 1.01316 1.5183319
1.90091 0.98903704 1.8479761
1.90162 0.98896599 1.8141699
1.9069999 1.00295 1.8097039
1.9063901 0.99171996 1.803196
1.9181399 0.99391699 1.790439
1.91213 1.00389 1.7899201
1.92041 0.99340898 1.7803619
1.9240601 0.97734499 1.7634239
1.9250101 0.99064499 1.7612779
1.9215199 1.00571 1.76112
1.92592 0.99250299 1.7525489
1.92452 1.00823 1.750219
1.93014 0.98046303 1.7450999
1.92662 0.994726 1.7425541
1.91752 1.0064499 1.743819
1.9320599 0.98360395 1.7335539
1.9324499 0.99568003 1.7328629
1.92513 1.00779 1.733865
1.94403 0.98478204 1.7202289
1.9298301 0.99465501 1.725531
1.9281501 1.00942 1.7235169
1.94892 0.98427498 1.71035
1.93604 0.99579501 1.714888
2.02143 0.974365 1.681965
1.99158 0.97870696 1.6895911
1.95515 0.98410898 1.6997659
1.93981 0.99642301 1.704615
2.0160499 0.97276706 1.675959
1.98897 0.97684699 1.6824789
1.9493201 0.99797302 1.691965
1.9436001 1.01337 1.69095
2.0186701 0.97322196 1.6663558
1.9912801 0.978787 1.6726609
1.9563 0.985618 1.6817209
1.94744 0.99963498 1.6821589
2.00699 0.970927 1.659086
1.9909599 0.97987801 1.6620799
1.9586 0.98727202 1.670992
1.95345 1.00384 1.670827
1.95127 1.01967 1.6701089
2.0144601 0.97264802 1.6462909
1.9934599 0.979213 1.652428
1.96755 0.98768306 1.658518
1.95393 1.00121 1.6613069
1.9498399 1.01595 1.662347
1.96147 1.03591 1.6576591
1.9382601 1.0447 1.661117
2.01896 0.97298503 1.6351379
1.9903301 0.97782701 1.6436771
1.9754699 0.98793101 1.648044
1.9645599 1.0021499 1.6482649
2.0169799 0.97237897 1.626875
1.9982201 0.97980201 1.6313339
1.97071 0.987674 1.6400819
1.96189 1.00098 1.63922
2.0056601 0.96978402 1.620414
1.9745101 0.98934799 1.629208
1.97317 1.00539 1.626889
1.96272 1.03222 1.628691
2.0136001 0.97140902 1.6086929
1.9977499 0.978953 1.612377
1.98369 0.99173701 1.6161139
1.9761701 1.03421 1.6147079
2.00723 0.97072798 1.6004889
1.9915401 0.98047501 1.6043199
1.9784801 0.99414802 1.6072119
2.0070601 0.970384 1.589718
2.0039599 0.981291 1.5914559
1.9831101 0.991633 1.595691
1.96734 1.00395 1.601362
1.96933 1.00304 1.591164
1.9987199 1.02593 1.574689
1.97571 1.00701 1.57749
1.9960201 1.025 1.569142
1.97539 1.00573 1.5675519
2.0106499 0.96616501 1.549907
1.97638 1.00468 1.5571219
2.0116301 0.96403295 1.5407128
2.0113201 0.96633697 1.530529
1.9764 1.03821 1.53517
2.0178301 0.96597099 1.5189929
2.01667 0.96742302 1.5100579
1.90134 0.97799796 1.856102
1.89191 0.99194199 1.8585629
1.9057201 0.983127 1.83663
1.91338 0.98481596 1.8171799
1.90625 0.99409401 1.819749
1.9122701 0.984227 1.8097739
1.91313 0.99431902 1.808898
1.91597 0.98447001 1.8010249
1.91678 0.99481499 1.798861
1.9153199 1.00551 1.7995011
1.91556 0.99521899 1.7900831
1.9117301 1.0057399 1.7911561
1.9216701 0.99540603 1.77987
1.9148599 1.0057499 1.7811741
1.9153399 1.0072399 1.7709121
1.91958 0.981924 1.7647569
1.92247 0.99828601 1.761501
1.9240199 0.98358804 1.753987
1.91908 0.99734002 1.754108
1.9300799 0.98426402 1.743175
1.92267 0.99778903 1.7454441
1.93507 0.98536301 1.73233
1.92521 0.999614 1.7352519
1.94743 0.98739195 1.7196069
1.93962 1.00094 1.722025
1.9413201 0.98723704 1.7123309
1.94221 0.99982697 1.7119859
1.94609 1.0292701 1.708094
1.9521401 0.98975801 1.700729
1.94139 1.00295 1.7036499
1.9527099 0.98979205 1.691286
1.94705 1.02017 1.691793
1.97113 0.98092002 1.6764209
1.95461 0.99101502 1.6816239
1.95418 1.00661 1.680324
2.0128999 0.97392797 1.6548059
1.98252 0.98021597 1.6633921
1.9560699 0.98825896 1.6722679
1.94801 1.0196199 1.673394
2.0002 0.97192496 1.650389
1.9822 0.98064005 1.655197
1.96297 0.99007696 1.6616049
1.95769 1.00374 1.660693
1.9532601 1.01902 1.661678
2.00488 0.97236902 1.6392419
1.98385 0.98038501 1.6458659
1.9648801 0.99119794 1.651904
1.95959 1.0065 1.6512849
1.9583 1.02285 1.649717
1.96516 1.03708 1.6476049
2.01247 0.97264701 1.627532
1.99222 0.98103797 1.633605
1.96735 0.99281198 1.6411799
1.9616901 1.00892 1.64168
2.0152099 0.97294801 1.6181479
1.97812 0.99307096 1.627287
1.9624699 1.00702 1.6326579
2.0086701 0.97272402 1.610423
1.9932899 0.98347098 1.613868
1.97474 0.99520302 1.6182871
1.96724 1.00809 1.6217279
2.0139301 0.97336197 1.599476
1.9801199 0.99473703 1.607787
2.00982 0.97239703 1.591783
1.99762 0.98124003 1.5927899
1.97184 1.00848 1.601436
2.0102201 0.97271699 1.5816429
1.97298 1.00867 1.590945
1.9848801 1.02347 1.584534
2.0392301 0.96223605 1.56006
1.9801401 0.99365997 1.5791349
1.97947 1.00921 1.577937
1.9959599 1.02543 1.5718559
1.9777 1.0086499 1.5677299
2.0106001 0.96684194 1.552319
1.9864399 0.97851598 1.558983
2.05548 0.94245499 1.5272529
2.0055099 0.96789002 1.543995
2.0313499 0.96768498 1.516035
2.0238299 0.96978897 1.5097309
1.9805701 1.0405 1.5183929
2.02634 0.96779096 1.5026801
1.9286301 1.05066 1.9082111
1.95041 1.03767 1.9127259
1.9555299 1.04573 1.908273
1.9666901 1.02359 1.9112799
1.96652 1.01367 1.911837
1.9614999 1.0021701 1.9109061
1.96606 1.0343699 1.90403
1.967 1.01087 1.9057319
1.96847 1.01091 1.8991619
1.9780999 0.96813101 1.86797
1.9706501 1.0415599 1.8412
1.96392 1.0461 1.8324311
1.9908201 1.0324401 1.8419831
1.9916201 0.99739802 1.8433059
1.97155 1.04484 1.829034
2.0033901 1.0181301 1.8400861
1.99623 0.99697405 1.8390659
1.98838 0.98829806 1.8369589
1.9837101 1.04225 1.825888
1.9969901 1.0304799 1.830021
2.00125 1.0179 1.8325049
1.99222 0.99690497 1.8320529
1.98264 1.05015 1.81818
1.9861301 1.04055 1.8197339
2.0071499 1.01626 1.827402
2.00705 1.00632 1.828382
1.9768201 1.05127 1.8083271
1.98526 1.04205 1.8124789
1.99734 1.02999 1.8172629
2.0055299 1.0178399 1.82056
2.01175 1.0071399 1.8237131
2.00049 0.99833798 1.819979
1.99334 0.98859102 1.817903
1.98418 1.0427101 1.8059061
1.99349 1.0319 1.8098059
2.0046699 1.0078 1.814265
2.0025001 0.995435 1.813024
2.00387 1.02802 1.807296
2.0076101 1.01685 1.8077399
2.0083799 1.00521 1.8078119
2.00739 0.99493301 1.8082249
2.01209 1.0146099 1.8017169
2.0134399 1.00495 1.8031509
2.00741 0.99556899 1.8019681
1.97324 0.97772795 1.7903039
2.01441 1.01495 1.7953699
2.0137899 1.0044 1.796893
2.0116 1.0171601 1.7879779
2.0085099 0.99441004 1.7882719
2.00668 0.98415399 1.787973
1.9803101 0.97704595 1.778953
2.0149899 1.02362 1.7828889
2.01213 0.99392998 1.782904
2.00857 0.98449796 1.7823319
1.97755 0.97613096 1.771116
2.0213299 1.00446 1.7778169
2.01548 0.99370795 1.777912
2.0275102 1.0121701 1.773232
2.0186601 0.99374002 1.7712109
2.0398901 1.01069 1.7722949
2.0250199 0.99318999 1.766801
2.0249 0.99299002 1.7608521
2.0297799 0.98936898 1.748229
2.0357599 1.03081 1.721897
2.02584 1.03265 1.7128979
2.0525301 1.00906 1.725443
2.0441799 0.99839896 1.723683
2.0224299 1.03321 1.7059079
2.0540199 1.0002999 1.7219299
2.0413799 0.99172997 1.717168
2.0232601 1.03258 1.6992869
2.0450699 1.00149 1.7113839
2.0260899 1.0326 1.6929419
2.0483201 1.01135 1.704505
2.0450399 0.99910796 1.7039289
2.0476699 0.98979497 1.705399
2.0264001 1.03248 1.686314
2.0485699 1.0010099 1.6985761
2.0478599 0.99072999 1.6989059
2.0369201 1.03061 1.6839639
2.0565 1.00965 1.6935821
2.05527 0.99933702 1.693948
2.0538499 0.988617 1.6944749
2.0432501 1.0300801 1.6794291
2.05654 0.99919802 1.6862121
2.0558 0.98877603 1.6879469
2.0551701 0.99960297 1.6792439
2.02035 1.04377 1.651636
2.0452099 1.03183 1.664162
2.0605001 0.99925101 1.67532
2.0571601 0.98900199 1.673389
2.02654 1.0429 1.649038
2.04492 1.0327801 1.657279
2.0655298 1.00866 1.6707449
2.06441 0.98874396 1.669229
2.0283899 1.0420099 1.6424279
2.05128 1.0298899 1.6536729
2.06563 0.99757898 1.663156
2.0640402 0.98815805 1.662591
2.02845 1.0428901 1.6341739
2.0460401 1.03214 1.6439389
2.0678 0.99600703 1.6576951
2.02652 1.04364 1.626675
2.0422301 1.03424 1.6347791
2.06006 1.02203 1.643896
2.0669799 0.99661398 1.649657
2.03462 1.04198 1.624298
2.05211 1.03126 1.632406
2.0650301 0.98816401 1.641233
2.0408201 1.04011 1.620011
2.0574601 1.02943 1.626958
2.07022 0.99621201 1.6366429
2.0729101 0.98660201 1.6370929
2.0483599 1.0388401 1.6160949
2.0631499 1.0294499 1.6223779
2.0692301 1.01912 1.626075
2.07672 0.99608099 1.632023
2.07515 0.985955 1.6312909
2.0501699 1.03765 1.609504
2.0780001 1.00718 1.6250039
2.07762 0.99592 1.6241601
2.07795 0.986754 1.6262939
2.08236 1.00454 1.6196331
2.0837901 0.99485201 1.6208119
2.0775101 0.98663598 1.618333
2.08675 0.99545097 1.6156219
2.0595901 0.97802103 1.5938569
2.0676 1.02517 1.587173
2.0776899 1.0060199 1.5951849
2.0597401 0.97824699 1.587427
2.03514 0.97078598 1.5739059
2.0667601 1.02566 1.579193
2.05565 0.97651899 1.5776559
2.0743201 1.01697 1.5776191
2.0740299 0.997033 1.5782418
2.07128 0.986184 1.5784689
2.0589399 0.97663099 1.5711999
2.07305 1.01858 1.5697529
2.0746601 1.00661 1.570951
2.07707 0.99395502 1.5731299
2.06703 0.976062 1.568483
2.0667999 1.02732 1.556537
2.0738201 1.01656 1.5625099
2.0764 1.00608 1.5643229
2.07761 0.99577004 1.5652429
2.0727401 0.98460996 1.5645169
2.0613499 0.97525102 1.559207
2.03426 0.96862102 1.5449719
2.0114901 0.962807 1.53337
2.0755 1.0167199 1.5551829
2.0785499 1.00518 1.5583589
2.07617 0.98613 1.558682
2.0678399 0.97618204 1.554202
2.0201499 0.96841598 1.53274
2.0595901 1.0299801 1.5381219
2.0794599 1.00582 1.550838
2.07672 0.99618101 1.55082
2.0762701 0.98565698 1.5510789
2.06899 0.97554296 1.5458249
2.0738599 1.01678 1.5381809
2.0831301 1.0054799 1.544785
2.0827799 0.99403501 1.5465629
2.0671201 0.98467398 1.5383439
2.06707 0.97522104 1.5373399
2.0597 1.03021 1.5227389
2.0716 1.0195 1.529886
2.0815301 1.0074099 1.536044
2.0638599 1.02921 1.517601
2.0805299 1.01682 1.527267
2.0882201 0.99418402 1.532136
2.0852001 0.98507798 1.533114
2.0933502 1.0032099 1.527081
2.0985498 1.00401 1.52224
2.0782201 0.98481297 1.513033
2.09044 1.00395 1.510535
1.9343899 1.0524501 1.9083279
1.95058 1.03846 1.912692
1.93494 1.05358 1.9024341
1.95349 1.0383 1.9070331
1.96612 1.02315 1.90965
1.96075 1.0345501 1.901834
1.9629101 1.01196 1.903657
1.95894 1.00038 1.904067
1.9708501 0.96776098 1.8671619
1.9810201 1.0393599 1.849895
1.9775701 1.04097 1.8416679
1.97238 1.04451 1.8326731
1.99903 1.01636 1.8433599
1.9968201 1.00488 1.844509
1.99098 0.99292701 1.843055
1.98309 0.98304397 1.84012
1.9736 1.05222 1.8265049
1.98189 1.04081 1.829482
1.99147 1.00318 1.835533
1.98535 0.99243599 1.8344229
1.9786301 1.0503299 1.821022
1.98551 1.04 1.8232489
2.00753 1.01292 1.833002
2.0007699 1.00421 1.8314679
1.99308 0.99314904 1.829518
1.9712801 1.05187 1.81181
1.98461 1.04123 1.8170331
2.00019 1.00207 1.8249949
1.9960099 0.99221498 1.822868
1.98367 0.98309499 1.820949
1.99412 1.0367199 1.8132889
2.00068 1.0018699 1.818024
1.99663 0.992149 1.8169849
1.9599899 0.977853 1.805775
1.9867301 1.03773 1.8025321
1.9994501 0.99115199 1.811487
1.9806199 1.0393599 1.793559
1.99309 1.02809 1.7988489
2.0007501 0.992939 1.8043381
1.9825301 1.03818 1.787305
1.99955 1.0241799 1.7940781
2.0134399 1.00983 1.799513
2.01055 0.99976802 1.800462
1.97996 1.03908 1.77939
2.0102499 1.0124 1.791706
2.0129299 1.0002301 1.7937759
2.00806 0.99050796 1.793615
1.9843299 0.97265798 1.7862839
1.98927 1.03653 1.7759129
2.0197201 1.00044 1.7891971
2.0120599 0.98920703 1.7874649
1.99616 0.980115 1.7832659
1.98385 0.97154403 1.779128
2.0030601 1.03237 1.773248
2.01456 1.01132 1.779308
2.0176802 0.99837601 1.781953
2.0144 0.98894602 1.7806821
1.9806199 0.97229797 1.7707069
2.00579 1.0325 1.7663809
2.0188799 1.00994 1.7738941
1.97767 0.97451103 1.7622271
2.00384 1.03369 1.759166
2.0167599 1.0226799 1.76487
2.01103 0.99910897 1.764308
1.99168 0.98183799 1.759692
2.0080199 1.03268 1.754458
2.0211 1.02081 1.7593379
2.0269501 1.00898 1.761663
2.0051801 0.98944199 1.7570999
1.99261 0.98241204 1.753598
2.01752 1.0307599 1.7497929
2.02597 1.0069799 1.7550141
1.9957601 0.98380095 1.747407
2.0200901 1.04014 1.741259
2.0269799 1.02835 1.7461079
2.0358601 1.01607 1.750587
2.0301402 1.00817 1.750329
1.9986 0.98427004 1.7399909
2.0260801 1.04793 1.736595
2.0158401 1.04334 1.7328399
2.03108 1.02988 1.740418
2.0338399 1.00685 1.7451969
1.99568 0.98413599 1.7313961
2.01722 1.04365 1.727451
2.0239799 1.0333899 1.730794
2.0326099 1.01985 1.735173
2.03332 1.00661 1.7368469
2.0171599 1.0416501 1.721086
2.03249 1.02775 1.7275341
1.9972 0.98373902 1.716799
2.03549 1.0268199 1.721665
2.00302 0.98178399 1.7127161
2.0313001 1.0272599 1.7122791
2.04705 1.00385 1.721154
2.0362999 0.99599999 1.7173591
2.00472 0.98213601 1.706811
2.0334101 1.0270801 1.7056118
2.0401402 1.0052301 1.711782
2.0137801 0.98121804 1.702409
2.0167201 1.03988 1.6907519
2.0353599 1.02762 1.699057
2.0425701 0.99371499 1.704946
2.0074301 0.98191595 1.691584
2.01915 1.03965 1.685086
2.0406301 1.0258 1.6940219
2.0324001 0.99369299 1.694331
2.0246999 0.98535895 1.692431
2.0129201 0.980618 1.6863519
2.0266399 1.0379699 1.6808929
2.05142 1.00228 1.6943289
2.0280099 0.98573303 1.6861631
2.0102201 0.98070097 1.677863
2.0304101 1.03733 1.6748489
2.0544801 1.00179 1.6893359
2.0270798 0.98459703 1.6780879
2.00511 0.981296 1.6689259
2.0425401 1.03422 1.6723081
2.0101299 0.98066103 1.6639661
2.0387299 1.03593 1.663365
2.0457699 1.02634 1.6673199
2.01285 0.97981799 1.657742
2.04409 1.03414 1.659184
2.05653 1.02211 1.664688
2.0553799 0.99081004 1.667264
2.0180001 0.97952598 1.6523459
2.0523598 1.0311799 1.655425
2.0627401 1.01142 1.662014
2.06181 0.99976403 1.662603
2.0389299 0.98344499 1.653996
2.0150199 0.98013002 1.6424769
2.05861 1.02947 1.650124
2.0592501 1.02185 1.651395
2.06725 0.999596 1.657119
2.0378399 0.98327202 1.6457249
2.0129499 0.97993398 1.633875
2.0553401 1.0310501 1.640389
2.0609701 1.0207801 1.645506
2.05527 0.98960406 1.645945
2.0383902 0.98244596 1.638193
2.0143201 0.97933 1.6280921
2.0522301 1.03254 1.632134
2.0620501 1.0223 1.6378299
2.06424 0.99785697 1.642359
2.05463 0.98926401 1.6379859
2.0408001 0.98194504 1.6314139
2.0191901 0.97860003 1.6237079
2.0589499 1.0300801 1.6288199
2.0676501 1.01885 1.632952
2.0536699 0.988639 1.6299911
2.0446999 0.98090398 1.626169
2.02425 0.97782797 1.618456
2.07407 1.00684 1.630801
2.0296202 0.97724295 1.612594
2.06265 1.0286599 1.614035
2.05035 0.98066902 1.6145869
2.0360899 0.97559601 1.6071759
2.0646501 1.0284101 1.6071351
2.0777099 1.00666 1.6173509
2.06444 0.98648596 1.6139389
2.0474699 0.98050904 1.6054989
2.02984 0.97551101 1.596288
2.0571499 1.03057 1.596364
2.0624599 0.98736703 1.6046621
2.04123 0.97991204 1.5947729
2.0142701 0.97675496 1.581102
2.0648699 1.02844 1.5929871
2.0704401 1.0185601 1.596246
2.0483701 0.97940099 1.5907789
2.02122 0.97490501 1.5781369
2.0571201 1.03084 1.5818131
2.0709901 1.01982 1.589592
2.0748398 1.00846 1.592325
2.07793 0.99622804 1.5962739
2.07599 0.98601997 1.597012
2.05371 0.97953004 1.5853229
2.0279 0.97378999 1.574016
2.07055 1.02689 1.5818
2.0708001 1.01818 1.5817349
2.0592799 0.97818297 1.5798579
2.03778 0.97216004 1.5709909
2.07112 1.02574 1.5737329
2.07669 1.01676 1.5777069
2.0741999 0.99578905 1.579945
2.06738 0.98661005 1.576606
2.06004 0.97813499 1.573127
2.0469599 0.97122103 1.5679129
2.0675101 1.02755 1.563116
2.0713499 1.01796 1.5676639
2.0743601 0.99616301 1.571561
2.0692101 0.98481202 1.5704249
2.0578799 0.97693396 1.5660499
2.04444 0.97055298 1.559209
2.06144 1.02958 1.5524789
2.0683 1.02017 1.5576119
2.0743101 1.0079 1.5628369
2.0768402 0.99600303 1.5640199
2.0729499 0.98639601 1.564876
2.0615301 0.97711301 1.5602119
2.0643799 1.02816 1.546579
2.07811 1.00517 1.5574679
2.0694001 0.98612803 1.554616
2.0597901 0.97543997 1.5510778
2.0177801 0.96513003 1.5290539
2.0617499 1.02907 1.537481
2.0798101 1.0049 1.550462
2.07076 0.995184 1.546501
2.0652099 0.98606402 1.544269
2.06387 0.97696501 1.545638
2.0216799 0.96459901 1.5247999
2.0177 0.95810205 1.522923
2.0715401 1.0193599 1.5353619
2.06867 0.98666298 1.539426
2.0799799 1.01666 1.5327139
2.07967 1.00683 1.5330451
2.08167 0.99536103 1.5360829
2.0879202 1.00243 1.531199
2.0734701 0.98567599 1.5182049
2.0970199 1.012 1.5198539
1.9430901 1.04354 1.915705
1.94313 1.04383 1.9073371
1.94339 1.05317 1.8997439
1.9383299 1.04654 1.898576
1.96137 1.02755 1.90681
1.96483 1.0133001 1.9083591
1.96734 1.00168 1.909717
1.93905 1.04677 1.892975
1.9636301 1.0286599 1.899533
1.9566499 0.99183404 1.901207
1.98227 0.97304296 1.866665
1.96173 0.96984595 1.8622749
1.96433 0.96817803 1.854906
1.96942 1.0505201 1.8247119
1.9825799 1.03464 1.831259
1.99912 1.01592 1.8387179
1.98788 0.98403096 1.838257
1.99561 1.0283 1.8294519
2.0025201 1.0140799 1.8324561
1.9891299 1.03253 1.8206979
2.0018799 1.00493 1.8272901
1.94813 0.97557402 1.8128048
1.9941701 1.02817 1.815363
2.00016 1.01596 1.8180718
1.99265 0.99403602 1.8180591
1.9745599 0.98658502 1.8129458
1.96024 0.979195 1.8086231
1.99726 1.0253501 1.809063
1.9750501 0.98433602 1.805838
2.00001 1.02402 1.802717
2.00915 1.01255 1.806951
2.0006399 0.99123299 1.8048389
1.99885 1.02472 1.795392
2.0060799 1.00204 1.7994229
2.0050199 0.99040002 1.79901
1.9917901 0.98218298 1.7966409
1.97366 0.97481203 1.7922599
2.01124 0.999937 1.794052
2.0100501 0.98932898 1.79401
2.0029299 0.98001897 1.7933149
1.98174 0.97346801 1.787046
2.01507 1.0089 1.7880249
2.0169599 0.99736702 1.788771
2.0104601 0.98682898 1.788069
1.98138 0.97295195 1.7801261
1.9763901 0.96404195 1.7795279
2.0146 1.00957 1.780044
2.0225701 0.99672097 1.784198
2.0137801 0.98896003 1.782058
1.9852099 0.97250801 1.7746509
2.0216799 0.99668097 1.77771
1.9766999 0.97440201 1.7639661
2.0148101 1.01906 1.764261
1.9874099 0.98352206 1.7519209
2.0297 1.01754 1.754189
2.03212 1.0057 1.757681
1.9822501 0.98579806 1.7431411
1.9947701 1.04995 1.7292509
2.0132799 1.03427 1.7387019
2.0283298 1.018 1.747067
2.02091 0.99605006 1.746665
1.9969701 0.98417699 1.740446
2.0053999 1.04557 1.7278169
2.01671 1.03184 1.734012
2.03052 1.01539 1.7412689
2.03438 1.00429 1.744082
1.9972501 0.984676 1.732229
1.98862 1.05116 1.714409
2.0113699 1.03495 1.7247031
2.0293701 1.01782 1.733446
2.02807 0.99411303 1.7354871
2.0076499 1.0351501 1.716853
2.0276699 1.01937 1.726017
2.0458999 1.00956 1.7181439
2.0393898 1.00244 1.716386
2.04601 1.0094 1.7100501
2.04353 1.00021 1.710714
2.0413101 0.99111098 1.7125169
2.0250301 1.02642 1.6919808
2.0429602 0.99069601 1.7049789
2.0290802 1.0268101 1.686748
2.0366399 1.01571 1.691373
2.03146 1.0264701 1.680132
2.0504801 0.99803102 1.6918039
2.04863 0.98880899 1.6937259
2.01566 1.0400801 1.6652288
2.03755 1.02557 1.6760041
2.04023 1.0157599 1.678291
2.0399899 1.02373 1.6711
2.05305 0.99719703 1.679372
2.03988 1.02213 1.66302
2.06198 1.0054699 1.672403
2.05109 1.018 1.6595011
2.0650899 1.00449 1.6666559
2.0646501 0.99436301 1.668837
2.0491199 1.02 1.6509579
2.0634501 0.99636298 1.661227
2.06359 0.98561305 1.6625099
2.0532801 1.01985 1.645085
2.0608201 1.00849 1.64939
2.0662699 0.994923 1.6549439
2.03916 1.03318 1.629639
2.0508502 1.02092 1.6363389
2.0515499 1.0296 1.6278769
2.0630701 1.0161901 1.634966
2.07146 0.99393702 1.6419799
2.06757 0.983733 1.6417689
2.05584 1.02912 1.622177
2.05971 1.01949 1.6254709
2.0708501 0.99259806 1.6345121
2.0532899 1.02916 1.6131411
2.0534599 1.02947 1.6045109
2.0790899 0.99017602 1.62289
2.04861 1.03141 1.5948269
2.0633299 1.01774 1.6036381
2.07936 1.00045 1.6150631
2.0493 1.0307701 1.58755
2.0688601 1.01498 1.5989349
2.0703599 1.00494 1.6026819
2.0555499 1.02871 1.5831369
2.0624399 1.01756 1.5878639
2.07775 1.00148 1.5991849
2.0766401 0.99017501 1.598509
2.05689 1.02826 1.575745
2.07306 1.0024199 1.588421
2.05931 0.97357297 1.585477
2.05637 1.02949 1.56615
2.05791 0.97370303 1.5771409
2.036 0.97000098 1.5674139
2.05617 1.03019 1.5583719
2.07462 1.00131 1.574205
2.06967 0.99197501 1.571519
2.0667601 0.98051101 1.5734971
2.0516701 0.97361898 1.567633
2.03616 0.96832901 1.560241
2.02547 0.96333998 1.554791
2.0794001 0.98911399 1.5696781
2.0693901 0.98153096 1.5657459
2.0556901 0.97261399 1.561908
2.05918 1.0214701 1.5465199
2.0727799 0.98026299 1.560568
2.06478 0.97254699 1.557886
2.04059 0.96853101 1.5468979
2.0542998 1.03137 1.534428
2.0696099 0.99186206 1.5481321
2.0677299 0.98132205 1.551039
2.06002 0.97175199 1.547197
2.0376999 0.968104 1.535913
2.0622702 1.02984 1.5230099
2.06812 1.01661 1.5280468
2.07459 0.99204999 1.5352899
2.09322 0.996243 1.5284591
2.08552 0.99937105 1.5164279
2.0808702 0.98881894 1.5157731
2.0675001 0.98120099 1.5098211
2.08656 1.00887 1.50633
1.9271201 1.046 1.919894
1.94205 1.03511 1.910363
1.95032 1.0312101 1.904236
1.96377 1.01595 1.908875
1.94081 0.98703903 1.90605
1.92093 0.984487 1.902952
1.95961 1.03055 1.89842
1.92193 0.98479199 1.8947251
1.96883 1.00124 1.8965089
1.92088 0.984164 1.887126
1.9774699 0.97159696 1.865752
1.98282 1.03166 1.844697
1.99009 1.02916 1.839121
1.9858099 1.0320801 1.8302609
1.98246 1.03585 1.821762
1.99212 0.99087995 1.8313199
1.97774 1.04704 1.8128909
1.98727 1.0334899 1.816767
1.98 0.98306501 1.820657
1.9707201 1.04874 1.8031878
1.9924999 1.02953 1.8120509
1.9603101 0.97839499 1.807355
1.99299 1.02899 1.805274
1.9948599 0.99088502 1.8095959
1.99735 1.0251 1.799646
2.0076799 0.99876702 1.79553
1.9712801 0.97345197 1.78945
2.0116999 0.99823195 1.7899798
2.0044501 0.98904604 1.7895209
1.99765 0.97834802 1.7890229
1.97321 0.973818 1.781971
2.0139201 1.00757 1.7830949
1.99338 0.97658598 1.7806768
1.97812 0.97101998 1.776897
2.0111399 1.0094399 1.766266
2.00686 0.99977702 1.766759
2.01594 1.0164701 1.7598279
2.01577 1.0056701 1.761224
2.0109599 0.99450201 1.7616229
2.0019 0.986615 1.7603199
2.0186901 1.0178399 1.752068
2.01648 1.00827 1.7534519
2.0055799 0.98599797 1.7538
2.00845 1.0312999 1.739778
2.0165401 1.0280499 1.7357659
2.0258701 1.0154901 1.74084
2.0211899 0.99145299 1.7430741
2.0021 0.97925001 1.738826
2.02124 1.0262799 1.72975
2.02632 1.01522 1.734448
1.99923 0.98063397 1.729447
2.0155098 1.02799 1.720531
2.03074 1.01291 1.728812
2.00371 0.97866499 1.722839
2.0090699 1.03372 1.7055829
2.00302 0.97875297 1.7147169
2.0093899 1.0332 1.7009101
2.0281899 1.01564 1.7107641
1.9995301 0.97962797 1.70573
2.0215199 1.02714 1.70046
2.0420301 0.99649 1.7112439
1.998 0.98023498 1.698853
2.02776 1.02414 1.695105
2.0002902 0.98008102 1.6942499
2.0365701 1.02115 1.689767
2.0221801 1.03816 1.674204
2.0388801 1.02249 1.6820459
2.0414999 1.00859 1.6868539
2.0283701 1.03649 1.669758
2.0371101 1.02434 1.6738069
2.04266 1.0107 1.6788361
2.0339701 1.03422 1.6640429
2.03527 1.03451 1.65696
2.04667 1.0208 1.6635389
2.0376999 1.03302 1.6509689
2.0569 0.99003196 1.6648819
2.0457401 1.02861 1.6462711
2.0633099 0.99809998 1.659006
2.04405 1.03029 1.637274
2.0567501 1.01545 1.64498
2.04983 1.0267401 1.632171
2.0616901 0.99939698 1.641809
2.05305 1.02521 1.62485
2.0629301 1.01156 1.632795
2.0416498 0.97531301 1.630123
2.0535898 1.02591 1.617044
2.06094 1.0132099 1.62365
2.0458601 0.97352898 1.6242639
2.0466299 1.0292801 1.6065069
2.0587199 1.01528 1.6145591
2.0451601 0.97344595 1.616406
2.05357 1.02499 1.6026559
2.06299 1.01103 1.610108
2.0504899 0.971766 1.610986
2.05335 1.02561 1.5933319
2.0650599 1.00998 1.6030381
2.0416498 0.974675 1.598455
2.0550399 1.02654 1.5851151
2.0634899 1.01279 1.593865
2.06985 0.99771601 1.5998
2.0606799 0.97673202 1.597845
2.0457101 0.97209799 1.592021
2.0367701 1.04462 1.5663279
2.0529699 1.02824 1.5759909
2.0677001 1.00964 1.5880769
2.0569901 0.97688001 1.5885779
2.0415602 0.97192901 1.5823349
2.0399799 1.0437599 1.5602241
2.05264 1.02895 1.568356
2.06987 0.99700701 1.5836051
2.0588698 0.977907 1.5813199
2.04919 0.969881 1.5786999
2.0302999 0.96760005 1.570962
2.0408399 1.04381 1.5519449
2.04935 1.03166 1.559707
2.0728998 0.99773806 1.57666
2.06829 0.98597002 1.57726
2.0583999 0.975869 1.573472
2.04638 0.96887296 1.570101
2.0519099 1.02912 1.552954
2.0667701 1.00914 1.56371
2.0741601 0.99364603 1.5707401
2.0624599 0.98641098 1.5654489
2.0590899 0.97553396 1.5657599
2.05621 0.96627504 1.5676219
2.0392501 0.96405196 1.559706
2.06776 0.99635804 1.559144
2.06094 0.988208 1.5571829
2.0593801 0.97806299 1.558203
2.0536799 0.96814299 1.5578299
2.0557499 1.02697 1.5374829
2.0680201 0.997455 1.550584
2.0644 0.98670304 1.552193
2.0573599 0.97699201 1.549724
2.0309801 0.96642703 1.537753
2.06691 0.99844301 1.541464
2.06813 0.98415101 1.545616
2.0545199 0.97570002 1.540097
2.02704 0.96652198 1.529039
2.0626299 1.0147001 1.5284531
2.0680799 0.98668295 1.5369589
