# .PCD v0.7 - Point Cloud Data file format
VERSION 0.7
FIELDS x y z
SIZE 4 4 4
TYPE F F F
COUNT 1 1 1
WIDTH 1733
HEIGHT 1
VIEWPOINT 0 0 0 1 0 0 0
POINTS 1733
DATA ascii
1.7086301 1.01457 2.36415
1.70366 1.02868 2.36357
1.7093899 1.03967 2.36233
1.7190199 1.05114 2.36216
1.7133299 1.00185 2.3566902
1.70743 1.01362 2.35531
1.70904 1.0276999 2.35689
1.71426 1.04123 2.35534
1.7186799 1.05378 2.35549
1.73994 1.06192 2.35794
1.7155099 1.0044999 2.3485
1.7048199 1.01477 2.34779
1.71175 1.02662 2.3487198
1.71302 1.04004 2.34763
1.7155401 1.05252 2.3484499
1.72241 1.0632399 2.3489001
1.72012 1.00533 2.3406899
1.70944 1.01533 2.3415201
1.71558 1.02823 2.34057
1.7128799 1.04232 2.3411701
1.7212601 1.05435 2.3413301
1.7297 1.0663301 2.3405499
1.71386 1.0155799 2.33408
1.7189101 1.0272499 2.33283
1.7190499 1.04193 2.3333099
1.73157 1.06872 2.33377
1.74546 1.07671 2.3353798
1.72033 1.01726 2.32634
1.7172799 1.0298899 2.3256199
1.7155701 1.04187 2.3253298
1.7218699 1.05453 2.3254998
1.73849 1.07732 2.32828
1.72437 1.02785 2.3191001
1.72088 1.0417199 2.31815
1.7325599 1.0772001 2.3196399
1.72044 1.04302 2.31002
1.67196 0.96918297 2.4899702
1.67247 0.97043902 2.4816101
1.67527 0.98175102 2.48211
1.67845 0.96710199 2.4762697
1.6744599 0.98148102 2.47416
1.67996 0.96806395 2.46892
1.6807899 0.98173302 2.4668899
1.6878901 1.01685 2.46561
1.68519 0.96885002 2.4615698
1.6833701 0.98186994 2.4605999
1.6893201 1.0083899 2.46051
1.7035899 1.0161799 2.4625299
1.6929801 0.96686798 2.4544699
1.68205 0.98180002 2.4537601
1.68267 0.99449402 2.4517899
1.68567 1.00799 2.45206
1.70039 1.01682 2.45559
1.7134199 0.95326895 2.45017
1.69944 0.96518797 2.44786
1.6867599 0.98137701 2.4456
1.6885 0.99636596 2.4452701
1.69306 1.00879 2.4449899
1.69593 1.0184 2.44611
1.70638 0.955782 2.44361
1.70069 0.96867698 2.4411099
1.6816601 0.98353106 2.4367898
1.6825399 0.99444395 2.43767
1.68861 1.00648 2.4376299
1.6992301 1.01869 2.4382699
1.7180001 1.02617 2.4416502
1.6775301 0.98457903 2.42975
1.68252 0.995426 2.4298801
1.6920799 1.0083799 2.43012
1.69962 1.02044 2.4298999
1.70969 1.02836 2.4328601
1.6835699 0.98613298 2.42189
1.6886799 0.99806601 2.42223
1.69485 1.01086 2.4228001
1.6929801 1.0223401 2.42223
1.70012 1.03176 2.4226899
1.71095 0.97189599 2.41594
1.69673 0.98308998 2.41519
1.6916701 0.99488401 2.4144399
1.6900799 1.0090799 2.4146202
1.6987801 1.02245 2.4158399
1.7090601 1.03352 2.4161799
1.7156799 1.04108 2.4174099
1.69821 0.983706 2.4081299
1.69392 0.99545401 2.4069901
1.69232 1.00694 2.4075401
1.69569 1.0210099 2.40697
1.7020301 1.034 2.40833
1.7076499 1.04298 2.40978
1.7 0.99377298 2.4010899
1.69505 1.0078501 2.39973
1.6957099 1.0221801 2.3988199
1.70078 1.03386 2.4000599
1.7053599 1.04354 2.4017701
1.71166 0.983392 2.39272
1.69953 0.99545199 2.3931599
1.69306 1.0081301 2.39223
1.6962301 1.0196099 2.3920498
1.6983099 1.03304 2.39201
1.7026601 1.04469 2.392
1.7008901 0.99502295 2.3850601
1.6983501 1.0079 2.3860099
1.7000101 1.0225 2.3845098
1.7042199 1.03543 2.3856001
1.70716 1.04645 2.3845499
1.7196801 1.05541 2.3851299
1.7246499 0.98237699 2.3794401
1.70869 0.99400198 2.3781099
1.7035099 1.00796 2.3780899
1.6972301 1.02323 2.3759298
1.70279 1.03641 2.37762
1.7161 1.0482399 2.37833
1.7238201 1.05755 2.3781199
1.71241 1.00481 2.3715699
1.70935 1.01863 2.3703001
1.7051401 1.0340101 2.3692598
1.7118601 1.04661 2.37114
1.7157201 1.05841 2.3707001
1.7325599 0.99513298 2.3649399
1.7094901 1.00834 2.3631799
1.7080001 1.02273 2.3624101
1.7054 1.03547 2.36203
1.7222999 1.0592901 2.3634701
1.72271 1.008 2.35586
1.71187 1.02114 2.3551099
1.70716 1.03606 2.3551998
1.70955 1.04838 2.3549798
1.71618 1.05934 2.3547599
1.73338 1.06794 2.3566101
1.7304201 1.00818 2.34776
1.70577 1.03495 2.34705
1.7127401 1.04785 2.3485699
1.7109801 1.05977 2.3466699
1.73061 1.06789 2.3482599
1.73195 1.00913 2.3401899
1.7186199 1.0326101 2.3398399
1.70987 1.0480599 2.3407199
1.7245899 1.0595 2.3404701
1.72407 1.0700099 2.3392701
1.72686 1.02016 2.3333099
1.7182499 1.03451 2.33164
1.7225599 1.06099 2.3320098
1.7360699 1.06945 2.33336
1.7242301 1.0322599 2.3256102
1.72472 1.0609601 2.32427
1.73141 1.06993 2.3262601
1.7129899 1.03898 2.3162
1.7157 1.04905 2.3164701
1.7192999 1.0598301 2.3162899
1.7264999 1.06951 2.31814
1.6739 1.01 2.4688699
1.6829 0.97272301 2.46573
1.68656 1.0076699 2.4654901
1.68767 0.97048497 2.4607902
1.68085 0.98688298 2.45736
1.68054 1.01035 2.4579902
1.68619 0.97298104 2.4528899
1.6811999 0.98674893 2.4489701
1.6859599 0.99857199 2.45014
1.69336 1.01079 2.4509602
1.73148 1.0184 2.4558301
1.68574 0.97560203 2.4430399
1.67974 0.98771697 2.4413002
1.6814799 0.99820799 2.4423599
1.69005 1.0098001 2.4429002
1.7195799 1.01861 2.4461601
1.69424 0.97404504 2.4358201
1.6897099 0.98433995 2.43613
1.6889999 0.99830103 2.43522
1.6961399 1.01298 2.4355099
1.72173 1.0200801 2.4384398
1.70355 0.97287905 2.4296398
1.6858901 0.98683703 2.4277101
1.68371 1.00052 2.42594
1.69173 1.0123401 2.4270899
1.7097501 1.02213 2.42943
1.7286 1.02834 2.4327199
1.6863201 0.98778296 2.4195499
1.6902901 0.99726504 2.4203699
1.68785 1.01205 2.4184
1.70496 1.02294 2.4207699
1.71733 1.0320201 2.42242
1.69881 0.98678499 2.4119298
1.68434 1.00068 2.4114499
1.6916499 1.0125901 2.41098
1.69447 1.0250701 2.41137
1.71121 1.03458 2.4135699
1.71886 1.04273 2.4145899
1.69955 0.98724699 2.40397
1.69619 0.99796504 2.4045801
1.6878901 1.0115399 2.4042099
1.69613 1.0231 2.4042099
1.70248 1.03599 2.4042199
1.71289 1.04444 2.4067099
1.70701 0.98585296 2.39818
1.6965801 0.99778003 2.3968799
1.69408 1.0116301 2.39711
1.6986901 1.02547 2.39713
1.70075 1.03721 2.3952498
1.71162 1.0453299 2.3981698
1.70199 0.99711198 2.3905098
1.6994799 1.00888 2.3895199
1.6978199 1.02407 2.38907
1.7021099 1.03688 2.38765
1.7114999 1.04733 2.38868
1.70136 1.00065 2.3817999
1.6959701 1.0131199 2.38166
1.70044 1.02544 2.38061
1.70872 1.03861 2.3810799
1.717 1.04923 2.38148
1.72407 1.05639 2.3827899
1.7030901 1.0011001 2.37273
1.7011701 1.0125099 2.3741
1.70199 1.02405 2.3736799
1.70452 1.03607 2.3733599
1.71127 1.04933 2.3733099
1.72788 1.05642 2.3763001
1.71442 0.998487 2.3658199
1.7073801 1.01006 2.36643
1.7022099 1.02405 2.36707
1.70657 1.03824 2.36519
1.7143201 1.0502601 2.3657
1.71777 1.05862 2.3676701
1.7411301 0.99163103 2.3626199
1.70455 1.02421 2.3592498
1.7030901 1.03863 2.3564401
1.71931 1.05863 2.36009
1.7389301 1.0007399 2.35727
1.70636 1.0262799 2.35094
1.7144099 1.03634 2.3508101
1.70979 1.04884 2.34972
1.7086301 1.0282199 2.34196
1.7113299 1.0374 2.3437901
1.7103599 1.0492901 2.3419502
1.7131 1.05935 2.34252
1.7072301 1.0279599 2.33354
1.7099299 1.03864 2.335
1.6979699 1.06344 2.3339
1.7231101 1.0241899 2.3276501
1.71569 1.03556 2.3271699
1.7002499 1.06236 2.3268299
1.7186301 1.02614 2.3197298
1.7138801 1.03835 2.31949
1.7173101 1.04887 2.3195
1.70933 1.05927 2.3190699
1.7224001 1.03496 2.31305
1.7153701 1.04787 2.3123999
1.67664 0.966304 2.4879
1.6818601 0.96204805 2.48155
1.68039 0.974298 2.4819698
1.6807201 0.974518 2.4744101
1.69282 1.0150701 2.4719801
1.68235 0.97480398 2.4653602
1.68569 1.0029 2.4644501
1.69178 1.01553 2.4632599
1.71244 1.0230401 2.4663599
1.6921201 0.96010101 2.4588799
1.6849999 0.97577202 2.4566901
1.68204 0.99033201 2.45732
1.68653 1.00484 2.4554098
1.6961399 1.01736 2.4563
1.72233 1.02399 2.4598401
1.6933 0.96122599 2.45065
1.69006 0.97310096 2.4497399
1.68171 0.99128699 2.4483798
1.6830901 1.00533 2.4470201
1.69136 1.0159301 2.4470701
1.7021099 1.02545 2.4493201
1.69358 0.97314906 2.4420898
1.68752 0.98689198 2.4414599
1.68758 1.00345 2.4398599
1.68581 1.0186 2.43871
1.70039 1.02592 2.43979
1.7022901 0.97219497 2.4351301
1.68817 0.98916602 2.4328799
1.68823 1.00431 2.4310198
1.69067 1.01752 2.43203
1.70306 1.02837 2.4310999
1.73897 1.02868 2.4379499
1.71259 1.05143 2.4284298
1.6843899 0.99087501 2.42486
1.69289 0.99973297 2.4243
1.6970301 1.01503 2.4234099
1.70061 1.03074 2.4226
1.73127 1.0332 2.4269598
1.7133701 1.0506999 2.4229801
1.6955099 0.98900104 2.41781
1.69516 1.00155 2.4159799
1.6920301 1.0162001 2.4142199
1.70346 1.02749 2.4150901
1.72278 1.035 2.41838
1.6914901 0.992935 2.4077101
1.69311 1.00455 2.40764
1.6955 1.01739 2.40769
1.70425 1.0283899 2.40641
1.71978 1.0371701 2.4095099
1.69647 0.990578 2.3991001
1.6933099 1.00295 2.3996
1.69793 1.01561 2.4005599
1.71139 1.03994 2.39973
1.72183 1.0476201 2.4019599
1.70732 0.98694605 2.3927398
1.6914301 1.00358 2.3912101
1.6991401 1.01445 2.3926301
1.70496 1.04166 2.3907199
1.71631 1.04877 2.3930099
1.69479 1.00415 2.3836
1.69733 1.01537 2.3842499
1.70187 1.02871 2.38185
1.70473 1.04094 2.38325
1.7105099 1.05032 2.3833702
1.71457 0.99944997 2.3774798
1.69853 1.0162101 2.3760598
1.69784 1.03064 2.3734701
1.70052 1.05401 2.37392
1.69967 1.01808 2.36746
1.69555 1.0312001 2.3664999
1.69424 1.05608 2.36724
1.70447 1.01658 2.3585
1.70382 1.02693 2.36062
1.7197 1.0109301 2.3513401
1.7040499 1.02484 2.35168
1.71893 1.0109 2.34519
1.7157899 1.02025 2.3453901
1.71301 1.02159 2.3395498
1.7469701 0.96477205 2.4879901
1.75112 0.96790606 2.4789398
1.7556599 0.97194201 2.4702101
1.71673 1.01298 2.4634202
1.7260001 1.00639 2.4635301
1.74828 0.96523201 2.46401
1.7338001 0.94221705 2.46626
1.72163 1.0146199 2.45578
1.7392501 1.0103199 2.45316
1.75212 0.97051299 2.4559901
1.7287899 1.01661 2.4465799
1.74735 1.0130401 2.4439898
1.74577 1.0242801 2.4356799
1.7583799 1.01665 2.4347501
1.73931 1.02253 2.4276199
1.7524 1.0169001 2.4269598
1.75188 1.027 2.41819
1.76197 1.01844 2.4180398
1.7507401 1.02741 2.4091401
1.74743 1.02764 2.40152
1.75913 1.02113 2.40135
1.7278199 1.0336 2.3919199
1.75255 1.03157 2.3924699
1.7625901 1.01968 2.39291
1.7217799 1.0458599 2.3843899
1.74485 1.04343 2.3840399
1.7571001 1.0355899 2.3846099
1.7599001 1.0225 2.38502
1.78028 1.0035501 2.38553
1.7337199 1.0516601 2.3777201
1.7469901 1.04696 2.3763299
1.7543499 1.03444 2.37675
1.76551 1.02254 2.37743
1.7899201 1.0090001 2.3756499
1.7361701 1.0525 2.37026
1.75123 1.04734 2.3685801
1.7650501 1.0387501 2.36713
1.77039 1.02529 2.36954
1.74598 1.05462 2.3622
1.75481 1.04712 2.36095
1.77097 1.04085 2.3587799
1.7759801 1.02763 2.3608201
1.77356 1.05374 2.35337
1.7746 1.04205 2.3519299
1.7824401 1.0305899 2.3514299
1.77783 1.0418 2.3450401
1.78616 1.03219 2.34269
1.78408 1.04137 2.33533
1.7929201 1.03273 2.33479
1.7968601 1.01068 2.3359001
1.7949201 1.04485 2.3275199
1.78664 1.03153 2.3281
1.7917999 1.0312101 2.3210199
1.7959599 1.00793 2.31742
1.79961 1.02037 2.312
1.7463299 0.96711099 2.4897399
1.7383 0.96021301 2.48224
1.74238 0.96464896 2.4735901
1.71254 1.0115 2.4670401
1.74744 0.96947199 2.46468
1.734 0.94721705 2.46733
1.72352 1.0146099 2.4569597
1.7412699 1.00863 2.4555302
1.7408501 0.96415496 2.45836
1.72698 0.94548202 2.4604001
1.72569 1.01675 2.4486701
1.73386 1.00925 2.4482
1.74286 0.96782202 2.44945
1.72571 1.01627 2.44117
1.7477299 1.01252 2.4388399
1.75353 0.98445398 2.4392998
1.73949 0.96810895 2.4412
1.7358299 1.0190799 2.4313998
1.7525101 1.01252 2.4299099
1.7588099 0.98894602 2.43156
1.74763 0.97343695 2.4333398
1.73814 1.02126 2.4232001
1.7466999 1.01398 2.42258
1.7465301 1.02406 2.4154198
1.7556599 1.01642 2.4139099
1.7536 1.0256801 2.40716
1.75737 1.01624 2.4057598
1.7518201 1.02599 2.3989401
1.7587601 1.01721 2.3973701
1.7507601 1.02847 2.3892999
1.78354 1.0117099 2.38835
1.76951 0.99587899 2.3894501
1.7432001 1.03899 2.3811898
1.7598 1.0319899 2.38043
1.7766299 0.99934 2.3812199
1.73927 1.05002 2.3730099
1.7486399 1.0419101 2.37377
1.76218 1.03451 2.3719699
1.78093 1.01279 2.3728399
1.7766299 0.999506 2.3730898
1.73392 1.0496299 2.36601
1.7468201 1.04337 2.3657699
1.7679499 1.03722 2.3635399
1.7866 1.00351 2.36443
1.74475 1.05364 2.3587601
1.7595301 1.0479 2.35706
1.7699001 1.0390201 2.35584
1.7777001 1.02631 2.3569901
1.7804201 1.0005699 2.3568299
1.7534699 1.05562 2.35059
1.76717 1.0497 2.34899
1.77388 1.0383 2.3487101
1.77531 1.06177 2.3417799
1.7778101 1.05134 2.3408999
1.78504 1.0400901 2.3406899
1.7916499 1.0142601 2.3406401
1.78427 1.05345 2.33305
1.78171 1.0419999 2.3336401
1.78605 1.02968 2.3330398
1.78907 1.00315 2.3338299
1.7969 1.05612 2.3250201
1.78602 1.04158 2.3257999
1.78985 1.00225 2.3246398
1.78845 1.0415699 2.3181901
1.7445599 0.97684401 2.48613
1.7506599 0.96854699 2.4838901
1.7456599 1.00481 2.4760401
1.74849 0.97886801 2.47703
1.74939 0.96733701 2.4755797
1.7525799 0.97860801 2.4677498
1.75448 0.96855599 2.4678199
1.74334 1.00545 2.4602702
1.74641 0.97714996 2.46082
1.7475101 0.96711898 2.46083
1.72237 1.00911 2.4551301
1.74282 1.00423 2.4525602
1.7488999 0.97872496 2.4528298
1.7519901 0.96793294 2.4517999
1.72952 1.01116 2.4464898
1.75045 1.0065 2.4436998
1.75003 0.97664201 2.4445801
1.7451301 0.96498597 2.4449799
1.71181 1.0200701 2.4368298
1.7290199 1.01375 2.4372299
1.75776 0.98136401 2.4365201
1.74446 0.96606004 2.4374301
1.72405 1.02347 2.43012
1.73906 1.01723 2.4288199
1.7597001 1.00995 2.4268999
1.75705 0.98136401 2.4282999
1.74331 0.96503401 2.4286301
1.73058 1.02509 2.4221799
1.7431901 1.01785 2.4204497
1.74966 0.976578 2.42066
1.73871 0.96282095 2.42152
1.7441499 1.0289299 2.4122801
1.75529 1.02028 2.4115899
1.76825 1.0095201 2.4109499
1.76459 0.98372495 2.4117401
1.7444501 0.96520501 2.41345
1.7408201 1.0304799 2.40435
1.74863 1.02239 2.4040699
1.74507 0.97580999 2.40539
1.7395101 0.96367103 2.4061201
1.72961 1.03969 2.39538
1.7424201 1.0327801 2.3961599
1.7534599 1.02327 2.3959398
1.75446 0.98089701 2.3975699
1.7436501 0.96522003 2.39956
1.74034 1.04257 2.3891098
1.75067 1.0350599 2.38834
1.75755 1.02325 2.3877099
1.7427601 0.97493798 2.39393
1.7421299 1.04304 2.3819001
1.7532201 1.03557 2.38029
1.76463 1.0246199 2.3789999
1.7822 1.00626 2.37939
1.7484599 1.04474 2.37375
1.75851 1.03725 2.3721099
1.7679 1.02775 2.3708899
1.7822 1.00691 2.3715501
1.75297 1.0457599 2.36551
1.76476 1.03877 2.36413
1.7742701 1.02837 2.36356
1.78477 1.00789 2.3635199
1.76094 1.04766 2.35636
1.7715199 1.03923 2.35677
1.7817301 1.029 2.3554401
1.77679 1.05478 2.3462298
1.7740101 1.04056 2.34864
1.7827901 1.0301499 2.3483801
1.7546099 1.06024 2.34021
1.77422 1.05672 2.3392599
1.78054 1.04565 2.3395998
1.7807201 1.0302 2.3415699
1.7915801 1.00945 2.34127
1.7592599 1.0620999 2.3337901
1.7789799 1.05776 2.3324399
1.78534 1.04734 2.3315799
1.7873199 1.03292 2.3327701
1.7948599 1.01089 2.3332
1.7637199 1.06301 2.32618
1.7832201 1.05776 2.3246899
1.79091 1.046 2.32426
1.78687 1.0305899 2.3252702
1.80033 1.01226 2.3245001
1.77714 1.0656301 2.3172901
1.7898101 1.05787 2.3171399
1.79321 1.04697 2.31724
1.7929201 1.033 2.31725
1.79107 1.04679 2.31071
1.7157899 1.01052 2.4667499
1.7186501 1.0116 2.4588997
1.7407401 1.00878 2.4570401
1.72351 1.01206 2.4509101
1.7401401 1.00823 2.4492898
1.72703 1.01324 2.4433899
1.74949 1.00999 2.4398499
1.7345799 1.01467 2.4345498
1.75297 1.0092701 2.4309101
1.74389 0.95297998 2.4306202
1.72606 1.02509 2.4250801
1.7385401 1.01713 2.42535
1.75916 1.00915 2.4228799
1.7624099 0.98128402 2.42275
1.7669501 0.96875101 2.4233799
1.7447901 0.954283 2.4254999
1.72864 1.0255899 2.41927
1.74529 1.01869 2.4173801
1.7557001 0.98005599 2.4174201
1.755 0.96863198 2.41802
1.74035 1.02748 2.4110498
1.75195 1.0194 2.40888
1.7566 0.98121697 2.4102499
1.7491001 0.96798795 2.40976
1.7445301 1.02887 2.40203
1.75331 1.02057 2.40189
1.7636701 1.01057 2.4016399
1.74905 0.97760004 2.4023399
1.7517999 0.96841794 2.4021599
1.73894 1.0314 2.3931799
1.75389 1.0212001 2.39499
1.76759 1.00945 2.39289
1.7622501 0.99494696 2.39364
1.76078 0.98250902 2.3940399
1.7488999 0.968243 2.39487
1.7369901 1.03267 2.38626
1.75401 1.0228 2.3862798
1.7656599 0.99534601 2.3862
1.75024 0.97834295 2.3871398
1.73873 0.96584201 2.3879299
1.7382801 1.04193 2.38012
1.74989 1.03405 2.3786399
1.76767 1.0243499 2.37745
1.7822099 1.01447 2.37626
1.75506 0.98226094 2.3792498
1.7425301 0.96821898 2.3805702
1.75375 1.04426 2.3717799
1.76433 1.03584 2.3696899
1.7824401 1.01157 2.36993
1.76397 0.994919 2.37152
1.7449601 0.98040605 2.3724298
1.75906 1.04562 2.3636899
1.76468 1.03786 2.36186
1.77514 1.02711 2.36148
1.7691901 0.99823898 2.3638
1.74192 0.98083997 2.3661098
1.76349 1.04669 2.35602
1.7725799 1.03886 2.3545499
1.77408 1.02712 2.3536799
1.78413 1.01527 2.3545198
1.77571 1.0023999 2.3553698
1.7699001 1.0475399 2.3483999
1.77377 1.03834 2.3469698
1.77584 1.00442 2.34832
1.77291 1.04838 2.3403502
1.78022 1.03903 2.3387299
1.7827499 1.02755 2.3394599
1.7721801 1.04995 2.3315399
1.7889999 1.0421801 2.3303299
1.78845 1.02941 2.33269
1.75902 1.05907 2.3244801
1.7752401 1.05232 2.3236799
1.79063 1.04231 2.3225501
1.75409 1.0721099 2.3144801
1.76175 1.06185 2.3168201
1.7869099 1.05488 2.31566
1.79401 1.0421901 2.3154299
1.7969 1.01552 2.31581
1.7474999 0.97206002 2.48524
1.74871 0.96274203 2.4864199
1.7465601 0.96146798 2.47861
1.74229 0.96053904 2.4707401
1.74519 0.96041602 2.4623802
1.74132 0.94862604 2.4633498
1.74965 0.97232902 2.45309
1.74435 0.96025598 2.45502
1.73843 0.94799799 2.4565799
1.72551 0.93733001 2.4574702
1.75078 0.97686797 2.4450197
1.7494501 0.96536499 2.4465201
1.73772 0.95150805 2.4485502
1.75238 0.97776705 2.4382401
1.75045 0.96462601 2.4389398
1.73067 0.95094001 2.43995
1.74771 0.97485 2.4314098
1.73043 0.95092797 2.4326801
1.7438 1.02632 2.4204299
1.76183 1.01724 2.42083
1.75526 0.97819901 2.4231601
1.7447901 0.96439499 2.4250801
1.7266901 0.95133299 2.4263299
1.7408999 1.02755 2.4145598
1.7556701 1.02003 2.4149499
1.7636701 0.981538 2.4144399
1.71672 0.950064 2.4210098
1.7400999 1.02889 2.4080701
1.75358 1.0204101 2.4079101
1.76511 0.98235804 2.40663
1.75448 0.96990198 2.40785
1.7329899 1.0398101 2.3994198
1.7436999 1.03087 2.4001598
1.7636501 1.02079 2.3990798
1.76332 0.98117697 2.3997102
1.7510899 0.96889603 2.3992898
1.7343401 1.0397 2.3936799
1.75606 1.03207 2.39165
1.752 0.97837305 2.3926802
1.75108 0.96749902 2.3912899
1.74669 1.0413899 2.3859298
1.75851 1.03413 2.3837299
1.76255 1.0226899 2.38393
1.78644 1.0116301 2.3832998
1.7741901 0.99479598 2.38431
1.75291 0.97755402 2.38574
1.74974 0.96680802 2.3852999
1.7518899 1.04194 2.3780799
1.76612 1.0337 2.3759501
1.7828799 1.0087301 2.3765202
1.77996 0.99711901 2.3760099
1.7616701 1.04283 2.3698599
1.76666 1.0346199 2.3682101
1.78364 1.01013 2.36854
1.77119 1.0440899 2.36116
1.77762 1.03427 2.3608499
1.7845799 1.00095 2.3610001
1.7702401 1.04571 2.3534601
1.7759801 1.0368199 2.35356
1.75825 1.0556301 2.3447199
1.7787601 1.04801 2.3453
1.7869999 1.0366501 2.34639
1.8016601 1.01138 2.3459601
1.77293 0.99672401 2.3464
1.7599001 0.985641 2.3473599
1.7655901 1.0574501 2.33882
1.7737801 1.0496399 2.33798
1.78368 1.03755 2.3385999
1.76956 0.99488604 2.34238
1.77074 1.05975 2.33109
1.7849801 1.0505999 2.3308201
1.7892599 1.0376999 2.3305299
1.79817 1.0131 2.3299999
1.78496 0.99957001 2.3301001
1.7619901 1.06899 2.3239498
1.77363 1.0611399 2.3236799
1.78543 1.0503 2.32335
1.7923199 1.03704 2.3226099
1.7855499 0.99921203 2.32358
1.76416 1.0699 2.3172698
1.77719 1.0617299 2.3162501
1.7893699 1.05039 2.31568
1.8043801 1.0396299 2.31494
1.6777099 0.94065499 2.48544
1.68397 0.94412202 2.47733
1.6799999 0.95796895 2.4758999
1.69199 0.97886199 2.4813001
1.6786901 0.95679396 2.45857
1.67796 0.96952003 2.4598598
1.68828 0.94691396 2.45116
1.6840401 0.96164805 2.4521701
1.6764101 0.97090602 2.4496899
1.71047 0.93084997 2.4435599
1.6977201 0.93809599 2.44279
1.68739 0.94705999 2.4426401
1.68317 0.96063101 2.4432998
1.6750101 0.97211099 2.4414701
1.68642 0.991184 2.4436998
1.71947 0.935525 2.4352398
1.70161 0.93853897 2.4346702
1.6891099 0.94858801 2.4347901
1.6830499 0.96373004 2.4344501
1.68239 0.97897202 2.4350698
1.68065 0.98957902 2.4356
1.72653 0.939399 2.42858
1.7064 0.94056803 2.4266999
1.69484 0.94841796 2.4268799
1.68487 0.95994002 2.4260299
1.68253 0.97594202 2.42665
1.6785201 0.98763704 2.4266999
1.71364 0.94582099 2.4200299
1.69684 0.95181704 2.4180701
1.68993 0.965846 2.41887
1.6850799 0.97867501 2.4182301
1.68045 0.98944396 2.4173
1.71403 0.949503 2.4107599
1.6936001 0.95107597 2.4091299
1.69328 0.96678299 2.4103599
1.68759 0.98144305 2.40921
1.67936 0.98931605 2.4091499
1.7150799 0.95084703 2.4012799
1.7047099 0.95770699 2.4029
1.6959701 0.97027606 2.40116
1.6901699 0.98281598 2.40167
1.68371 0.99110705 2.4015
1.72278 0.955477 2.3933098
1.70735 0.959499 2.39412
1.7017701 0.972996 2.3924799
1.6918401 0.983123 2.3942499
1.6902001 0.99454498 2.3930099
1.73011 0.960482 2.3861499
1.70706 0.96055394 2.38483
1.69031 0.98240399 2.3852701
1.7001899 1.00019 2.38498
1.71056 0.96354502 2.3763199
1.70623 0.97409403 2.37743
1.69778 0.986121 2.37696
1.69687 0.99953401 2.3758302
1.7134199 0.96750605 2.3666198
1.7055701 0.97656095 2.36853
1.70355 0.99191904 2.3685699
1.6984199 1.00114 2.36816
1.71755 0.96907896 2.35811
1.7066499 0.97606695 2.35904
1.70279 0.98878503 2.3605599
1.70022 1.00064 2.3599601
1.72436 0.97250003 2.3510101
1.71684 0.98045802 2.3511801
1.7054 0.98991096 2.35167
1.7054601 1.00378 2.3506699
1.7304801 0.97657502 2.3432
1.7131599 0.98185802 2.34269
1.7026199 1.0025001 2.3413901
1.73472 0.97857302 2.33476
1.72758 0.98715597 2.33482
1.71078 0.99415499 2.33459
1.70741 1.00529 2.33307
1.7370501 0.98123002 2.3259799
1.7227401 0.98800904 2.32618
1.71495 0.99854898 2.32656
1.7089599 1.00728 2.3245199
1.74651 0.98581296 2.3168299
1.73331 0.99255401 2.3177199
1.71872 1.00037 2.31845
1.7168201 1.01367 2.3158801
1.6803501 0.93523806 2.4879098
1.67414 0.94808799 2.48844
1.6780601 0.93674105 2.48001
1.67659 0.94833702 2.4790101
1.68678 0.95845103 2.4723599
1.6809399 0.95621198 2.4627399
1.6946499 0.94487399 2.4564099
1.6846299 0.95561796 2.4549899
1.6841701 0.97124398 2.4569597
1.6847 0.98309797 2.4593499
1.6821201 0.95607203 2.4462299
1.6824001 0.97006798 2.44818
1.6834301 0.98237199 2.4503901
1.69547 0.935179 2.43893
1.68251 0.95431101 2.4382598
1.6838901 0.96976501 2.44052
1.6786799 0.97941297 2.4401498
1.70313 0.93837303 2.4307401
1.6925999 0.94567102 2.4315
1.6813999 0.954449 2.43049
1.68312 0.96938103 2.4317999
1.6865 0.985057 2.43137
1.70898 0.940561 2.4230301
1.69585 0.94531798 2.4238198
1.69192 0.95886701 2.42417
1.6861999 0.97406 2.4226301
1.6886799 0.98914599 2.42311
1.7161 0.94420403 2.41571
1.6966901 0.946859 2.41609
1.6967 0.96340299 2.4154198
1.68381 0.973041 2.41471
1.6897999 0.98941302 2.4156699
1.69739 1.0049701 2.4175999
1.7205499 0.94626099 2.40781
1.70892 0.95292503 2.40905
1.7007099 0.96454 2.4067299
1.69102 0.97611296 2.4082699
1.69321 0.99177498 2.4078999
1.69091 1.0028 2.4085801
1.72856 0.94989306 2.4003201
1.7097701 0.95319295 2.4005799
1.70336 0.96489996 2.3983099
1.6949 0.97887397 2.3996499
1.69256 0.99414599 2.40012
1.69506 1.00666 2.4013901
1.7321299 0.95186096 2.39204
1.7167101 0.95631403 2.39291
1.7112 0.967462 2.3914001
1.6965699 0.97617602 2.3907998
1.69452 0.99243599 2.3913
1.69058 1.00394 2.3931501
1.74457 0.95737505 2.3850698
1.71875 0.95813698 2.38433
1.70289 0.96636599 2.3834701
1.69839 0.97977096 2.38291
1.69761 0.99489802 2.3824201
1.6902699 1.00281 2.3845201
1.74552 0.95870501 2.3777702
1.73072 0.96255404 2.3773999
1.71296 0.97076201 2.3758399
1.7067399 0.98554903 2.3758199
1.7009101 0.996611 2.37427
1.6968499 1.0061799 2.3763499
1.72119 0.96138901 2.3680398
1.7131701 0.97094202 2.36744
1.70542 0.98318601 2.36693
1.69986 0.995875 2.3668101
1.69675 1.00662 2.3673201
1.7293899 0.96727401 2.3589201
1.71767 0.97347295 2.36024
1.71196 0.98514098 2.3588598
1.7033701 0.99728698 2.3595099
1.70663 1.01525 2.35921
1.7329299 0.96931899 2.3499601
1.72119 0.97665703 2.35144
1.70772 0.98614001 2.35131
1.7058001 1.00123 2.3511498
1.71436 1.02039 2.3523099
1.74132 0.97289598 2.34202
1.72429 0.97710997 2.3425901
1.7108501 0.987481 2.34303
1.7144901 1.00643 2.3434501
1.71153 1.01825 2.3445499
1.7552099 0.97927099 2.3346398
1.7331599 0.98087198 2.3348598
1.71162 0.98451698 2.3348098
1.70796 0.99835402 2.3343601
1.7127 1.01547 2.33478
1.7636 0.98317003 2.3267
1.73997 0.98456299 2.32687
1.7171201 0.98862195 2.3272698
1.71535 1.00415 2.3262899
1.71486 1.01852 2.3248
1.77036 0.98632795 2.3185499
1.7498599 0.98891801 2.31896
1.7262801 0.99458605 2.31903
1.71758 1.00779 2.31833
1.71715 1.0213701 2.3168201
1.7603199 0.99294996 2.31107
1.7324699 0.99458003 2.3109298
1.6748599 0.94036502 2.4847901
1.67681 0.93732804 2.4774899
1.6741999 0.951985 2.4765601
1.68682 0.97239304 2.48034
1.68433 0.94058198 2.4707801
1.67574 0.966052 2.4692299
1.67915 0.95469803 2.4614701
1.67855 0.96793401 2.4614301
1.67897 0.97949302 2.4628899
1.68522 0.94463599 2.45418
1.67913 0.95690697 2.4541101
1.68028 0.97021794 2.4539301
1.68494 0.98282897 2.4556899
1.6819501 0.956505 2.44608
1.68494 0.97176802 2.4472299
1.6780299 0.97975194 2.4465499
1.7093899 0.941378 2.43925
1.6908001 0.945198 2.4391699
1.68634 0.95775104 2.4375501
1.68119 0.96964997 2.4393201
1.68042 0.98018205 2.4379699
1.7125701 0.94258904 2.4311399
1.6932601 0.94730598 2.4307699
1.6831599 0.956882 2.4297597
1.6849999 0.97109497 2.43103
1.6809 0.98158896 2.4295897
1.7195101 0.94488603 2.4236898
1.7031101 0.95027602 2.4234099
1.69173 0.96113098 2.42363
1.68453 0.973131 2.4226999
1.68704 0.98461199 2.42311
1.7270501 0.94669604 2.41664
1.70653 0.95035899 2.4154198
1.69776 0.96150595 2.4156399
1.68721 0.971766 2.4156699
1.68733 0.98384595 2.4152
1.7301401 0.94758397 2.4096899
1.72049 0.95437503 2.4091299
1.70393 0.96203697 2.4080701
1.6929801 0.973804 2.4076998
1.6953 0.99003702 2.40623
1.73106 0.949292 2.4021101
1.71329 0.95502603 2.4005799
1.69941 0.96449095 2.4001
1.69716 0.97912806 2.39887
1.7017701 0.99633402 2.39955
1.73683 0.95259905 2.3948998
1.7174499 0.95556295 2.3935099
1.7049401 0.96590894 2.3917701
1.69958 0.980272 2.39078
1.6967999 0.99403399 2.39182
1.71351 1.0142 2.39469
1.71272 1.02416 2.39522
1.71367 0.95664495 2.3848701
1.71376 0.96881896 2.3848901
1.7055 0.980124 2.3835099
1.6985699 0.99414003 2.38393
1.7097701 1.0130301 2.3864498
1.72683 0.96252996 2.3765299
1.70812 0.96747202 2.3767898
1.70535 0.98100996 2.3748901
1.7017 0.99445099 2.37608
1.7034 1.00994 2.37728
1.7358501 0.951253 2.36709
1.73276 0.961371 2.3676999
1.7164999 0.97074699 2.3685198
1.7091701 0.983271 2.3675599
1.70156 0.99330705 2.3685
1.70478 1.00855 2.3691599
1.7073399 1.0225 2.36975
1.7546201 0.95814401 2.3631599
1.7481301 0.96602994 2.36198
1.72601 0.97093695 2.3607099
1.7084301 0.99642801 2.3612199
1.70656 1.01113 2.3608799
1.7106 1.02463 2.3605599
1.7481101 0.957515 2.3553698
1.7447 0.96809697 2.3543501
1.7259599 0.97588402 2.3531501
1.71205 0.98531401 2.3532
1.7063 0.99800599 2.35251
1.7124001 1.015 2.3531299
1.7085401 1.02443 2.3520498
1.7630701 0.97573799 2.34882
1.73702 0.979123 2.3459001
1.71343 0.98619598 2.3448899
1.70838 1.00082 2.3447001
1.7120199 1.01582 2.3455999
1.70504 1.02275 2.3436098
1.74274 0.98214895 2.3380201
1.7219299 0.98754799 2.33689
1.7098801 0.99774003 2.33706
1.70901 1.0128399 2.3370099
1.7126601 1.0265599 2.3360898
1.7479401 0.98696601 2.3291001
1.7264199 0.98916703 2.32937
1.71935 1.00252 2.3289499
1.7117701 1.01582 2.3285899
1.71759 1.0292 2.3290501
1.75418 0.989779 2.3208702
1.7314 0.99351698 2.3210299
1.72252 1.00564 2.32021
1.71541 1.01556 2.32128
1.7146801 1.02733 2.32113
1.7661099 0.99317598 2.3138199
1.74045 0.99552596 2.3122501
1.7278501 1.00623 2.3128099
1.7194099 1.01818 2.31318
1.71184 1.02687 2.31235
1.6960499 0.97066998 2.4863
1.6870301 0.93669999 2.4755599
1.68817 0.96524596 2.46854
1.6875999 0.96737504 2.4603901
1.68699 0.97955203 2.4619401
1.6869299 0.95217699 2.4516997
1.6849699 0.96542096 2.45259
1.6869299 0.97957498 2.4538999
1.68692 0.96437103 2.44572
1.68467 0.97744298 2.4451098
1.6889501 0.99026 2.44768
1.71738 0.93771899 2.4400899
1.7030901 0.94390196 2.4386399
1.6878101 0.96587199 2.4383399
1.68636 0.97877902 2.4370999
1.6891099 0.99117798 2.4383199
1.7102901 0.94671094 2.4315798
1.7019299 0.95615304 2.4307299
1.68942 0.982665 2.43014
1.6929201 0.99514997 2.4299798
1.72728 0.95398903 2.4261701
1.70578 0.956994 2.42395
1.69998 0.96906996 2.42276
1.6936901 0.98153704 2.42349
1.69162 0.99429101 2.42294
1.69821 1.00763 2.42312
1.69749 0.95782399 2.41483
1.69327 0.96843004 2.4140899
1.6957 0.983136 2.41519
1.6950101 0.99733901 2.4160399
1.70095 1.00939 2.4156001
1.7066001 0.96204203 2.4075899
1.7021899 0.97187102 2.4073999
1.6944799 0.98284304 2.4071
1.6959801 0.99670601 2.4080601
1.70403 1.01053 2.4077299
1.70547 0.96244001 2.39921
1.70296 0.97195601 2.3994501
1.70059 0.98430705 2.4003201
1.7000901 0.99896896 2.4000001
1.70566 1.0126001 2.3996201
1.7163 0.96566999 2.3924899
1.70486 0.97339898 2.3917999
1.6983299 0.98615998 2.3924301
1.70578 1.0024099 2.3920498
1.70784 1.01559 2.39201
1.71492 0.96512604 2.3841
1.705 0.98720396 2.38519
1.70222 0.999937 2.3835199
1.7078301 1.0160099 2.3845999
1.72227 0.96670401 2.3770199
1.7136099 0.974374 2.37643
1.7050999 0.98653799 2.3760002
1.7073101 1.0043399 2.3764601
1.7102699 1.01876 2.37713
1.7095 1.0277101 2.3789399
1.7293299 0.96992403 2.3697999
1.7084399 0.98673403 2.36797
1.70426 0.99939799 2.3683
1.7067599 1.0153 2.3685598
1.7086 1.02758 2.37077
1.73454 0.97215104 2.3613198
1.71544 0.97756201 2.3613698
1.70824 0.98882598 2.3613901
1.70882 1.00275 2.36093
1.7087899 1.01616 2.3604898
1.70787 1.02687 2.3615601
1.7426801 0.97446001 2.3548598
1.72207 0.97879499 2.3535299
1.71334 0.99013901 2.3543
1.7139599 1.00631 2.3529999
1.7098 1.01863 2.35392
1.72291 0.97965401 2.3465099
1.7189 1.00791 2.3450501
1.7144099 1.02029 2.3462601
1.71218 1.02999 2.34618
1.72504 0.98287201 2.3386199
1.7207899 0.99254304 2.3364899
1.71559 1.0038099 2.3377199
1.71376 1.01756 2.33725
1.71538 1.03023 2.33917
1.7296201 0.985071 2.3304899
1.72893 0.99477202 2.3294001
1.71771 1.00466 2.32968
1.71481 1.0181 2.3288901
1.71332 1.02887 2.3297601
1.7341599 0.98728997 2.32217
1.72276 0.995 2.3222501
1.71974 1.0085601 2.3213301
1.7196801 1.0220701 2.32248
1.71911 1.03289 2.3213999
1.74437 0.99031997 2.31357
1.7315401 0.998088 2.3145399
1.71824 1.0224299 2.31411
1.72627 1.03667 2.3138599
1.67925 0.95225698 2.48856
1.67261 0.96317297 2.48768
1.6856599 0.94171602 2.4819801
1.6769999 0.954027 2.4802999
1.68299 0.97015703 2.4802999
1.6813999 0.94310796 2.4735999
1.68612 0.95773596 2.4737399
1.68448 0.97163302 2.4727099
1.6892999 0.97325796 2.4664099
1.68381 0.95561403 2.4573002
1.68124 0.96898001 2.4588001
1.6851 0.98254603 2.45928
1.68773 0.94455004 2.45
1.68313 0.95667899 2.44889
1.6841701 0.97041804 2.45191
1.68964 0.98612702 2.4516997
1.7072001 1.00122 2.45506
1.6969701 0.93672097 2.4437799
1.68452 0.97135401 2.44366
1.69116 0.98719597 2.44311
1.715 0.94013101 2.4385598
1.69681 0.94645202 2.43629
1.68512 0.97136301 2.4347799
1.6907001 0.98762298 2.4356
1.6933501 1.00002 2.43699
1.71743 1.01565 2.4412601
1.71615 0.94181299 2.4314399
1.69541 0.94868499 2.4281499
1.6884301 0.95972097 2.4277499
1.68716 0.97186899 2.4266801
1.6861999 0.98409796 2.42836
1.69082 0.99826598 2.42904
1.7027299 1.0127 2.4310598
1.71018 0.95152098 2.42224
1.69565 0.96079904 2.4209499
1.69156 0.97265196 2.4203799
1.6874299 0.98469806 2.4206901
1.6961701 1.00148 2.4213598
1.71509 0.95292997 2.4146798
1.7090199 0.96185601 2.4144099
1.69312 0.97262001 2.4133499
1.6946601 0.988406 2.4133401
1.6935899 1.0009999 2.4128101
1.7188901 0.95577794 2.4071
1.70038 0.96336603 2.40556
1.69898 0.97707701 2.4058499
1.69963 0.99162596 2.4059899
1.7031101 1.0062001 2.40675
1.70301 1.01731 2.4065299
1.7219 0.95647699 2.3989499
1.70409 0.962767 2.39798
1.6984801 0.97366405 2.39837
1.7024001 0.98816198 2.39869
1.7005701 1.0031199 2.39818
1.72381 1.03292 2.40255
1.7284199 0.95870799 2.39273
1.71595 0.96488601 2.3921099
1.7014301 0.97546697 2.39046
1.70513 0.99128896 2.39167
1.69789 1.00247 2.3898699
1.7019401 1.01696 2.39097
1.7085201 0.96660894 2.3833899
1.7063 0.97833502 2.3824601
1.7007099 0.990861 2.3831398
1.6975999 1.00533 2.3825698
1.70415 1.01929 2.38341
1.70741 1.02931 2.3855398
1.7359599 0.97473395 2.3781199
1.70935 0.978688 2.3756299
1.70418 0.98933101 2.3759799
1.7021201 1.00332 2.3751299
1.69912 1.0164701 2.3759501
1.7035699 0.98996902 2.3686099
1.7100799 1.0048001 2.3678799
1.70532 1.01832 2.36798
1.71146 1.03162 2.36922
1.70933 0.99222201 2.3612399
1.7099099 1.00604 2.3603201
1.70815 1.01972 2.35917
1.7072301 1.03106 2.36061
1.7291701 0.98640001 2.3538101
1.7172099 0.99419194 2.3534501
1.7113401 1.00685 2.3523901
1.70386 1.01792 2.3513801
1.7082601 1.0309 2.3527
1.7119401 1.04181 2.3537099
1.72864 0.98716003 2.3466299
1.7077299 1.0074 2.3449399
1.7091099 1.02052 2.3450401
1.70565 1.03055 2.3450501
1.73121 0.98871499 2.33794
1.7190199 0.99584997 2.3371301
1.7124699 1.0077 2.3371201
1.71164 1.02159 2.3380201
1.69144 1.0257701 2.33599
1.7360001 0.98954904 2.3292499
1.72377 0.99759299 2.3302398
1.71269 1.01969 2.3294599
1.74261 0.98975098 2.32161
1.7320501 0.998173 2.32252
1.72054 1.0090699 2.3231599
1.7132801 1.02063 2.3207998
1.70367 1.02783 2.3208899
1.75845 0.99288297 2.3170199
1.739 0.99865198 2.31621
1.7243401 1.0095201 2.3160801
1.71235 1.02163 2.3148
1.70909 1.03039 2.3151999
1.76535 0.99406797 2.3124201
1.70936 1.03126 2.3101401
1.7365401 0.96608198 2.4871299
1.7353101 0.952456 2.48859
1.74465 0.977265 2.4793701
1.7436501 0.96530801 2.4793701
1.7389799 0.95323998 2.48013
1.7430999 0.97969496 2.47206
1.74212 0.96552902 2.4725602
1.73211 0.95234495 2.4730999
1.7235 0.93990195 2.4737101
1.74438 0.97638702 2.4644501
1.73739 0.963085 2.46527
1.7275701 0.95108199 2.46681
1.7204801 0.940476 2.4669299
1.7452 0.97960502 2.4568298
1.73959 0.966232 2.4574399
1.7249299 0.95322603 2.4595301
1.74155 0.97636902 2.4497499
1.7361799 0.96356398 2.4508798
1.7192199 0.953246 2.4530399
1.74975 0.989196 2.4415698
1.74606 0.97840798 2.44169
1.74078 0.96637398 2.4435501
1.72127 0.95648694 2.4461498
1.7569001 0.99800104 2.43262
1.75632 0.977162 2.4342699
1.74626 0.96785599 2.4356201
1.76166 0.98878098 2.42606
1.7518699 0.97786599 2.4282
1.74825 0.96897697 2.4266
1.7514501 1.0117199 2.4188499
1.75676 0.97819901 2.4195299
1.74211 0.96887398 2.41927
1.7608099 1.01245 2.41132
1.74589 0.97677904 2.41257
1.74269 0.96810097 2.41289
1.74501 1.0242 2.4054999
1.7578 0.99015403 2.4038801
1.7492599 0.97843397 2.4045999
1.74252 0.968759 2.40659
1.75106 1.02504 2.3982301
1.7659301 1.00125 2.3966498
1.7498599 0.98921502 2.3982198
1.75763 0.97727096 2.3964
1.74169 0.96959299 2.39923
1.76205 1.02552 2.3896101
1.76261 1.00087 2.3893299
1.75598 0.98917997 2.39097
1.7474999 0.96923101 2.3913901
1.74018 1.0393599 2.3835599
1.76428 1.0267299 2.3819001
1.76282 0.989887 2.3829699
1.73577 1.05309 2.3750401
1.7602699 1.03961 2.3749599
1.76853 1.02668 2.3740301
1.78399 1.0123401 2.3736401
1.76358 1.0022399 2.3752499
1.7546899 0.99087799 2.3766499
1.748 1.05142 2.3691599
1.76305 1.04001 2.36782
1.77229 1.0274199 2.3664799
1.77949 1.01246 2.36678
1.76359 1.00164 2.3675001
1.7618699 0.99251199 2.3691299
1.7511799 1.0512201 2.36202
1.7745301 1.0379699 2.3594198
1.7602 0.99343199 2.3619599
1.76413 1.0510601 2.35305
1.7744299 1.03948 2.3515
1.77923 1.0259 2.35268
1.78898 1.01266 2.35288
1.76949 1.00289 2.3527701
1.76126 0.99398595 2.3545001
1.75295 1.06291 2.3465798
1.7698599 1.05178 2.34552
1.78302 1.03855 2.3439898
1.7789999 1.02707 2.3459001
1.76789 0.99380702 2.3462298
1.7656599 1.06161 2.33953
1.77433 1.0510601 2.3381698
1.78567 1.0373501 2.33672
1.7822099 1.02463 2.33864
1.7927201 1.01112 2.3384399
1.77643 1.00212 2.3392701
1.7735801 1.06077 2.3313599
1.78737 1.0484999 2.33058
1.79548 1.03592 2.3298099
1.7880299 1.0115 2.3319001
1.78556 1.00105 2.33255
1.7753199 1.06163 2.3242199
1.78508 1.05153 2.3238499
1.7879201 1.0396299 2.3236899
1.79698 1.01254 2.3233399
1.7933501 1.00156 2.325
1.78214 1.06064 2.31738
1.79273 1.04871 2.3161302
1.79354 1.03614 2.3172801
1.8007001 1.02317 2.31653
1.74385 0.98119599 2.4809299
1.73869 0.96939105 2.4834201
1.74526 0.95608002 2.4816599
1.7477299 0.98070395 2.4728699
1.7397701 0.96863699 2.4757502
1.74584 0.95684195 2.47402
1.7446899 0.98079801 2.4654999
1.74568 0.96801597 2.46736
1.7403599 0.95877504 2.4663301
1.74277 0.98054701 2.4580898
1.73937 0.96869904 2.4598999
1.7320501 0.96018404 2.46034
1.74918 0.979541 2.4504001
1.7396801 0.96951103 2.4519699
1.7385899 0.95965302 2.4531298
1.74965 0.98249602 2.4437201
1.74423 0.97018898 2.4441001
1.73722 0.96069098 2.44487
1.747 0.97930902 2.4361398
1.7447799 0.96756899 2.4372299
1.73404 0.95994496 2.4368899
1.7405499 0.97983706 2.4289598
1.7402699 0.96816397 2.4300199
1.7353901 0.95973295 2.42978
1.7486501 0.98089498 2.42116
1.7411599 0.96998399 2.4228001
1.73831 0.96050596 2.4226098
1.76097 1.02719 2.41377
1.74088 0.98136103 2.41504
1.7418201 0.97046202 2.4153399
1.75086 0.95944506 2.4140799
1.7522399 1.02985 2.40607
1.7530099 0.97947997 2.4078901
1.7498801 0.96968806 2.4068999
1.7225 1.04921 2.3996301
1.74668 1.03396 2.3985898
1.77132 1.00315 2.3979199
1.7629601 0.99294901 2.3986399
1.7527499 0.98093301 2.3997102
1.74824 0.97087801 2.3984101
1.74283 1.04427 2.3930199
1.75843 1.03097 2.3910999
1.7792599 1.01359 2.38955
1.7552201 0.99122202 2.39271
1.75655 0.97931802 2.3912299
1.74129 0.97243601 2.39217
1.7525101 1.0421801 2.38573
1.7572999 1.03262 2.38375
1.7747999 1.00318 2.3829699
1.7612399 0.99119204 2.38516
1.75292 1.04293 2.37802
1.76863 1.0292801 2.37586
1.78179 1.0134799 2.37604
1.7782401 1.0024199 2.37521
1.7334399 1.05989 2.3692799
1.7582401 1.04427 2.3693099
1.76912 1.03123 2.36816
1.78237 1.0139 2.36814
1.75235 1.05551 2.36286
1.76388 1.0434201 2.3620498
1.78004 1.02777 2.3610001
1.7922301 1.01218 2.3595901
1.7646201 1.05275 2.35496
1.77626 1.04002 2.3548999
1.7802299 1.02747 2.35361
1.79763 1.01086 2.3520498
1.7764 1.00298 2.35496
1.7712101 1.05211 2.34741
1.77321 1.04171 2.34745
1.79842 1.0106701 2.34602
1.78722 1.00183 2.34691
1.77274 1.05121 2.34045
1.78462 1.03821 2.3387101
1.7954201 1.01123 2.3399799
1.7817999 1.0034 2.3396101
1.7871801 1.04821 2.3318601
1.78343 1.03985 2.3319399
1.79241 1.01298 2.3317301
1.7848899 1.0039099 2.3319199
1.7899201 1.05109 2.3235002
1.7891001 1.03976 2.32493
1.7944299 1.01299 2.3238199
1.79198 1.00363 2.3243799
1.7834101 1.06436 2.31616
1.78959 1.05221 2.3170199
1.7900901 1.03865 2.3171899
1.79173 1.01222 2.3177199
1.76603 1.0786 2.3101199
1.74397 0.97907305 2.4840798
1.75141 0.977175 2.4756601
1.75384 0.97717398 2.46788
1.7679801 1.01873 2.4611199
1.75896 0.97637606 2.4605498
1.7735801 1.01696 2.4456601
1.74921 1.0002999 2.4477499
1.7690899 1.02925 2.3852301
1.78468 1.00632 2.3859899
1.7895399 1.01627 2.37656
1.7871001 1.0078701 2.37819
1.77557 1.02969 2.3703101
1.7886 1.00889 2.36953
1.7716099 1.03128 2.36374
1.7829601 1.0095301 2.36268
1.78193 1.0297 2.35502
1.78457 1.0092 2.3557999
1.77407 1.04285 2.34828
1.7817 1.0417199 2.3413
1.78405 1.0324501 2.3397901
1.78901 1.04003 2.33406
1.79679 1.00729 2.33252
1.7959501 1.03785 2.3263001
1.7951699 1.01697 2.3252702
1.7986599 1.03836 2.3172698
1.7991 1.01662 2.3179998
1.8014901 1.04005 2.31005
1.7401601 0.95781302 2.48119
1.74308 0.95719904 2.47368
1.73066 0.94852096 2.47367
1.75223 0.96487397 2.4656501
1.7366 0.95866996 2.4667599
1.7332699 0.94795096 2.4667099
1.7265199 0.938586 2.46754
1.7527699 0.966241 2.4582
1.7464999 0.95829803 2.45837
1.7343601 0.94883299 2.45977
1.74368 0.96876502 2.4520199
1.74169 0.95884597 2.45069
1.73009 0.950239 2.45281
1.74142 0.96897203 2.4444699
1.74377 0.95957202 2.44243
1.73534 0.952214 2.44314
1.74277 0.96857595 2.43647
1.7407601 0.959876 2.4354
1.7419299 0.96881896 2.4284
1.72849 0.95575696 2.4288502
1.74414 0.969244 2.4216399
1.74658 0.96915197 2.41658
1.7374699 0.95646501 2.4895699
1.74044 0.96900702 2.48242
1.73524 0.95711797 2.4818799
1.73906 0.97097701 2.4740698
1.7347599 0.95624399 2.4746201
1.72583 0.94583398 2.4739802
1.7339301 0.95842099 2.4666901
1.72088 0.94866097 2.4670999
1.7444 0.99519205 2.45871
1.7376801 0.97137398 2.4586899
1.7308201 0.95918 2.4592099
1.7425599 0.944525 2.4571099
1.74809 0.99468303 2.4488997
1.74658 0.98258299 2.4487798
1.7352999 0.97472197 2.4508798
1.73401 0.96200299 2.4507999
1.7486 0.99677902 2.44052
1.7477499 0.984267 2.44186
1.7390199 0.97346002 2.4425399
1.7319701 0.96414 2.4412601
1.75067 0.99625999 2.43345
1.7447901 0.98472399 2.4339499
1.7409599 0.97106302 2.43419
1.74163 0.96085197 2.4323099
1.7534801 0.981206 2.4254599
1.7458701 0.971205 2.4260099
1.74772 0.95981199 2.42501
1.7538699 0.98236901 2.4182
1.7550701 0.968548 2.41817
1.7663901 0.97739404 2.4096601
1.76599 1.00052 2.39323
1.75862 0.99389702 2.3938599
1.7658401 0.99149102 2.38608
1.7836099 0.99465895 2.3765399
1.6821001 0.95278901 2.4776001
1.6842901 0.96635699 2.47103
1.72486 0.93999499 2.4615698
1.69261 0.96018499 2.4479301
1.6883299 0.97229105 2.45012
1.74174 0.94965899 2.46349
1.7211099 0.95460504 2.4521101
1.69069 0.97339106 2.4398098
1.69481 0.98792398 2.4481399
1.7341499 0.95798105 2.4527099
1.69506 0.96069604 2.42483
1.68854 0.97103995 2.4261498
1.6926301 0.98686898 2.4330399
1.7120301 0.96005994 2.42331
1.6990401 0.96433097 2.4170301
1.69346 0.974648 2.4168699
1.69481 0.988756 2.4218702
1.7011701 0.96693903 2.40888
1.6975 0.977202 2.4069901
1.69468 0.98804998 2.4086399
1.7047701 0.97059703 2.39903
1.70261 0.98160303 2.3993299
1.7029201 0.99331903 2.40149
1.7098399 0.97449303 2.3896699
1.7103701 0.98663002 2.3936701
1.7019401 0.99271399 2.38832
1.71436 0.97610396 2.3799798
1.71346 0.98742205 2.3833702
1.70625 0.99579203 2.3791499
1.72229 0.98086703 2.3736701
1.7092301 0.98667002 2.3684399
1.70778 0.99947703 2.36816
1.7301601 0.98496699 2.3665202
1.71298 1.0052301 2.3613801
1.72471 1.02378 2.3738699
1.72532 0.98304701 2.3511
1.71724 0.99105 2.3492401
1.71644 1.00669 2.35232
1.7128199 1.01974 2.3549399
1.73298 0.98615402 2.3428199
1.72513 0.99616897 2.3430898
1.71446 1.00809 2.3393202
1.72026 1.0261101 2.3489599
1.7227901 1.0397899 2.35495
1.73643 0.98715401 2.3336599
1.7311901 0.996705 2.33409
1.7228301 1.00938 2.33252
1.71857 1.0251 2.3357
1.7190801 1.0385 2.3415201
1.73851 0.98993498 2.3241498
1.73043 0.99884498 2.3233099
1.7217101 1.00906 2.3197999
1.71898 1.02398 2.3233199
1.73954 0.99132597 2.3116999
1.72438 1.03139 2.3166099
1.6824001 0.96168101 2.4832299
1.67962 0.960783 2.4682701
1.6853501 0.97426003 2.4782999
1.6845 0.97296697 2.4652798
1.6866701 0.96199697 2.44748
1.6861 0.97310096 2.45332
1.6941 0.95311701 2.43922
1.69672 0.96771896 2.4445801
1.68484 0.97318399 2.43909
1.7159899 0.94545996 2.43823
1.6982499 0.95285398 2.4298599
1.68967 0.96439797 2.4283099
1.68595 0.97416097 2.42801
1.7235299 0.95227599 2.4310198
1.7064101 0.95629305 2.4233899
1.6938901 0.96434802 2.41944
1.6888601 0.97525495 2.4179401
1.7384501 0.96023905 2.4310098
1.7143101 0.96100503 2.4174201
1.69815 0.96732801 2.4110498
1.6956301 0.98059404 2.4090099
1.70666 0.97236705 2.4050601
1.7017 0.98504901 2.40148
1.71201 1.00181 2.4128299
1.7229899 0.96735799 2.4003899
1.71109 0.97439498 2.3952999
1.71016 0.98885202 2.3959701
1.7034 1.0004901 2.3950999
1.7219599 0.96846604 2.38888
1.7102901 0.99185503 2.3851199
1.7057 1.00526 2.3861399
1.7085 1.01702 2.3922601
1.7260499 0.97098899 2.3789001
1.7144001 0.97852898 2.3743398
1.70943 0.98949403 2.3721201
1.70418 1.00398 2.37291
1.7109399 1.01973 2.3835599
1.73313 0.973077 2.3716199
1.7201899 0.97947699 2.3659601
1.71095 1.0097799 2.3661001
1.70763 1.0206 2.3687601
1.7323101 0.97314799 2.3601098
1.72298 0.98162496 2.3555
1.7148399 0.992037 2.3520401
1.7113401 1.0071701 2.3539
1.7091401 1.02248 2.35794
1.7395799 0.97758901 2.3523998
1.7233701 0.982674 2.3452101
1.7207201 0.99563104 2.3457401
1.7181 1.0095 2.3465798
1.7108799 1.0216 2.3467999
1.71312 1.0361199 2.35235
1.74562 0.97911102 2.34255
1.73127 0.985699 2.33951
1.72763 0.99901003 2.3391299
1.7205299 1.01263 2.33794
1.71147 1.02404 2.33638
1.6958001 1.02834 2.3292201
1.7650501 0.98551804 2.34163
1.74071 0.98907799 2.33322
1.7323599 1.0021499 2.3304701
1.71955 1.01367 2.3255601
1.7146201 1.0252401 2.3278
1.7475101 0.99224997 2.3242099
1.72746 1.00236 2.31604
1.71901 1.0123 2.31406
1.71632 1.02272 2.3152399
1.76859 1.00037 2.3141901
1.68059 0.94667 2.4868298
1.68269 0.96333295 2.4682
1.6833 0.965307 2.4560699
1.69159 0.96629202 2.4498098
1.68988 0.98117995 2.4538698
1.7166499 0.94543999 2.4518201
1.69426 0.967614 2.4388199
1.6897501 0.98068804 2.4411302
1.7288699 0.94677401 2.44748
1.69349 0.966708 2.4267302
1.68962 0.98007303 2.4278197
1.69649 0.99462599 2.4389801
1.7265199 0.95091599 2.4345002
1.7054601 0.95902902 2.4222901
1.6972799 0.97088403 2.4198401
1.69091 0.981848 2.4163198
1.69419 0.99376506 2.4245899
1.72888 0.95228899 2.42453
1.71609 0.959988 2.41853
1.70129 0.97111201 2.4100699
1.69075 0.982306 2.40488
1.69375 0.99407995 2.4118099
1.73411 0.95736098 2.41676
1.7064101 0.97265798 2.40046
1.70055 0.98400396 2.40131
1.69124 0.99229401 2.3968601
1.71893 0.96509099 2.39693
1.71034 0.97422498 2.3926499
1.7032499 0.98486 2.3910401
1.69548 0.99535799 2.3862901
1.71532 0.97667295 2.3855898
1.7034199 0.987818 2.3784299
1.6986799 1.00044 2.37745
1.73543 0.97467399 2.3865299
1.70043 1.00115 2.36917
1.7116901 1.02131 2.3789999
1.73191 1.0416501 2.3961201
1.7080499 1.00583 2.36324
1.71724 1.0054699 2.3566101
1.70353 1.01522 2.3524101
1.7101899 1.03144 2.3628199
1.7114799 1.00314 2.3406699
1.72373 0.99624705 2.3347299
1.71289 1.0028601 2.3283498
1.72444 0.996849 2.3235598
1.71481 1.00331 2.3189399
1.74923 0.99469596 2.3246398
1.73226 0.99844801 2.31794
1.7231101 1.0057499 2.3136098
1.75955 0.99769503 2.31898
1.76886 0.99918503 2.3122299
1.6819099 0.96199399 2.48315
1.68775 0.96339697 2.4741299
1.6917399 0.97574699 2.4814999
1.69618 0.952034 2.4546399
1.68559 0.96322405 2.4462202
1.68721 0.976969 2.4520099
1.7180099 0.93993598 2.4549301
1.6880001 0.96403605 2.43575
1.68871 0.97821897 2.44082
1.6923599 0.99008697 2.4477999
1.7150501 0.94333398 2.44154
1.69056 0.96476305 2.4274302
1.68775 0.977516 2.4271798
1.6891299 0.99101901 2.4322598
1.7225701 0.94465899 2.4360998
1.71533 0.95573097 2.4315298
1.69701 0.96595001 2.421
1.68659 0.97865301 2.4139099
1.6864901 0.99141401 2.4180899
1.70358 1.00705 2.4331
1.7286501 0.94935602 2.4272199
1.7123399 0.95807803 2.41747
1.6973 0.96911299 2.40904
1.69129 0.98135102 2.4065399
1.6877 0.99191201 2.4078798
1.69488 1.00555 2.4148099
1.7392501 0.95273 2.42309
1.7194099 0.95759803 2.41045
1.70846 0.96870697 2.40417
1.7017701 0.98203796 2.4036798
1.6941299 0.99536902 2.4002099
1.6983099 1.0100399 2.4045999
1.74024 0.95456904 2.4135499
1.7202901 0.95986998 2.40049
1.7109599 0.96972197 2.39412
1.70328 0.98304999 2.39202
1.7002699 0.99874902 2.3921399
1.69372 1.0096099 2.3907299
1.70464 1.0234101 2.4010401
1.72343 0.96313202 2.3912899
1.70969 0.97191596 2.38345
1.70398 0.984164 2.37958
1.7063699 0.99832702 2.38588
1.6964301 1.01002 2.38065
1.69943 1.02176 2.3870599
1.7349601 0.966434 2.38517
1.71416 0.97283399 2.37449
1.7021401 0.98434603 2.3673999
1.6982001 0.99801099 2.3688002
1.7000901 1.01289 2.3714399
1.7012801 1.02335 2.37622
1.7441601 0.96847504 2.3821201
1.72206 0.97287297 2.36922
1.7138499 0.98407996 2.3664498
1.70017 0.99776602 2.3594902
1.69758 1.01114 2.3599501
1.7013299 1.0253 2.3630099
1.7527901 0.97040397 2.3805499
1.71135 0.97138196 2.3548
1.7028799 1.01676 2.3524299
1.70421 1.02931 2.3538198
1.70894 1.03978 2.3595498
1.70426 1.02082 2.3422501
1.70935 1.03177 2.34745
1.7104601 1.0412999 2.3508701
1.70289 1.03039 2.3341401
1.71174 1.04211 2.3422899
1.67733 0.94671202 2.4833899
1.68562 0.94556999 2.4781299
1.6795 0.95927101 2.47559
1.6847399 0.97276604 2.4689999
1.6900799 0.959831 2.45891
1.68795 0.973625 2.4586201
1.68961 0.961707 2.44682
1.6846601 0.97409797 2.4433398
1.6866601 0.98440599 2.4494698
1.69135 0.96316701 2.4362099
1.6850301 0.97533202 2.4314802
1.6888499 0.98596495 2.4389498
1.7251101 0.94092005 2.4445498
1.70349 0.95132005 2.43243
1.6919099 0.96469301 2.42466
1.68647 0.97726095 2.4213598
1.68914 0.98804098 2.42626
1.73647 0.93985099 2.4421999
1.71793 0.951047 2.4299099
1.70004 0.96241403 2.4187
1.6917399 0.97624499 2.4136701
1.6925 0.99021006 2.4169099
1.7062 1.0034699 2.4289999
1.73412 0.94379503 2.4304299
1.7161 0.95472503 2.41746
1.70078 0.96601701 2.4077101
1.6955 0.97772402 2.40539
1.69526 0.99062103 2.40644
1.69976 1.00397 2.4123199
1.7241 0.95598704 2.4126098
1.71272 0.96606004 2.4045498
1.70279 0.97948301 2.3992999
1.69489 0.99152398 2.39568
1.6957 1.0045301 2.3971398
1.70365 1.0171601 2.4052398
1.72649 0.95899999 2.4012899
