# .PCD v0.7 - Point Cloud Data file format
VERSION 0.7
FIELDS x y z
SIZE 4 4 4
TYPE F F F
COUNT 1 1 1
WIDTH 1723
HEIGHT 1
VIEWPOINT 0 0 0 1 0 0 0
POINTS 1723
DATA ascii
2.0144799 0.89731401 1.831893
2.0197899 0.88482904 1.8318259
2.0243599 0.87215304 1.83138
2.02441 0.859797 1.8328351
1.87783 1.13662 1.852549
1.96024 1.04184 1.8279649
1.9801199 1.03684 1.8196689
1.9873101 1.0270801 1.816223
1.9872999 1.0131301 1.819335
1.97903 0.998191 1.8239399
1.9758999 0.98713899 1.82724
1.97287 1.04432 1.814968
1.98146 1.03728 1.8111639
1.98873 1.0285 1.8084259
1.9859101 1.01509 1.8107269
1.9828999 1.00155 1.814357
1.97129 0.98870003 1.8210089
1.9786 1.04651 1.803504
1.9844201 1.03755 1.803146
1.99046 1.02801 1.8009681
1.9971499 1.01697 1.798154
1.98905 1.0035501 1.8039269
1.9760801 0.99121594 1.811246
1.96181 1.05238 1.800907
1.97324 1.0470901 1.7980429
1.9819599 1.03834 1.7965
1.99695 1.029 1.7908499
1.9971001 1.0168 1.7905139
1.9960001 1.00525 1.793422
1.97471 0.99081904 1.8040609
1.9485899 1.0496601 1.799016
1.97058 1.0458 1.79237
1.9868801 1.03789 1.7875479
1.9919901 1.02697 1.7851059
2.00214 1.018 1.782431
2.00161 1.0072399 1.783415
1.9777499 0.99179298 1.79505
1.96532 1.0439299 1.786608
1.98492 1.03816 1.780934
1.99278 1.02806 1.7769071
1.9955299 1.0164 1.77853
1.99763 1.00532 1.7769409
1.98879 0.99413496 1.78276
1.95901 1.04067 1.781745
1.98385 1.03749 1.773739
1.99685 1.02914 1.7676998
1.99825 1.01705 1.7697859
2.0082002 1.0070601 1.7652249
2.0002298 0.99532402 1.770083
1.9885499 1.0371801 1.7648649
2.0011201 1.0303 1.7589669
2.0085201 1.01965 1.7575479
2.0115199 1.0074401 1.7569879
2.00877 0.99644899 1.7595509
1.99067 0.98337603 1.767225
1.9379699 0.94565803 1.785776
1.9345599 0.93518698 1.7880359
1.9360499 0.923388 1.788316
1.93299 0.90723699 1.7911
1.92871 0.892443 1.7943699
1.92787 0.87892699 1.795943
1.92182 0.86339897 1.7996609
1.92045 0.84966797 1.801469
1.99095 1.03606 1.7563369
2.01215 1.03123 1.747879
2.0198801 1.0225 1.7463421
2.01666 1.01097 1.7484149
2.01162 0.99776 1.75138
1.99997 0.985569 1.7565241
1.94541 0.94768798 1.7783149
1.93569 0.935785 1.782643
1.93635 0.92349797 1.7825629
1.9390199 0.911075 1.783178
1.9376401 0.89742696 1.785416
1.92936 0.88241404 1.790038
1.93376 0.87045503 1.7889349
1.9262601 0.85423899 1.7939011
1.9302901 0.84167296 1.793049
1.9946201 1.03686 1.7472119
2.0120599 1.0327899 1.7402381
2.0182002 1.0218199 1.739453
2.0128601 1.00677 1.743168
2.00579 0.99456 1.747231
1.9927601 0.98346102 1.7522349
1.93436 0.944089 1.7777829
1.93332 0.93344802 1.7784309
1.92782 0.92057502 1.780519
1.9318299 0.90868402 1.779848
1.9373399 0.89826894 1.7792161
1.92987 0.88248003 1.7827399
1.93259 0.86988997 1.7817318
1.93226 0.85557401 1.7838269
1.9313201 0.84053004 1.7853611
1.9991901 1.0395 1.737291
2.0167599 1.0336699 1.7316279
2.02479 1.02369 1.7287129
2.0209398 1.0106701 1.732592
2.01249 0.99770302 1.7381549
1.92946 0.89214897 1.7756709
1.92853 0.87853104 1.776028
1.9322 0.86720598 1.7756959
1.92287 0.85182798 1.779258
1.9358799 0.844064 1.776814
1.9869 1.0457901 1.733394
2.0063901 1.0418 1.7275059
2.0189199 1.03415 1.723724
2.0264599 1.02495 1.721055
2.0295899 1.0141799 1.7213659
2.0205801 1.00227 1.7271659
1.91063 0.87373298 1.7770439
1.92102 0.86435503 1.773846
1.9204299 0.850811 1.7745169
1.99379 1.04763 1.723876
2.0081501 1.04193 1.720482
2.01881 1.03396 1.716837
2.02702 1.02315 1.714173
2.03385 1.01404 1.713403
2.03 1.00445 1.715542
1.9915401 1.0474601 1.7167569
2.0036199 1.04153 1.7150699
2.02179 1.03464 1.708618
2.0269098 1.02386 1.706332
2.0262499 1.01107 1.7090241
2.03075 1.0020601 1.7075
1.9826801 1.04503 1.7132419
2.00914 1.04267 1.706127
2.0177 1.03382 1.702755
2.0324299 1.02632 1.6975009
2.03529 1.01457 1.697842
2.02947 1.00132 1.7014608
2.01068 0.987863 1.708427
2.00897 1.04136 1.6994159
2.02263 1.03413 1.6940171
2.03374 1.02455 1.6905761
2.0365899 1.0141799 1.6911149
2.0377901 1.00398 1.6913269
2.0194299 0.99011904 1.6993159
2.0137601 1.0412 1.690035
2.0344701 1.03635 1.682386
2.0399401 1.02573 1.681528
2.03756 1.01399 1.6845089
2.0460699 1.0054901 1.6810179
2.03337 0.99368596 1.687373
2.0122199 1.04213 1.682027
2.0323899 1.03838 1.675603
2.0376 1.02803 1.675246
2.04637 1.0163701 1.673799
2.0513401 1.00649 1.6729529
2.0461302 0.99677801 1.6754899
1.988 1.0461299 1.6829059
2.01612 1.04386 1.6743199
2.03174 1.03688 1.669596
2.04211 1.0270801 1.666826
2.0427499 1.01546 1.6680341
2.0462899 1.00546 1.667798
2.05109 0.99766701 1.667282
1.9862 1.04611 1.678568
2.02196 1.0430501 1.666077
2.0328999 1.03627 1.6623989
2.0447199 1.02918 1.658739
2.0492201 1.01796 1.659146
2.0541 1.0071 1.6572729
2.0493801 0.99678302 1.661111
2.0234001 1.04258 1.6588401
2.0392399 1.03787 1.6535621
2.0474 1.02895 1.6516919
2.0536599 1.01827 1.650438
2.0599201 1.00792 1.648199
2.05317 0.996548 1.6521859
2.0225501 1.04223 1.6518289
2.0411201 1.0377899 1.646153
2.0516 1.02925 1.643618
2.0580099 1.01886 1.6422009
2.0602 1.00757 1.641342
2.0544901 0.99563003 1.6449749
2.0390501 0.98338801 1.6506701
2.02776 1.04337 1.642612
2.04807 1.03878 1.637668
2.0541799 1.02913 1.6357499
2.0605199 1.01845 1.6353589
2.0631199 1.00832 1.633794
2.0634 0.99761397 1.6356281
2.0427001 0.98371804 1.643432
2.0215199 1.04221 1.637414
2.0467901 1.03933 1.6309609
2.05902 1.03101 1.626719
2.0576501 1.0186 1.6295689
2.06776 1.0097001 1.625667
2.0636201 0.99780601 1.628595
2.0508299 0.98567098 1.6343579
2.02754 1.0426 1.62985
2.0481598 1.03852 1.62396
2.0617599 1.03178 1.6189489
2.0624299 1.01941 1.6208709
2.0654202 1.00888 1.620484
2.06868 0.99943602 1.619916
2.05654 0.98716903 1.625317
2.05196 1.0388501 1.6167909
2.0599298 1.03204 1.6131189
2.0678399 1.02264 1.611496
2.06849 1.00912 1.613431
2.0659699 0.997527 1.614436
2.0604 0.98670197 1.6161029
2.0567501 1.03891 1.608483
2.0649099 1.03223 1.605571
2.0704 1.02355 1.6038018
2.0726299 1.0115 1.604334
2.0662801 0.99654001 1.607933
2.05392 0.98235202 1.6111898
2.03251 0.96907204 1.617921
2.05724 1.03826 1.6016259
2.06745 1.0323501 1.598269
2.07265 1.02231 1.5966201
2.07623 1.01103 1.596548
2.0705299 0.99874097 1.599619
2.0536201 0.982912 1.605001
2.04545 0.97205704 1.608353
2.0652599 1.04011 1.5927539
2.06916 1.03274 1.591073
2.0694001 1.02292 1.5905828
2.07307 1.01176 1.5906501
2.07809 1.00195 1.591235
2.05896 0.98573798 1.596642
2.0445399 0.971766 1.601171
2.0659699 1.04049 1.585479
2.0664999 1.0319101 1.584805
2.06985 1.02088 1.5841581
2.07215 1.01052 1.5848129
2.0723801 0.99926805 1.5856949
2.05598 0.98264098 1.590627
2.0408399 0.969854 1.5951041
2.0622399 1.04015 1.5782429
2.06845 1.03116 1.577562
2.0725501 1.02115 1.5768269
2.07024 1.0090699 1.579071
2.0683298 0.99786204 1.580156
2.06072 0.985654 1.58269
2.0409 0.97047305 1.5881059
2.07463 1.05136 1.568779
2.0624599 1.0417501 1.571951
2.0624499 1.0322599 1.572157
2.0727201 1.02359 1.5711479
2.0722301 1.01132 1.5711
2.06674 0.99645698 1.574278
2.05475 0.98225099 1.577998
2.04123 0.97008204 1.5806251
2.0952101 0.85797697 1.576105
2.1004899 0.84995103 1.575676
2.06039 1.0405201 1.5669039
2.06181 1.03128 1.5652789
2.06863 1.02214 1.565799
2.0790701 1.0126001 1.5621289
2.0703599 0.99812204 1.5658729
2.0538299 0.98178703 1.5713789
2.03894 0.96925598 1.5750431
2.0838599 0.87935501 1.5685489
2.0871499 0.86781698 1.5708119
2.0985498 0.86148399 1.5691789
2.1001 0.851587 1.569489
2.05864 1.0387501 1.560131
2.07043 1.03294 1.55633
2.0682201 1.0217 1.55899
2.0833399 1.01388 1.554366
2.07972 1.00128 1.556762
2.05762 0.98382598 1.563095
2.03933 0.96940303 1.568732
2.0643101 0.88459998 1.56661
2.09203 0.88456398 1.561259
2.0930901 0.87266701 1.563187
2.0921099 0.85986602 1.5648841
2.07758 0.84339404 1.5702491
2.0692799 1.04063 1.550423
2.07026 1.0331401 1.550722
2.07494 1.02404 1.550409
2.0847399 1.01457 1.547374
2.08583 1.00413 1.549201
2.06095 0.98621696 1.5553571
2.0446301 0.97021598 1.5592179
2.0631101 0.90764099 1.557847
2.08412 0.90420699 1.554402
2.08357 0.89205903 1.557117
2.08884 0.88342005 1.556816
2.0901301 0.87140703 1.5584359
2.0687101 0.85111398 1.5658749
2.0946801 1.04689 1.537305
2.0699499 1.03263 1.545185
2.08092 1.0245099 1.5422119
2.0827901 1.0140899 1.5416961
2.08131 1.0022 1.5436291
2.0578399 0.98234499 1.548844
2.03865 0.96632403 1.553944
2.0293801 0.95625001 1.556978
2.0698099 0.92220801 1.5489349
2.0750501 0.91377604 1.549518
2.0867999 0.90769696 1.5476609
2.08796 0.89600301 1.549359
2.07443 0.87984395 1.554023
2.11748 1.0531601 1.524951
2.0850799 1.0355899 1.534543
2.0772901 1.02195 1.536734
2.0853901 1.0128399 1.535911
2.07125 0.99782503 1.5385879
2.0540199 0.98103201 1.5429081
2.04547 0.96889502 1.546616
2.0282001 0.95583898 1.5513511
2.06146 0.93185097 1.5432419
2.07623 0.92567801 1.541592
2.08583 0.91730797 1.5416839
2.08235 0.90522695 1.54295
2.0874898 0.89699095 1.5426049
2.09517 1.0385 1.525457
2.0743301 1.02347 1.5314599
2.0818899 1.0135701 1.5299921
2.07516 1.00051 1.5307419
2.06271 0.98548597 1.5345749
2.0502 0.970254 1.538432
2.0497701 0.94438004 1.537715
2.06991 0.93713796 1.535358
2.07725 0.92793405 1.5342799
2.07954 0.91583902 1.536443
2.0841498 0.90597701 1.5365809
2.06197 0.89085698 1.54168
2.0250199 1.05922 1.528026
2.1163299 1.0446 1.5139999
2.0834801 1.02516 1.523104
2.0806301 1.0116 1.5228391
2.07476 0.99742997 1.524946
2.0578599 0.98095399 1.5296021
2.0492899 0.968301 1.532124
2.04865 0.95712304 1.5324359
2.06668 0.94913697 1.5290899
2.0724499 0.93811899 1.528416
2.0803101 0.92948896 1.527789
2.07409 0.91746402 1.530396
2.0771799 0.90706497 1.531876
2.00348 1.07065 1.5272049
2.01105 1.06398 1.5259709
2.0154099 1.05637 1.5256529
2.0304 1.0522699 1.523055
2.1244299 1.05397 1.505659
2.11888 1.04354 1.506871
2.09518 1.0269101 1.513302
2.0918801 1.0141101 1.513659
2.0828102 1.00082 1.5165908
2.0659499 0.98422301 1.5212281
2.05633 0.970002 1.524827
2.0655799 0.96056801 1.5226539
2.06707 0.94872594 1.522704
2.07212 0.93954498 1.5219499
2.0752699 0.92880404 1.5232581
2.0691299 0.916008 1.526245
1.9902699 1.06093 1.5260761
2.0109501 1.0556999 1.5217301
2.0251899 1.04865 1.5187249
2.09884 1.0484101 1.503911
2.1150999 1.04344 1.501736
2.11044 1.03207 1.5034219
2.0998499 1.0177701 1.505986
2.09443 1.0045099 1.507632
2.0776401 0.98827797 1.512059
2.0618501 0.97116399 1.5165371
2.06268 0.95832199 1.516647
2.06775 0.94841599 1.5167489
2.0643799 0.93675399 1.5186169
2.0623 0.92404997 1.521346
1.9891601 1.05356 1.5224429
2.0341101 1.04758 1.510334
2.06861 1.04468 1.504024
2.09723 1.03994 1.4991601
2.1127801 1.0340199 1.497262
2.10431 1.02106 1.498843
2.0997601 1.00752 1.499619
2.0768299 0.98878306 1.5055119
2.07195 0.97628194 1.507829
2.06691 0.96342796 1.5089689
2.0604601 0.94969201 1.5113369
2.0371699 1.04618 1.5023309
2.0571899 1.0419101 1.4996039
2.08512 1.0371801 1.495189
2.1055901 1.03107 1.4927421
2.0951099 1.01675 1.4942709
2.09603 1.00648 1.493831
2.0852699 0.99273497 1.4969831
2.0706799 0.97588801 1.5011749
2.05638 0.95988101 1.504353
2.0446301 0.947685 1.507285
2.0304801 1.04431 1.4974339
2.0524499 1.0407599 1.4934289
2.0714102 1.03399 1.491042
2.08605 1.02482 1.4897159
2.0915802 1.0144 1.4891989
2.0877299 1.00309 1.489792
2.07213 0.98713404 1.493246
2.0566399 0.97091597 1.496949
2.03742 0.95544797 1.501758
2.0325899 1.04382 1.4906119
2.0498199 1.0389299 1.487298
2.0636501 1.03222 1.485865
2.07041 1.02209 1.48566
2.08341 1.01319 1.4847239
2.0745301 0.99936998 1.485835
2.06266 0.984245 1.4884759
2.04389 0.96884298 1.493008
2.02808 1.0424401 1.485262
2.04934 1.0391999 1.4814689
2.0555298 1.03023 1.4809539
2.07057 1.02327 1.479574
2.0676301 1.01033 1.4805521
2.0610499 0.99596196 1.481654
2.0501299 0.98169601 1.484995
2.02879 0.96607804 1.4903369
2.01668 1.04054 1.477049
2.0509501 1.0400901 1.4756039
2.05056 1.02973 1.4750689
2.0599499 1.01972 1.475372
2.0594001 1.00737 1.4749869
2.05182 0.99459398 1.476494
2.0146899 1.03985 1.4723819
2.0437601 1.03819 1.4696259
2.0459299 1.0274 1.468587
2.0498199 1.0165499 1.470201
2.0502 1.0047699 1.469388
2.0512099 0.99633002 1.469695
2.0114799 1.03957 1.466597
2.04005 1.03655 1.463378
2.0428998 1.0256701 1.4627349
2.0499601 1.0158499 1.463069
2.0551901 1.00675 1.4622879
2.04918 0.99707299 1.463351
2.0085299 1.03941 1.4612079
2.0303199 1.03591 1.457621
2.04409 1.02741 1.456543
2.0444 1.01627 1.457767
2.04861 1.0062001 1.457278
2.0534399 0.99845701 1.4552809
2.0076401 1.0390201 1.4553279
2.0295799 1.03582 1.4511029
2.04021 1.02747 1.4499339
2.0486999 1.01685 1.45078
2.04953 1.00551 1.449993
2.04248 0.99486601 1.450287
2.0111599 1.0386901 1.447639
2.0357401 1.0358 1.44453
2.0358901 1.02581 1.443949
2.04352 1.01501 1.443938
2.0434899 1.00316 1.444684
2.0411599 0.994721 1.443967
2.0020499 1.0376899 1.441087
2.0306501 1.03407 1.4385819
2.0392799 1.02394 1.437511
2.04461 1.0148001 1.4373
2.04281 1.00405 1.4382119
2.03724 0.99366897 1.4379261
1.99297 1.0369899 1.43547
2.01969 1.03379 1.432513
2.0325599 1.02442 1.431762
2.04146 1.0133001 1.431595
2.03862 1.00152 1.4323879
2.0376601 0.99307901 1.4314659
2.0009301 1.0467601 1.428526
2.0002401 1.0384201 1.428884
2.0204899 1.03407 1.4263899
2.02632 1.02536 1.425844
2.04212 1.0160199 1.4237629
2.03894 1.00225 1.425543
2.03544 0.99265599 1.4257801
1.99788 1.0380501 1.42364
2.01864 1.03362 1.4207019
2.03282 1.02513 1.418291
2.0384901 1.01494 1.4172651
2.04357 1.0052301 1.4178109
2.03757 0.99388295 1.4190179
2.0057001 1.03863 1.415928
2.02384 1.03292 1.412869
2.03409 1.02345 1.4112129
2.04249 1.01308 1.411134
2.0394502 1.0019799 1.4123349
2.0409 0.99426198 1.4112689
2.01613 1.0394599 1.4071159
2.02514 1.03221 1.4058969
2.0346601 1.02386 1.4045861
2.0390899 1.01442 1.405421
2.0414801 1.00346 1.4050059
2.0320699 0.99199998 1.406167
2.0276198 1.04198 1.3994699
2.0216 1.0332199 1.400663
2.02739 1.0245301 1.3995579
2.03585 1.01405 1.3991029
2.0416801 1.00428 1.397915
2.03649 0.99381602 1.3989639
2.0212901 1.03142 1.39456
2.02983 1.02213 1.3924758
2.03578 1.01202 1.3929371
2.03421 1.0014399 1.392644
2.03249 0.99208903 1.3922049
2.02404 1.03001 1.386371
2.0264101 1.02105 1.385801
2.03089 1.01106 1.387095
2.0297098 0.99966902 1.3861729
2.03548 0.99260902 1.385783
2.0145102 1.02828 1.38074
2.0188301 1.0208499 1.380394
2.0256 1.01026 1.380172
2.0262802 0.999309 1.380354
2.02916 0.99161303 1.3801219
2.0195 1.02859 1.373758
2.0217199 1.0195 1.373758
2.0220301 1.00921 1.374005
2.02665 1.0001301 1.374135
2.02352 0.99006301 1.373504
2.0240901 1.02873 1.3670089
2.0198901 1.02 1.3679739
2.02319 1.00947 1.367514
2.0253701 0.99846601 1.3677609
2.0192499 0.98876196 1.367085
2.02426 1.01885 1.360975
2.0250199 1.00968 1.360763
2.0233901 0.998734 1.361196
2.0173101 0.98777497 1.360678
2.02686 1.01722 1.3540779
2.02299 1.00771 1.3548379
2.01475 0.99495697 1.355119
2.00986 0.98534799 1.3553439
2.02491 1.0071601 1.348516
2.0147901 0.99598199 1.3493479
2.0180399 0.98781604 1.348496
2.0157201 0.99424303 1.342587
2.01402 0.98641998 1.342418
2.0289299 0.99622703 1.3356199
2.0150599 0.98587698 1.3370309
2.0213799 0.98730105 1.331883
2.0262802 1.0591201 1.919675
2.0228601 1.05846 1.9145199
2.0148699 1.04851 1.918046
2.01512 1.0541301 1.909897
2.0239999 1.04822 1.9049869
2.0007899 1.05066 1.9094009
2.0221 1.0469 1.8998889
2.0057001 1.03776 1.906311
2.0125999 1.0443699 1.8971699
2.00806 1.03626 1.8975379
2.0039899 1.0407901 1.8920159
2.01126 1.0350701 1.888905
1.94716 1.00781 1.918149
1.98798 1.03798 1.8900889
1.9952 1.03009 1.888515
1.9672199 1.01315 1.9011559
1.94523 0.998658 1.912413
1.9103501 1.04774 1.912267
1.96737 1.0376201 1.890654
1.9875 1.0298899 1.8840461
1.99051 1.01863 1.8835609
1.96806 1.0027699 1.894309
1.9336799 0.98572999 1.9106469
1.93005 1.04611 1.8985089
1.95797 1.03684 1.8877679
1.97881 1.02987 1.8806641
1.9935499 1.02072 1.8746741
1.9861799 1.0066 1.8779819
1.96966 0.99230105 1.8866251
1.94687 0.97987503 1.897548
1.87 1.1028299 1.911628
1.90267 1.0546399 1.902984
1.92258 1.0452501 1.8944949
1.94871 1.03721 1.8844169
1.9763 1.0281199 1.874064
1.9954 1.01755 1.8663181
2.00669 1.0086399 1.862072
1.99078 0.99629402 1.869143
1.9762601 0.98486 1.8773279
1.86655 1.11131 1.9065619
1.87666 1.1028299 1.902572
1.9103799 1.0464 1.8930529
1.9372001 1.03776 1.8817619
1.9647501 1.02843 1.8705659
1.98935 1.01851 1.8607019
1.99649 1.00732 1.8598599
1.9929401 0.99645799 1.8603821
1.9862 0.98578101 1.8640389
1.8721499 1.1128299 1.8967869
1.8772 1.10436 1.895067
1.87809 1.0934401 1.895318
1.95727 1.03496 1.86543
1.9744501 1.0265599 1.8586079
1.98772 1.0169101 1.8533301
1.98886 1.006 1.8552389
1.98764 0.993312 1.8547919
1.9835 0.981498 1.8567261
1.9559801 0.92707002 1.8699479
1.96146 0.919339 1.8678571
2.0153899 0.90898901 1.8478141
2.0169501 0.90067202 1.8480741
2.0034599 0.886648 1.8549839
2.0131102 0.87648398 1.8518381
2.01613 0.8635 1.85215
2.0130601 0.85106105 1.855485
1.87363 1.11647 1.8870859
1.8705901 1.1052899 1.8905231
1.95758 1.0346 1.8577839
1.96558 1.02759 1.854764
1.98412 1.0191001 1.8473569
1.9858099 1.00551 1.8475651
1.9905 0.99352598 1.845737
1.9820501 0.98067904 1.8503101
1.97613 0.96737397 1.8529348
1.9704801 0.95249605 1.8558359
1.97269 0.94021499 1.856719
1.9703599 0.92970598 1.8584619
1.97393 0.91902298 1.85671
2.01934 0.91046202 1.840896
2.0248802 0.90288806 1.8397059
2.0232699 0.89142799 1.8410709
2.02953 0.88081199 1.8396219
2.0313499 0.86937302 1.8396
2.0341902 0.85653394 1.840786
1.84754 1.12705 1.888659
1.8611599 1.11682 1.8859189
1.8625101 1.10474 1.8879249
1.9628 1.03504 1.8487369
1.97044 1.0271701 1.8451278
1.98235 1.01656 1.8401929
1.98431 1.00556 1.8408121
1.98717 0.99558294 1.840121
1.98289 0.98264098 1.8425189
1.9762 0.96864402 1.846243
1.9755901 0.95612097 1.8482089
1.96795 0.94150198 1.8527811
1.96444 0.92700696 1.8548028
1.98237 0.91827399 1.847647
2.0010099 0.91046202 1.8416439
2.0204499 0.90242994 1.835667
2.02034 0.89183897 1.835714
2.0294502 0.88070297 1.8335959
2.036 0.86919194 1.831507
2.0360699 0.85920501 1.8332009
1.84547 1.13989 1.880674
1.86203 1.13115 1.8755499
1.9654801 1.0346 1.84017
1.97572 1.02703 1.835004
1.9852201 1.01737 1.830721
1.9817599 1.00506 1.8349631
1.9788901 0.99233496 1.835737
1.97847 0.97981799 1.8376111
1.95919 0.96622497 1.8462799
1.96666 0.95409501 1.846431
1.94627 0.93681699 1.856304
1.95925 0.914092 1.8524441
1.97332 0.90603501 1.8476019
2.0079801 0.90061599 1.8348529
2.0162802 0.89008904 1.832497
2.0166199 0.86473101 1.834758
2.03285 0.85738099 1.829263
1.8426 1.14232 1.8748339
1.8585601 1.13466 1.8692441
1.9719501 1.03545 1.8293179
1.98007 1.0273 1.8250009
1.98435 1.01736 1.8242559
1.9825901 1.0056 1.826332
1.9733701 0.99212998 1.829772
1.97569 0.98160201 1.830748
1.8423101 1.1443599 1.8677909
1.97509 1.03706 1.8188061
1.97611 1.02783 1.819387
1.983 1.01727 1.817397
1.9765601 1.0021499 1.82075
1.97517 0.99061203 1.822269
1.96566 0.98082495 1.826961
1.96603 1.04601 1.813833
1.98151 1.03993 1.809082
1.9819299 1.02999 1.8100079
1.9826801 1.0186599 1.809176
1.98566 1.00615 1.8087029
1.9831101 0.99333 1.811518
1.9735899 0.98290497 1.8167599
1.96541 1.04679 1.8072119
1.9725599 1.03935 1.805629
1.9772999 1.02876 1.8039969
1.98703 1.01805 1.8003321
1.9917799 1.0064499 1.7980909
1.98515 0.99431801 1.8028849
1.98086 0.98485601 1.8065021
1.96427 1.04618 1.800719
1.9767101 1.0387501 1.7970591
1.98137 1.02882 1.7950699
1.9897301 1.01808 1.7918091
1.99472 1.0067401 1.789361
1.98781 0.99458003 1.7942051
1.98063 0.98478997 1.798986
1.9500999 1.04348 1.798573
1.9704601 1.0378801 1.7922349
1.98646 1.02917 1.785766
1.99194 1.01818 1.7836239
2.00159 1.0077701 1.7793289
1.99164 0.99517798 1.785256
1.9882699 0.98604304 1.7885599
1.9751199 1.03719 1.7825999
1.98964 1.02868 1.7777079
1.99584 1.01888 1.774812
1.99896 1.00736 1.7728909
1.9978501 0.99615097 1.7754889
1.99501 0.98714799 1.778559
1.9715199 1.0363801 1.7760669
1.98194 1.02874 1.772893
2.0019 1.01994 1.765062
2.0092599 1.0089 1.761745
2.0030601 0.99696195 1.766165
2.00195 0.98828501 1.768575
1.9338001 0.95390999 1.7899899
1.92828 0.94296205 1.7931329
1.91408 0.92854601 1.799778
1.90362 0.915591 1.804655
1.90984 0.90527701 1.8027139
1.9160401 0.89222097 1.8008521
1.9129801 0.87713701 1.8031211
1.9044 0.86290604 1.8070849
1.97544 1.0362101 1.7677939
1.98911 1.02915 1.7624359
2.00155 1.01959 1.757674
2.0120499 1.00896 1.7534329
2.0061901 0.99744397 1.7576699
2.0034699 0.98850703 1.760633
1.94619 0.95767701 1.7795939
1.9423801 0.94781405 1.7822651
1.9278101 0.933155 1.788913
1.92091 0.91904902 1.7930839
1.92556 0.90647596 1.790998
1.92791 0.89456594 1.7912961
1.9282001 0.88251096 1.7917629
1.92198 0.867805 1.7952429
1.91924 0.85430902 1.7964599
1.91659 0.84088403 1.7972419
1.97216 1.03531 1.7616229
1.99611 1.0297899 1.752412
2.00981 1.0198799 1.746987
2.0150301 1.00862 1.7458209
2.0119801 0.99844599 1.7483259
2.0020499 0.98838896 1.753539
1.94827 0.95839 1.7733009
1.9409801 0.94896203 1.7764771
1.92978 0.93564397 1.781364
1.92273 0.92026198 1.7853159
1.92782 0.90744102 1.7836529
1.92768 0.893637 1.785015
1.9320101 0.88177299 1.7835721
1.93031 0.87090498 1.7859008
1.9232601 0.85598999 1.788493
1.9145 0.84108496 1.792932
1.9828999 1.03668 1.750432
1.9986701 1.03012 1.7439909
2.0148699 1.0214601 1.737381
2.0133801 1.0092 1.7398279
2.01458 0.99925101 1.740849
2.0070701 0.98922503 1.743739
1.9347099 0.95509696 1.7731559
1.92599 0.94356698 1.7767029
1.91816 0.93009496 1.780409
1.89976 0.91456705 1.787666
1.9078799 0.89014506 1.7862839
1.91794 0.87864196 1.782802
1.9255 0.86808294 1.780645
1.9203501 0.85345805 1.781206
1.92769 0.84238404 1.780864
1.81569 1.04115 1.7979511
1.99401 1.0381 1.739238
2.00933 1.03168 1.732908
2.02018 1.0228601 1.728268
2.0177801 1.01064 1.7309179
2.01421 0.99858701 1.733706
2.00386 0.98811603 1.7373348
1.91642 0.86336303 1.7769269
1.9183201 0.85211301 1.775288
1.9187399 0.84054101 1.776333
1.80836 1.0489 1.791918
2.00527 1.0393801 1.7278991
2.01494 1.03232 1.723823
2.02228 1.02378 1.7209359
2.0249 1.01322 1.7211249
2.0235701 1.00126 1.722703
2.0186999 0.99069804 1.724924
1.8045399 1.05573 1.7857739
1.82241 1.05011 1.7783459
2.0083599 1.03975 1.718926
2.0152001 1.03177 1.7172
2.0218899 1.02211 1.7143021
2.0218301 1.0092601 1.715542
2.01806 0.99773902 1.717455
2.0182199 0.989573 1.717636
1.8798699 1.15785 1.745822
1.8209399 1.05706 1.7722589
1.82707 1.05108 1.7684959
2.0060899 1.04017 1.7124929
2.0077801 1.03192 1.7124209
2.0260801 1.02449 1.7054989
2.02457 1.0119001 1.7068559
2.02634 1.00053 1.7081839
2.02248 0.98993403 1.708793
1.8955499 1.15729 1.735446
1.9053 1.14608 1.731266
1.89556 1.13551 1.7344071
1.8278799 1.0585999 1.761687
1.8486501 1.05322 1.7533859
1.8944 1.04638 1.7359909
2.0002601 1.03915 1.707775
2.0134101 1.03221 1.703118
2.0209801 1.02253 1.700659
2.0295799 1.01186 1.6975709
2.0221801 0.99940699 1.7025479
2.02354 0.98884004 1.701017
2.00211 0.97772598 1.70898
1.8978101 1.15416 1.7281009
1.90685 1.14388 1.724684
1.90953 1.13456 1.7238801
1.8350501 1.07059 1.7482649
1.84515 1.0615699 1.7471009
1.86825 1.05294 1.739242
1.8917301 1.04619 1.732149
2.0023301 1.0389299 1.699361
2.01582 1.0317501 1.695838
2.0283 1.0233799 1.6913269
2.0349898 1.01273 1.688593
2.03053 0.99964106 1.692287
2.0295899 0.98935503 1.6929129
2.0135899 0.97927004 1.698987
1.89654 1.15345 1.72154
1.89836 1.1445099 1.7213049
1.90525 1.13377 1.7185829
1.90425 1.12131 1.717648
1.90251 1.1111699 1.717298
1.84016 1.0822899 1.737391
1.84566 1.07226 1.738539
1.8552499 1.06197 1.7370099
1.8568801 1.05208 1.735148
1.87442 1.0446399 1.731521
1.99909 1.03924 1.6932429
2.01385 1.03266 1.689243
2.0335801 1.0241799 1.682431
2.0372901 1.01306 1.6808839
2.03861 1.00265 1.6826661
2.0355 0.99114305 1.684088
1.87841 1.1505899 1.720021
1.8994299 1.14248 1.7138499
1.9035201 1.1299601 1.711985
1.9116 1.11994 1.7093891
1.9074401 1.10962 1.7099359
1.85001 1.0849299 1.727951
1.8417599 1.07371 1.732084
1.8455701 1.06232 1.7326379
1.8453 1.05117 1.731243
1.85191 1.04222 1.7299969
2.0093899 1.04029 1.683472
2.02162 1.0329499 1.6793209
2.04057 1.02416 1.673134
2.0479801 1.0144 1.671788
2.04212 1.00212 1.6741589
2.03162 0.98892599 1.6776249
2.0211401 0.97973394 1.681868
1.88722 1.14157 1.7118289
1.8980701 1.13021 1.7077899
1.91079 1.11918 1.7036231
1.8999699 1.10649 1.704993
1.8790401 1.09271 1.7121179
1.84532 1.07469 1.724001
1.8420501 1.06116 1.725468
1.8332601 1.04776 1.7279348
1.8281599 1.0383899 1.730003
2.0188 1.04065 1.6729199
2.0288999 1.0331501 1.670437
2.0383 1.02449 1.6666789
2.0422502 1.01359 1.6676309
2.0482399 1.00332 1.664494
2.0369401 0.990367 1.669384
2.0262198 0.98017901 1.6741229
1.8971001 1.11559 1.700923
1.89987 1.1054699 1.6988549
1.89597 1.09554 1.699881
1.8955799 1.08587 1.699168
1.8466499 1.06138 1.7158359
1.8414501 1.0500901 1.718537
1.8224499 1.03793 1.7254519
2.0163698 1.04116 1.665754
2.02807 1.0339299 1.6639011
2.04129 1.02557 1.6585629
2.04146 1.01379 1.660697
2.05021 1.0044 1.657279
2.0483298 0.99339795 1.658524
2.0317299 0.98174596 1.6656839
1.8932099 1.10242 1.695004
1.90687 1.0936799 1.6898971
1.91758 1.0839801 1.684835
1.87974 1.06435 1.6976058
1.86985 1.0552601 1.7022251
1.8237801 1.03889 1.7195859
2.01333 1.0412 1.6602401
2.02688 1.03478 1.6568149
2.0446601 1.02689 1.6506959
2.04987 1.0149 1.6505131
2.0458 1.00205 1.652755
2.0478301 0.99322802 1.651987
2.0409 0.98398596 1.655764
1.9146401 1.0915 1.6801889
1.92713 1.08218 1.675355
1.9150701 1.0701001 1.679762
1.9002 1.0592099 1.685729
2.0113401 1.04064 1.654869
2.02953 1.03433 1.648827
2.05058 1.0256 1.642527
2.0571601 1.01573 1.641856
2.05619 1.00459 1.6427069
2.0564799 0.99481201 1.6439999
1.9022501 1.08845 1.676227
1.9268299 1.08226 1.669229
1.93042 1.0718399 1.6682119
1.9228799 1.06112 1.670882
2.01457 1.04002 1.6469629
2.03493 1.03407 1.639904
2.0551701 1.02608 1.6343369
2.0550101 1.01528 1.6362649
2.0557401 1.00493 1.6350091
2.0578699 0.996548 1.6365908
1.91808 1.0799 1.665363
1.92978 1.07212 1.662051
1.9372301 1.0616601 1.6590689
1.92733 1.0518 1.662318
2.01951 1.0397201 1.638783
2.03601 1.03468 1.633566
2.04758 1.0269899 1.6302938
2.0593901 1.01608 1.6272459
2.0645101 1.00572 1.625867
2.0620799 0.99767798 1.6283909
1.9316701 1.0687699 1.6542549
1.9390301 1.06002 1.6518021
1.9376199 1.05073 1.652081
1.96621 1.04415 1.6423661
2.03672 1.03298 1.627586
2.0553999 1.0250599 1.621632
2.05917 1.01573 1.62079
2.05878 1.0055699 1.6208609
2.06534 0.99798501 1.620688
1.9166299 1.0643699 1.6509019
1.93458 1.0575299 1.6465619
1.9458001 1.04874 1.6432221
1.96077 1.04164 1.637815
2.0616999 1.02665 1.61245
2.0580499 1.01517 1.6146381
2.0632 1.005 1.61291
2.0608201 0.99631202 1.614236
1.91617 1.05444 1.6450861
1.94743 1.04792 1.636351
1.96921 1.04055 1.6291001
2.03441 1.0319999 1.6121299
2.0608299 1.02706 1.6059439
2.06408 1.01781 1.605563
2.0622702 1.0064399 1.6074539
2.06602 0.99676299 1.6062269
2.0673599 0.98757398 1.605382
1.93558 1.04688 1.634346
1.96903 1.04002 1.6246819
2.01455 1.03396 1.611765
2.0571601 1.0269899 1.6004199
2.0715699 1.01806 1.597332
2.06868 1.00616 1.598581
2.06831 0.99371696 1.598933
2.0571001 0.98268801 1.6015199
1.98146 1.03934 1.6164929
2.0385599 1.03466 1.5980649
2.05919 1.0273499 1.5922501
2.0655499 1.01627 1.5924381
2.0726299 1.0057 1.590495
2.07143 0.99510801 1.5916929
2.0627902 0.983329 1.5942439
2.0483 0.97289705 1.598222
2.0281899 1.04091 1.5937891
2.0497401 1.03591 1.588215
2.0646 1.02863 1.584981
2.06322 1.01773 1.585587
2.06675 1.0060099 1.5858539
2.07024 0.99621695 1.5858279
2.06654 0.98525298 1.586913
2.04246 0.97178495 1.593199
2.0346999 1.04225 1.5853571
2.0465801 1.0363201 1.5829669
2.0585799 1.02798 1.580487
2.0664101 1.01736 1.5777469
2.0657301 1.00695 1.5796679
2.0619199 0.99385399 1.5810339
2.06001 0.98208505 1.582256
2.03671 0.96969801 1.5872679
2.0809 0.85708702 1.5807889
2.0927901 0.84912103 1.579968
2.02597 1.04278 1.579896
2.0456901 1.03592 1.576802
2.0650399 1.02686 1.5720689
2.07339 1.0177799 1.570172
2.0668201 1.00604 1.5724781
2.06991 0.99500704 1.572302
2.05316 0.98128504 1.576751
2.03371 0.96904701 1.5819
2.07638 0.865762 1.5759461
2.0981901 0.86213702 1.5718399
2.1045198 0.85424697 1.5711761
2.01897 1.04335 1.575223
2.0372701 1.03756 1.5715089
2.0592501 1.02929 1.5667568
2.06674 1.0171399 1.5653949
2.0669701 1.006 1.5659461
2.06622 0.99470901 1.5667748
2.0513 0.98031402 1.569519
2.03387 0.96886003 1.5756439
2.0867901 0.87784696 1.5674781
2.09095 0.87088603 1.566962
2.1010001 0.86360496 1.5649741
2.0994999 0.85500699 1.5651399
1.99743 1.04805 1.575314
2.02209 1.04294 1.5692309
2.0485001 1.0369 1.5625299
2.0651801 1.02763 1.558373
2.0768402 1.01855 1.556379
2.06936 1.0060199 1.5587449
2.05918 0.99149698 1.5614799
2.0538099 0.97990197 1.562392
2.0364001 0.96841002 1.567379
2.0757699 0.90006697 1.5592639
2.09357 0.89474404 1.556227
2.0934401 0.88235301 1.559629
2.0964501 0.8732 1.5592679
2.0992701 0.86384499 1.5588781
2.0866098 0.85264295 1.562391
2.0388601 1.04252 1.558717
2.05744 1.03571 1.5538831
2.0644901 1.0274401 1.5524299
2.07584 1.01834 1.550065
2.0703301 1.00538 1.551393
2.06512 0.99472398 1.5541149
2.0555401 0.98221999 1.556219
2.04087 0.96877801 1.559724
2.0230701 0.95644701 1.5636319
2.07442 0.91144997 1.5533271
2.0862899 0.90445298 1.5515269
2.08605 0.89338094 1.552871
2.0917199 0.883627 1.5538089
2.0918801 0.87260103 1.55431
2.07795 0.85920799 1.5586499
2.0715301 1.03738 1.544252
2.07058 1.02794 1.54513
2.0801301 1.01922 1.5429709
2.07373 1.00764 1.544028
2.06446 0.99323499 1.547446
2.0484099 0.97788697 1.5514319
2.0320501 0.96441102 1.555257
2.0190401 0.95392197 1.5582069
2.0720201 0.92154604 1.547379
2.08584 0.91579801 1.5452108
2.0886099 0.90736097 1.5450048
2.0899801 0.89703006 1.5459439
2.0854499 0.883564 1.5491809
2.06952 0.86722296 1.5548301
2.0857601 1.0383999 1.534633
2.0676 1.02776 1.5390179
2.0783701 1.01912 1.537567
2.0739601 1.0079399 1.537318
2.0696299 0.99523497 1.5386881
2.0497599 0.979563 1.544426
2.04265 0.96750098 1.5469149
2.0197899 0.95283997 1.5513049
2.08181 0.923985 1.5399719
2.0860898 0.91613901 1.538911
2.0870299 0.90567201 1.5400989
2.08834 0.89712995 1.5401709
2.0692399 1.02713 1.532578
2.0739901 1.01796 1.5312289
2.0708702 1.00503 1.5318199
2.06218 0.99223703 1.5336479
2.0596201 0.981381 1.535347
2.04724 0.96809196 1.5393399
2.01963 0.95007497 1.545092
2.04775 0.94692802 1.538483
2.06303 0.93733197 1.5345279
2.0795 0.92637604 1.533056
2.08621 0.91742301 1.5327851
2.08445 0.90678102 1.534476
2.06868 0.89445901 1.538293
2.1308401 1.05027 1.510563
2.0757 1.02658 1.5242459
2.07548 1.01809 1.524547
2.0767901 1.00888 1.524354
2.07477 0.995924 1.5244859
2.0647199 0.98228401 1.5275921
2.0543602 0.96889603 1.530903
2.04774 0.95604795 1.533607
2.0662 0.948461 1.5287579
2.0774801 0.93842202 1.526279
2.0748398 0.92688501 1.5283689
2.0845001 0.91834295 1.528098
2.06286 0.902228 1.534292
2.1222501 1.05588 1.5076489
2.1252999 1.04764 1.5065711
2.09549 1.0326899 1.5128399
2.08041 1.01879 1.51779
2.0813301 1.0074099 1.5165249
2.0820301 0.995776 1.516324
2.0697999 0.98317397 1.5199859
2.0676899 0.97135198 1.5214139
2.0595598 0.95825303 1.52467
2.07412 0.94957495 1.5208099
2.0762 0.93981904 1.5201269
2.07845 0.92983198 1.521896
2.0829802 1.0491999 1.508069
2.1038101 1.04344 1.5051639
2.1047099 1.0329 1.5046649
2.09168 1.0200499 1.508559
2.0888801 1.00899 1.508881
2.08465 0.99782503 1.509522
2.0724099 0.98394305 1.5129551
2.0687199 0.97185403 1.51465
2.0699301 0.96037805 1.5158429
2.0712199 0.94924498 1.5148211
2.0722301 0.93932199 1.514843
2.04546 0.92665803 1.5194159
2.0484099 1.04513 1.5081298
2.07813 1.04056 1.503376
2.10467 1.0338501 1.4989909
2.10203 1.02317 1.500407
2.08657 1.0088301 1.5031791
2.08969 0.99821097 1.5026751
2.07373 0.98498499 1.5060179
2.06846 0.97309899 1.50851
2.0680001 0.96094805 1.509084
2.06831 0.94893998 1.5090539
2.0607901 0.93842697 1.5111799
2.0355701 1.04374 1.5050579
2.0530901 1.03783 1.501448
2.0878401 1.0317299 1.495959
2.0989301 1.0221499 1.4950479
2.0831699 1.00861 1.496537
2.0791399 0.995906 1.498765
2.0755601 0.98460901 1.4997479
2.0643699 0.97202104 1.502685
2.05844 0.958749 1.504084
2.04175 0.94517303 1.5085359
2.03913 1.04372 1.49841
2.05513 1.03724 1.4940689
2.0752599 1.02991 1.491794
2.08934 1.02071 1.490502
2.0818 1.0095401 1.49067
2.08162 0.99872202 1.4913479
2.0687301 0.98407 1.494928
2.0555601 0.96980399 1.4976709
2.03425 0.95552695 1.5028839
2.0422599 1.04326 1.49051
2.0504 1.03582 1.4887241
2.06288 1.02763 1.487538
2.0771201 1.01871 1.4864789
2.0763299 1.0073301 1.4860018
2.0701699 0.99496299 1.4874271
2.0538201 0.98090899 1.4908479
2.0451 0.96922994 1.493624
2.0382202 1.04307 1.484001
2.0418999 1.03543 1.484448
2.0553401 1.02684 1.4824561
2.0661199 1.01598 1.4815669
2.0664501 1.0040699 1.481989
2.0602601 0.99268603 1.4828929
2.0404401 0.97978801 1.4866099
2.02514 1.04151 1.479519
2.0360999 1.03477 1.478967
2.0492799 1.02711 1.4776551
2.0522501 1.0154799 1.4766361
2.05581 1.0029399 1.47737
2.04598 0.99025297 1.479301
2.0318401 0.98056501 1.480805
2.0141401 1.0403501 1.4749409
2.0308099 1.0343599 1.473304
2.04598 1.02531 1.471501
2.0466099 1.01342 1.470793
2.0525701 1.00438 1.4711909
2.0476699 0.99256301 1.4724649
2.0259299 0.98056501 1.475876
2.0032499 1.03918 1.4703031
2.02477 1.03452 1.4681281
2.0287499 1.025 1.467582
2.04371 1.01493 1.4653109
2.0437801 1.00221 1.465675
2.04247 0.99146795 1.4670279
1.9960999 1.03819 1.4656549
2.0197401 1.03286 1.46199
2.0335801 1.02231 1.4603419
2.0476899 1.0129399 1.4587979
2.0351899 1.0004799 1.459455
2.03901 0.99134499 1.46003
1.9958501 1.03804 1.4596649
2.0154901 1.0325 1.4555271
2.0236399 1.0226799 1.4546961
2.03702 1.01209 1.454072
2.0339 1.00059 1.452997
2.03497 0.99061996 1.453961
2.0133801 0.97895795 1.458087
1.99835 1.03773 1.451944
2.0156701 1.03097 1.4495159
2.0353301 1.0238 1.4467579
2.0313201 1.01195 1.447562
2.02917 0.99999499 1.4479939
2.03161 0.99083501 1.448241
2.0155401 0.97943604 1.451859
1.9953901 1.0381401 1.445148
2.0090699 1.03176 1.444537
2.0208502 1.0226899 1.4428259
2.0324202 1.0126799 1.4403999
2.03145 1.00024 1.441337
2.0332601 0.99029601 1.4423889
1.99288 1.03777 1.4392569
2.00912 1.0315599 1.4377719
2.02565 1.02186 1.4347949
2.03351 1.01078 1.4345011
2.0286798 0.99952298 1.434166
2.02953 0.98989505 1.4351999
1.9983299 1.03792 1.4321809
2.0115402 1.0306 1.430838
2.02321 1.02263 1.4284101
2.0307801 1.0111001 1.4279441
2.02753 0.99918604 1.428574
2.0281599 0.98947603 1.428429
2.0062399 0.97767097 1.4320799
1.9913499 1.0372699 1.4265081
2.0076199 1.03064 1.42433
2.03157 1.0223401 1.421568
2.03228 1.0114701 1.4204299
2.0278502 0.99861699 1.4226129
2.0229101 0.98750502 1.4234549
2.01752 0.97914594 1.4242129
1.9936399 1.0378 1.420128
2.00612 1.0314801 1.4174649
2.02812 1.0226799 1.4149719
2.03304 1.01178 1.414524
2.0307701 1.00056 1.4150769
2.0230901 0.98821402 1.4177719
2.0095799 0.978212 1.4190849
1.99025 1.03695 1.4139071
2.01261 1.03113 1.410249
2.02244 1.02161 1.408298
2.03093 1.01073 1.4088199
2.0369501 1.00094 1.408305
2.0308502 0.99088699 1.409753
1.9938999 1.03679 1.4060769
2.0132301 1.03004 1.4037129
2.0221 1.02158 1.402511
2.0274498 1.01178 1.4019741
2.0312901 1.00026 1.4027939
2.0307 0.99142402 1.402849
1.9925101 1.03697 1.398716
2.0053501 1.03063 1.398705
2.0179899 1.0212799 1.3969921
2.03039 1.0122499 1.395612
2.0255499 1.00139 1.3963739
2.03196 0.99249494 1.3958279
1.98931 1.0363801 1.3920599
2.00453 1.02966 1.3921249
2.0188699 1.0213799 1.390722
2.0239201 1.01123 1.3903369
2.0287199 0.99980497 1.3890979
2.0273199 0.99118203 1.3899789
1.9828 1.0364701 1.3861769
1.9991001 1.02964 1.385607
2.0164499 1.02089 1.385123
2.0196199 1.00895 1.383426
2.01916 0.99739504 1.383315
2.0255599 0.99016196 1.3839639
1.9632699 0.96043098 1.38657
1.97269 1.03536 1.3813089
1.9877901 1.0291101 1.380031
2.0116498 1.0200801 1.37805
2.02163 1.01025 1.3772389
2.0202799 0.99956298 1.377243
2.01282 0.98599195 1.3777119
1.97412 0.96475405 1.3811439
1.94576 0.94932604 1.3841181
1.93769 0.93952501 1.384769
1.97735 1.03514 1.374915
1.99572 1.02784 1.372716
2.0133801 1.01896 1.370791
2.0182099 1.00928 1.3719009
2.0150001 0.99660403 1.3712
2.0147099 0.98552102 1.371429
1.98149 0.968701 1.3746579
1.9558799 0.95248199 1.3783309
1.9452901 0.94160402 1.3789051
1.97964 1.03557 1.369556
1.9901601 1.02811 1.367613
2.0100901 1.02026 1.364594
2.01513 1.0082 1.3650991
2.0155001 0.99691701 1.364971
2.00964 0.98497498 1.3658389
1.98243 0.96854597 1.3679419
1.9576199 0.95301402 1.3717749
1.9430901 0.94122905 1.373417
2.0204699 1.02915 1.357546
2.01232 1.01992 1.358261
2.0159299 1.0106601 1.358259
2.01408 0.997123 1.358562
1.9996001 0.98159897 1.3600479
1.98218 0.96693397 1.3628391
1.95049 0.95067596 1.3674469
2.03931 1.03 1.3494929
2.0173399 1.01904 1.3520269
2.01999 1.0089 1.35207
2.00986 0.99738199 1.351854
2.0120001 0.98675001 1.3521649
1.99397 0.97346002 1.3542389
2.016 1.0177101 1.3453259
2.016 1.0083699 1.346221
2.01263 0.99621499 1.3453411
2.00578 0.98454005 1.3469
1.9858201 0.97356498 1.3483679
2.0255899 1.0171601 1.337867
2.0130601 1.00655 1.339412
2.01229 0.99642503 1.3392501
2.0125899 0.98723602 1.3397651
2.0160799 1.00613 1.3323799
2.0119901 0.99637395 1.333109
2.0118799 0.98763299 1.332763
2.0318699 1.00676 1.3249159
2.0084701 0.995911 1.326931
2.0090899 0.98714995 1.32599
2.00669 0.99286401 1.32055
2.00705 0.98525703 1.3201519
1.9957401 0.976466 1.3208671
2.0327599 0.99475598 1.3131211
2.0137801 0.98494399 1.3142749
2.0507002 0.981062 1.309599
2.0784299 0.97542399 1.3062379
2.03544 0.986552 1.307578
2.0671101 0.98176402 1.3034171
2.0850101 0.97565401 1.301626
2.10286 0.96804601 1.300329
2.1079099 0.957919 1.300097
2.108 0.94975197 1.3003509
2.0882499 0.99092597 1.297256
2.0762398 0.98172498 1.2979029
2.0993202 0.97677302 1.296243
2.11092 0.96907204 1.295494
2.1140699 0.95962304 1.2961749
2.12639 0.95374703 1.295831
2.08744 0.98257101 1.293049
2.10973 0.97733599 1.291718
2.1235201 0.97048402 1.2913929
2.1501701 1.1751699 1.2430749
2.15224 1.16957 1.242713
2.1493201 0.93404406 1.245262
2.15769 1.1752501 1.2391208
2.1601801 1.1701599 1.2382091
1.9913601 1.07248 1.238379
1.99283 1.0643699 1.2380784
2.15361 1.17483 1.234185
2.1612601 1.16998 1.2327027
1.9884501 1.07152 1.2339129
1.98271 1.0624601 1.2335519
1.97541 1.0507801 1.2331787
1.99826 1.04029 1.2324501
2.00266 1.03052 1.2320882
2.1609101 0.97427905 1.2344583
2.15468 1.17472 1.2281775
2.1394999 1.16855 1.2269447
1.9868801 1.0633399 1.2287543
1.98315 1.0524601 1.2276974
1.98707 1.04036 1.2277409
2.0005801 1.0300801 1.2277373
2.0045099 1.02016 1.2273984
2.0085001 1.00764 1.2260627
2.0148301 0.99579698 1.2257504
2.02316 0.98651397 1.2258683
1.99034 0.96210295 1.2251632
2.1292901 1.17395 1.221662
2.13498 1.16821 1.2213953
1.97916 1.06029 1.2221558
1.99439 1.05282 1.2217282
1.9783599 1.0403199 1.2212106
1.98797 1.02915 1.2217271
2.00247 1.01825 1.2219833
2.00212 1.00665 1.2213293
2.0074999 0.996225 1.2210264
2.0116601 0.98561305 1.2218916
2.00213 0.97336 1.2213852
1.97752 0.96005201 1.220989
2.1217599 1.18497 1.2138296
2.1167901 1.17518 1.2152812
2.13767 1.16784 1.2153218
1.97849 1.05968 1.2141578
1.99208 1.05137 1.2155241
1.97518 1.03903 1.2151645
1.98729 1.0304799 1.2152609
1.99483 1.01933 1.2153289
2.00372 1.00712 1.2151574
2.0044601 0.99484903 1.2148968
2.00773 0.98455596 1.2165867
1.99226 0.97225797 1.2164782
2.1322901 1.1763301 1.2096767
2.14258 1.16686 1.2099134
2.1461799 1.15711 1.2090158
2.1354201 1.14387 1.2079544
2.1177399 1.1313 1.2075062
2.1017301 1.1207399 1.2070581
1.99429 1.05322 1.2079284
1.9883 1.0395501 1.209215
1.98658 1.0273499 1.209318
1.99821 1.01709 1.2084006
2.00424 1.00723 1.2086653
2.0050499 0.99708503 1.2088859
2.00421 0.985753 1.2095205
2.1282699 1.1855 1.2038131
2.1263299 1.17494 1.2038084
2.1477499 1.16583 1.2048099
2.1547899 1.15693 1.20464
2.1440401 1.1470701 1.2040693
2.12589 1.13439 1.2031935
2.11742 1.12254 1.2031654
2.11483 1.1128299 1.2024359
2.00808 1.08208 1.2013469
1.99177 1.07291 1.2017757
2.00616 1.06538 1.2021341
2.00648 1.0541 1.2010455
1.99457 1.0410399 1.2020135
1.99515 1.0281301 1.2028376
1.99277 1.0167199 1.2023497
2.0011702 1.0064499 1.2023679
2.00366 0.995125 1.2030628
2.00125 0.98651803 1.201748
2.1210299 1.17661 1.1995567
2.1443501 1.16607 1.1999661
2.1535001 1.1563201 1.2002108
2.1354401 1.14469 1.1988093
2.1261399 1.13432 1.1977363
2.12147 1.12421 1.1978966
2.11639 1.11248 1.1972595
2.1055999 1.1012501 1.1964889
2.01596 1.07477 1.1970042
2.0180399 1.06499 1.1960006
2.0210299 1.05486 1.1953791
2.0027299 1.04233 1.1954677
1.99608 1.02948 1.1959505
1.99795 1.01773 1.1967863
1.99999 1.0064601 1.1949919
2.0028601 0.99558294 1.1964356
2.00033 0.98665601 1.1948754
2.1266298 1.15294 1.1949555
2.13081 1.14168 1.1938227
2.12498 1.13194 1.1931767
2.1159101 1.12094 1.1922106
2.12045 1.11137 1.1920618
2.10519 1.10016 1.1911459
2.0799401 1.0860701 1.1901934
2.04726 1.07023 1.1905872
2.0232499 1.05629 1.1900301
2.0104601 1.04426 1.1900467
2.0016901 1.03139 1.1890181
1.9982201 1.01823 1.1899811
1.9988699 1.00686 1.1884216
1.99977 0.99524003 1.1888914
1.9916999 0.98514295 1.1885809
2.10535 1.1295099 1.1883783
2.10829 1.12018 1.1877317
2.11324 1.10947 1.1871771
2.10075 1.0982801 1.1859236
2.0859101 1.08684 1.1846808
2.0636501 1.07347 1.1845134
2.0441298 1.0606099 1.1849637
2.0066001 1.04275 1.1839167
1.9947701 1.02966 1.1820502
1.99806 1.018 1.1824633
1.9984 1.0045301 1.1825821
2.00072 0.99501997 1.1826665
1.9958999 0.98641402 1.1823105
2.0927498 1.0952801 1.1806846
2.0859599 1.0855401 1.1792427
2.08078 1.07602 1.178547
2.07161 1.06637 1.1793993
1.9967901 1.03708 1.176124
1.9967999 1.0276999 1.1763582
1.9985499 1.01755 1.1752658
1.99841 1.00694 1.1767026
1.9978 0.99548602 1.1764318
1.98808 0.98390096 1.1745299
2.0802901 1.08289 1.1732533
2.08392 1.07524 1.1729485
2.0817399 1.06776 1.1728975
2.0134802 1.03873 1.1691836
1.9986999 1.02764 1.16968
1.99062 1.01537 1.1687899
1.9929401 1.00512 1.1702805
1.98998 0.99261099 1.1686246
2.0717199 1.08055 1.1661581
2.0807199 1.0739499 1.1670166
2.09372 1.0679901 1.1672156
2.0249 1.04029 1.1630691
2.00104 1.0289199 1.1628528
1.99608 1.017 1.1630154
1.9906501 1.00446 1.1635665
1.9912 0.99368596 1.1620446
2.0485899 1.0781 1.1603428
2.06794 1.07178 1.1606232
2.0942101 1.06681 1.1611934
2.0311899 1.04045 1.15767
2.0053799 1.02948 1.1566699
1.99859 1.0182 1.1565276
1.99378 1.00464 1.1565274
2.0996401 1.0654399 1.1552706
2.0755901 1.05609 1.1541421
2.00651 1.0286499 1.1503606
2.00353 1.01986 1.1506946
2.00073 1.0081 1.1499597
1.99297 0.99421096 1.1491624
2.10853 1.06426 1.1489795
2.0843899 1.05597 1.1489339
2.01004 1.0276899 1.1439083
2.00035 1.0176101 1.1434082
1.99621 1.00449 1.1430186
1.99622 0.99442297 1.1429549
2.1108 1.06449 1.1428609
2.0952201 1.05682 1.1432281
2.01653 1.0279599 1.1379087
1.99492 1.0170701 1.1365721
2.0019801 1.00832 1.1369668
2.1109099 1.06432 1.1375693
2.1065199 1.0583 1.1372614
2.0228 1.0291101 1.1329764
2.0030499 1.01781 1.1313266
2.10941 1.06433 1.1321727
2.1179202 1.0592999 1.1312878
2.0299101 1.0304 1.1292522
2.1127 1.06362 1.1262378
2.1301301 1.05918 1.1256567
2.1099899 1.06198 1.1199782
2.13468 1.05866 1.1206343
2.1138902 1.0500801 1.1189116
2.1301699 1.05686 1.1157988
2.11853 1.04892 1.1138195
1.8854699 1.0008399 1.835465
1.9015801 0.99898005 1.827099
1.8845199 1.0102 1.831211
1.9059399 0.99785006 1.8216079
1.9133501 0.95301497 1.8011249
1.92747 0.96356302 1.798965
1.94467 0.97500002 1.796033
1.9320799 0.98702902 1.7986951
1.89142 0.89388299 1.7947791
1.8680701 0.90677905 1.7998841
1.92215 0.95110202 1.7925119
1.9219999 0.96365303 1.7940079
1.92541 0.97687602 1.79355
1.93259 0.98748296 1.792511
1.8909301 0.89381599 1.7889719
1.8773599 0.90578598 1.7919589
1.88605 0.91775399 1.791028
1.91034 0.93474197 1.7857389
1.91117 0.95038497 1.7866229
1.92142 0.96437597 1.786221
1.9230499 0.97823 1.7854649
1.92737 0.98835701 1.786428
1.8921499 0.89391297 1.781652
1.8726401 0.906564 1.7859061
1.88791 0.91889602 1.784059
1.91671 0.93451601 1.7771289
1.9091201 0.94874901 1.7793491
1.9111999 0.96265298 1.780074
1.9195399 0.97721803 1.777365
1.9190401 0.98889399 1.77907
1.82663 1.04261 1.7990781
1.87929 0.89497203 1.778318
1.89297 0.90299106 1.775605
1.8723599 0.915797 1.7810471
1.9335699 0.93456596 1.767457
1.92237 0.947133 1.77026
1.92073 0.96413398 1.770062
1.9201199 0.98022902 1.768157
1.91282 0.99187696 1.770613
1.8676 1.0160199 1.780112
1.85131 1.02837 1.7852319
1.88228 1.0382 1.774881
1.8225701 1.05435 1.7950059
1.9244701 0.981399 1.760016
1.91634 0.99462098 1.761287
1.89257 1.0095301 1.7674899
1.87921 1.0255799 1.7699829
1.89489 1.03891 1.7644049
1.8694501 1.04992 1.7706949
1.9225501 0.99725097 1.751192
1.90459 1.01036 1.756698
1.91037 1.02564 1.7539209
1.89976 1.03975 1.7553549
1.87465 1.05116 1.7619361
1.94116 0.99971199 1.737528
1.9156101 1.0125901 1.744308
1.9099001 1.02846 1.745055
1.8978101 1.0421901 1.7481799
1.8708501 1.0527301 1.7548928
1.96662 0.99839801 1.717657
1.9296601 1.01219 1.7313
1.91638 1.02627 1.734692
1.8997099 1.04091 1.7391369
1.87626 1.0524 1.745844
1.96621 0.99900103 1.711563
1.94109 1.01097 1.7185899
1.9225301 1.02549 1.7240869
1.90869 1.03986 1.7280469
1.8860099 1.0512999 1.7349659
1.97806 0.99799895 1.696293
1.94379 1.01149 1.7095649
1.92591 1.02519 1.714206
1.91361 1.0395401 1.71841
1.8938299 1.05119 1.725016
1.9732699 0.99884105 1.69124
1.94995 1.0107499 1.6980679
1.93527 1.02492 1.7027829
1.9270101 1.03819 1.7050971
1.8876401 1.0513901 1.720155
1.9883299 0.99701101 1.674317
1.9548801 1.0111699 1.6883701
1.93936 1.02486 1.69259
1.92474 1.03891 1.6973219
1.9004899 1.05003 1.704411
1.98578 0.99722803 1.66817
1.9615101 1.00992 1.6763809
1.9404401 1.02491 1.6831119
1.93498 1.0381199 1.6847808
1.89814 1.05065 1.699065
1.98932 0.99713403 1.6586701
1.9688901 1.0094 1.665697
1.95118 1.02431 1.671214
1.93808 1.03855 1.674937
1.91151 1.04968 1.6819519
1.9888699 0.99627405 1.6495689
1.97648 1.00852 1.654155
1.9488901 1.02448 1.662536
1.94147 1.0383999 1.665697
1.91273 1.05068 1.672861
1.99437 0.99552399 1.6396469
1.98086 1.00745 1.643694
1.952 1.02429 1.6515199
1.9366001 1.04005 1.657591
1.90896 1.0520999 1.6650569
2.0008099 0.99581802 1.6284219
1.9618 1.013 1.6395869
1.9473399 1.02733 1.6431659
1.9363699 1.0399801 1.6477519
1.91259 1.05194 1.65591
2.10027 0.85128897 1.584785
2.1154699 0.86161906 1.5804579
2.00174 0.99588203 1.6176629
1.97157 1.00984 1.627359
1.9596699 1.0255001 1.63111
1.93672 1.0400801 1.6383619
1.91457 1.05138 1.6463019
2.0941901 0.85234702 1.578262
2.1029699 0.86484301 1.575745
2.11306 0.87531698 1.5731009
2.00049 0.995763 1.609189
1.9895301 1.00712 1.612692
1.96444 1.02364 1.6197369
1.9444799 1.03948 1.62686
1.9195199 1.05135 1.635685
2.10479 0.85304701 1.5672119
2.0962899 0.86599702 1.5697889
2.1001 0.88087702 1.567751
2.0764301 0.90199202 1.5714509
2.0921099 0.91317499 1.5663761
1.99731 0.99744105 1.600667
1.9799 1.01124 1.606029
1.96506 1.02652 1.609885
1.95083 1.0396399 1.615497
1.92382 1.0513301 1.6251869
2.0986199 0.86957604 1.561684
2.0838099 0.889328 1.5637829
2.06775 0.90475196 1.5673211
2.0659499 0.91752702 1.566607
1.9982699 0.99657899 1.589736
1.98392 1.0091001 1.595296
1.96698 1.02449 1.600698
1.95586 1.03922 1.6044879
1.9304601 1.05107 1.613638
2.0753 0.90662599 1.557251
2.0880899 0.91934305 1.5504419
2.07303 0.93297696 1.5545419
1.9982699 0.99591696 1.58125
1.9921401 1.00648 1.583357
1.97276 1.0210199 1.589509
1.96147 1.0370899 1.593133
1.93484 1.05084 1.601601
2.0798399 0.91082299 1.5458051
2.0838499 0.921453 1.543542
2.07899 0.93405896 1.5447501
2.0615699 0.95088303 1.548368
1.9948599 0.99611998 1.574029
1.97491 1.00893 1.579223
1.9663 1.02466 1.5818961
1.95658 1.04038 1.5846739
1.9329 1.0521801 1.592894
2.08533 0.92460197 1.5353009
2.0690699 0.93941599 1.5390351
2.0472 0.95568603 1.5434909
2.0222399 0.97359395 1.5522361
1.98911 0.99523598 1.5656419
1.97295 1.01124 1.56967
1.9594901 1.0275 1.575054
1.95653 1.04071 1.57458
1.93349 1.0520999 1.584036
2.0631399 0.94303203 1.53124
2.0441 0.956586 1.5362369
2.0303199 0.97132897 1.5399569
1.9844999 0.99554199 1.5570359
1.9730099 1.01071 1.559726
1.9628999 1.02665 1.5640259
1.9568499 1.0412101 1.565336
1.9306799 1.05204 1.5757179
2.0601199 0.94616097 1.5219499
2.0447302 0.95881796 1.5270859
2.0183899 0.97574598 1.5342389
1.99782 0.99178702 1.5425431
1.9804 1.0074401 1.5495011
1.96927 1.02245 1.5524249
1.95513 1.03879 1.556347
1.93413 1.05159 1.5650791
2.0469799 0.96041101 1.517037
2.0244901 0.97495598 1.5236591
2.00122 0.99188799 1.531747
1.97513 1.00851 1.542143
