# .PCD v0.7 - Point Cloud Data file format
VERSION 0.7
FIELDS x y z
SIZE 4 4 4
TYPE F F F
COUNT 1 1 1
WIDTH 1652
HEIGHT 1
VIEWPOINT 0 0 0 1 0 0 0
POINTS 1652
DATA ascii
1.82339 0.99704498 0.43405998
1.82512 1.0115399 0.43244797
1.8313 0.96990401 0.426801
1.82301 0.98043603 0.426783
1.81319 0.99141502 0.42684799
1.8275599 1.0124401 0.42182899
1.8228999 0.95344299 0.42302093
1.8213099 1.03166 0.65992194
1.8598199 1.0688701 0.64836001
1.8092599 1.01362 0.65797096
1.8225101 1.0307701 0.65355599
1.84123 1.0562 0.64697099
1.8556501 1.08017 0.64190996
1.81575 1.09518 0.64592302
1.7778 1.09541 0.65307599
1.82899 1.02019 0.64549303
1.82989 1.03439 0.643668
1.8346499 1.0541101 0.63984299
1.8386799 1.07171 0.63949597
1.8225999 1.08227 0.64059997
1.7987399 1.09093 0.64297897
1.78508 1.10182 0.64446795
1.80964 1.13694 0.63318396
1.82967 1.00704 0.637609
1.82952 1.01871 0.636388
1.83321 1.0361 0.63324499
1.8347 1.05433 0.63024795
1.82522 1.06767 0.63403797
1.81041 1.0788701 0.63488299
1.7849499 1.08312 0.63840395
1.78474 1.101 0.63654298
1.7913001 1.1238999 0.63285899
1.79316 1.14151 0.62935799
1.8382001 1.01006 0.62673301
1.84582 1.02604 0.62256199
1.8522099 1.04515 0.61887097
1.85351 1.06091 0.61632097
1.81329 1.06305 0.62763
1.79676 1.07319 0.62891096
1.7827901 1.08312 0.63019395
1.7830901 1.10001 0.62759197
1.77979 1.11691 0.62708098
1.7773199 1.13248 0.62723994
1.7642599 1.1445401 0.625992
1.84356 1.0124 0.61440098
1.86227 1.03541 0.60856795
1.87328 1.0553 0.60460395
1.87214 1.0662 0.60182196
1.79539 1.05986 0.62264496
1.78739 1.06981 0.62190497
1.7833501 1.08381 0.620987
1.7880599 1.10542 0.61793298
1.76543 1.11299 0.62223399
1.7625101 1.12723 0.62232393
1.8412199 1.00662 0.60353696
1.8521401 1.02832 0.60158098
1.87598 1.05503 0.59507197
1.8665199 1.0629799 0.59381199
1.7899499 1.0578099 0.61416399
1.78461 1.06734 0.61349696
1.79302 1.08657 0.61046594
1.77531 1.11727 0.61343795
1.7614701 1.12798 0.61483198
1.82455 0.98360705 0.60048395
1.8354801 1.00111 0.59643495
1.8408501 1.0197001 0.59405398
1.8693299 1.05247 0.58745599
1.84614 1.0548 0.58987993
1.79345 1.05524 0.60333198
1.7931199 1.06821 0.60312593
1.83035 0.97340894 0.59200299
1.8366001 0.987647 0.58876395
1.84013 1.00582 0.58644396
1.8399401 1.023 0.58484399
1.8532699 1.04462 0.58182395
1.82995 1.05145 0.585446
1.79591 1.05182 0.59437495
1.83577 0.97473699 0.58137095
1.8318 0.98395598 0.58168894
1.83658 1.00041 0.57893199
1.8314799 1.01702 0.57799095
1.8447599 1.04124 0.57460499
1.82261 1.04615 0.578188
1.8411099 0.97520101 0.56937397
1.8359399 0.98673403 0.57157594
1.8328799 1.00195 0.57064497
1.83201 1.01791 0.56739199
1.8274499 1.0322499 0.56959796
1.8146601 1.03935 0.56962198
1.8446001 0.97352701 0.55825597
1.8382699 0.98502403 0.561342
1.8283401 0.99884802 0.56201994
1.83324 1.01829 0.55870897
1.8232601 1.0293599 0.56042796
1.8113699 1.03724 0.56030893
1.8336501 0.95645201 0.55419797
1.84674 0.97276396 0.54891998
1.83569 0.98366499 0.55218393
1.82505 0.99704903 0.55207801
1.82393 1.01412 0.55322295
1.8190601 1.02836 0.55130899
1.83377 1.04821 0.54431093
1.84995 0.96265298 0.54037893
1.8402801 0.97225797 0.54244596
1.83077 0.98417503 0.54400295
1.83017 0.99840599 0.54128098
1.8208001 1.0123301 0.54345995
1.81784 1.02932 0.54133898
1.8381 1.05054 0.53569096
1.7676101 1.0426 0.54922193
1.7548801 1.05259 0.55163896
1.74622 1.06177 0.55219293
1.86111 0.96666902 0.52638596
1.8442301 0.97163397 0.53234696
1.8317599 0.98340398 0.53387696
1.82524 0.99902397 0.53435296
1.8181599 1.01342 0.53340495
1.8262601 1.03327 0.52931601
1.7974899 1.0367 0.53575999
1.7670799 1.04029 0.54248399
1.7548 1.05206 0.54512298
1.7337101 1.05768 0.54900599
1.7267599 1.06674 0.54914498
1.8663601 0.96838701 0.51424199
1.83801 0.97032899 0.52428496
1.8266701 0.98108596 0.52604795
1.82215 0.996481 0.525096
1.81153 1.00919 0.52640998
1.80855 1.02452 0.52607298
1.78399 1.03301 0.53016895
1.7612801 1.0417299 0.53580695
1.74112 1.04984 0.54028398
1.72803 1.05875 0.54233396
1.7199401 1.06622 0.54348201
1.87044 0.96823996 0.50305498
1.83801 0.969347 0.51406401
1.82706 0.98087996 0.51752096
1.8206 0.99394095 0.51564395
1.8109599 1.0088099 0.516985
1.7905999 1.0190899 0.52220196
1.79125 1.03491 0.51826596
1.767 1.04169 0.52506697
1.74859 1.0510299 0.52884597
1.72883 1.0583 0.533234
1.7197701 1.0680799 0.53406399
1.8554201 0.95007205 0.50203794
1.8752699 0.96870399 0.49201599
1.8409101 0.96913695 0.50333196
1.83023 0.981839 0.50678998
1.8199 0.99491996 0.50626397
1.81584 1.01028 0.50444394
1.7945199 1.01849 0.51212496
1.79427 1.03293 0.50996798
1.78562 1.04739 0.51173395
1.7679499 1.05932 0.51451296
1.73397 1.0605 0.52271199
1.7167799 1.06659 0.52668494
1.7110801 1.0786 0.524055
1.90833 0.967507 0.47289696
1.87552 0.96793801 0.48287696
1.8456399 0.97024596 0.49287498
1.8280001 0.980609 0.49725899
1.82133 0.99588305 0.49587601
1.81944 1.01034 0.49393097
1.8082001 1.0210299 0.49846497
1.7424001 1.0674601 0.51120895
1.71569 1.06882 0.51784497
1.71 1.08234 0.51445198
1.91429 0.96822798 0.46428201
1.89259 0.97020894 0.47062293
1.8365899 0.97156405 0.48574096
1.8259 0.98295999 0.48788995
1.82775 0.99961799 0.48407495
1.82925 1.0153 0.48159799
1.8505499 1.03562 0.47124198
1.71798 1.074 0.50693595
1.91688 0.96743798 0.45746994
1.83492 0.97308505 0.474273
1.82666 0.98328698 0.47731796
1.8296601 1.00157 0.47365493
1.8298801 1.01469 0.47228798
1.72929 1.08058 0.49515802
1.83699 0.97434801 0.46312097
1.8248199 0.98017699 0.46824396
1.82296 0.99402297 0.466905
1.8217 1.0081199 0.465188
1.8377299 0.97404295 0.45309395
1.8277299 0.98300797 0.45712098
1.8222799 0.99589598 0.45746094
1.8203501 1.00668 0.45453301
1.8367599 0.97306299 0.44454598
1.83021 0.98208398 0.44603896
1.8212601 0.99401605 0.44780701
1.8195 1.00613 0.44437096
1.8337899 0.97342902 0.43597198
1.82548 0.98287398 0.43854293
1.8249 0.99719805 0.43560195
1.8211501 1.0083001 0.43378395
1.8235699 0.96894097 0.42845398
1.82468 0.98321503 0.42824495
1.8244799 0.99847704 0.42569
1.8248399 1.01028 0.42353499
1.80978 1.00292 0.42003
1.8445101 1.0393901 0.66984397
1.8303101 1.02283 0.66733795
1.8292799 1.03282 0.66759199
1.8292999 1.01065 0.66125989
1.8246499 1.01871 0.66113693
1.8221401 1.0302401 0.66132796
1.88202 1.0791 0.64029801
1.80812 1.11463 0.65374202
1.78899 1.1173301 0.65774292
1.82732 1.00633 0.65312195
1.82696 1.02039 0.65163398
1.82978 1.03859 0.649387
1.85448 1.0666699 0.64104098
1.8712699 1.08621 0.63585198
1.8483701 1.0901101 0.63969296
1.79811 1.0968699 0.65007204
1.79862 1.11123 0.65025896
1.7957001 1.12154 0.648862
1.82629 0.99093801 0.644382
1.8276601 1.00493 0.64402598
1.82658 1.0195 0.64211196
1.82556 1.0347 0.64280999
1.83796 1.0564801 0.63744098
1.8445599 1.0763301 0.63574797
1.81905 1.08392 0.63920397
1.78642 1.0878501 0.645217
1.7909801 1.10791 0.64310592
1.80694 1.13011 0.63653094
1.8382499 0.98113298 0.63290298
1.83602 0.99357694 0.63416898
1.8350199 1.0076799 0.63381201
1.83706 1.0218101 0.63083696
1.8330001 1.03716 0.631392
1.83552 1.05521 0.62842393
1.8234301 1.06828 0.63175398
1.8020599 1.07818 0.63465899
1.7878101 1.0906199 0.63581598
1.7831399 1.10572 0.63547897
1.79365 1.12573 0.631612
1.81269 1.14898 0.624066
1.8442501 0.979321 0.62200195
1.8352001 0.98931295 0.62594098
1.83699 1.00571 0.62439996
1.8452201 1.02668 0.61994398
1.8536099 1.04716 0.61567497
1.8427 1.06047 0.618581
1.80565 1.06546 0.62690097
1.79131 1.07587 0.62736696
1.78677 1.09009 0.62696397
1.77924 1.10167 0.62889695
1.7781199 1.11808 0.62659496
1.78528 1.1379399 0.623285
1.78448 1.1515599 0.620722
1.8479201 0.96800596 0.61313701
1.8488499 0.97898501 0.61339301
1.842 0.99053103 0.61505598
1.8432801 1.0097699 0.61192995
1.8607401 1.03403 0.60671198
1.8816701 1.0559 0.59874094
1.87291 1.06624 0.60062796
1.7908701 1.06262 0.62015098
1.7816401 1.07068 0.62179297
1.77851 1.0827301 0.62146395
1.7787399 1.10216 0.62001997
1.7710299 1.11804 0.61911398
1.76906 1.13055 0.61946797
1.7644501 1.14352 0.61852598
1.86362 0.97096497 0.60004801
1.84495 0.97732598 0.60668099
1.8445799 0.99216402 0.60437399
1.84374 1.0078 0.60184497
1.85938 1.03084 0.597121
1.8884701 1.06071 0.58914495
1.8682699 1.06305 0.59338593
1.7937801 1.0606301 0.60899198
1.78328 1.07023 0.61370295
1.7889301 1.08606 0.61128896
1.78429 1.12481 0.60843796
1.76468 1.13213 0.61189997
1.8613 0.96802104 0.59152395
1.8477499 0.97677201 0.59583396
1.84162 0.99182802 0.59538794
1.84561 1.01081 0.59185797
1.85787 1.03167 0.58747095
1.88122 1.0545501 0.58254695
1.8133399 1.05559 0.59622496
1.79478 1.05774 0.60061496
1.7937399 1.07047 0.60219294
1.7712101 1.13502 0.60331994
1.85803 0.95682603 0.58504295
1.85867 0.96780604 0.58467299
1.84635 0.97823304 0.58593798
1.84743 0.99527299 0.584943
1.84278 1.0073301 0.58354795
1.8506199 1.0261101 0.57981396
1.86246 1.0443801 0.57750398
1.8065 1.0506099 0.59075701
1.7975301 1.05699 0.59283596
1.9006599 0.96581596 0.55853701
1.85926 0.96876299 0.57490897
1.84277 0.97629094 0.57803798
1.84487 0.99233299 0.57642698
1.84469 1.00959 0.57396197
1.84931 1.02619 0.57071501
1.85186 1.04027 0.56964797
1.8068401 1.0462 0.58088195
1.8965801 0.96499997 0.55329901
1.8764399 0.97049499 0.55876601
1.84709 0.97784102 0.56764996
1.8402001 0.99425596 0.56742197
1.84347 1.01265 0.564924
1.8438001 1.02758 0.56411797
1.82261 1.0348101 0.56784898
1.8121899 1.04363 0.57011598
1.8920399 0.96396798 0.54659998
1.87297 0.96892095 0.55120897
1.85298 0.976201 0.55593699
1.8402901 0.99081302 0.55738896
1.8356 1.00701 0.55802596
1.8373101 1.0252 0.55668199
1.8188001 1.03213 0.56039596
1.8171899 1.04264 0.56050396
1.89496 0.96560699 0.53650498
1.86975 0.96922994 0.54267001
1.8424001 0.977108 0.54904497
1.83424 0.99021101 0.54938394
1.83145 1.00402 0.54974294
1.8326401 1.0198799 0.549299
1.8212601 1.03034 0.550991
1.8843499 0.963269 0.53090495
1.8721499 0.97040099 0.53254896
1.8478301 0.97663695 0.53797299
1.8296601 0.98593003 0.54336697
1.8326801 1.00254 0.54029596
1.82379 1.017 0.54161394
1.8242999 1.03275 0.53752697
1.7666 1.05111 0.54747999
1.8622099 0.96907401 0.52617192
1.83942 0.97563601 0.53056198
1.83255 0.98807096 0.53327495
1.82542 1.0033799 0.53206497
1.81769 1.01853 0.53286695
1.82936 1.03626 0.52747399
1.81183 1.0410501 0.53091699
1.75974 1.04597 0.54329395
1.75029 1.05634 0.54545897
1.74454 1.06917 0.54459298
1.7439599 1.0816799 0.54342294
1.86423 0.97031504 0.51537097
1.84069 0.97420001 0.52153295
1.8304801 0.98804802 0.52306294
1.82485 1.0021499 0.52339399
1.81892 1.0148101 0.52383798
1.80642 1.02729 0.52622497
1.78369 1.03662 0.53050894
1.76074 1.04441 0.53554398
1.7504801 1.05664 0.53788698
1.73694 1.06793 0.53887498
1.7316499 1.0771099 0.54065496
1.85563 0.96944201 0.50805199
1.8383 0.97622597 0.51307797
1.83321 0.98975402 0.51134098
1.82263 1.00149 0.51574498
1.8098301 1.01398 0.51707
1.7956101 1.0264701 0.51898694
1.7697301 1.03444 0.525958
1.7575101 1.04681 0.52813101
1.7401601 1.05646 0.53153896
1.7262399 1.06549 0.53367895
1.7243201 1.0759101 0.53376895
1.8609101 0.97191 0.49549094
1.8386301 0.97674894 0.50297594
1.82995 0.98893797 0.50306398
1.82339 1.00308 0.50488794
1.80409 1.0138401 0.50913399
1.7947999 1.0241799 0.51094997
1.78811 1.03574 0.51246297
1.76213 1.04626 0.51876897
1.74455 1.0562 0.52167398
1.73349 1.0674 0.52344495
1.7182001 1.07417 0.52756995
1.71772 1.08532 0.52472997
1.8639101 0.97276199 0.48583695
1.84012 0.97607696 0.49284095
1.8295399 0.98589498 0.49561295
1.82427 0.99962199 0.49511796
1.8186901 1.01422 0.49553895
1.8075501 1.02564 0.49908698
1.75212 1.06047 0.51069701
1.72807 1.06531 0.51640201
1.7205 1.07603 0.51817799
1.71263 1.0844799 0.51688898
1.8371401 0.97596604 0.48533294
1.8289101 0.987176 0.48564398
1.82995 1.0047899 0.48407394
1.82644 1.01735 0.48286697
1.84018 1.03276 0.47450295
1.7270399 1.06715 0.50779599
1.71675 1.0753399 0.51017594
1.83123 0.97654605 0.47714898
1.8259101 0.98661697 0.47606194
1.825 1.0017099 0.47585899
1.8320301 1.0181401 0.47074395
1.7411799 1.07505 0.49507096
1.71103 1.07444 0.50281996
1.82845 0.97728103 0.46729699
1.8295599 0.98998702 0.46639594
1.8249099 1.00238 0.46504393
1.83073 1.0169799 0.46179298
1.8340801 0.97836995 0.45476699
1.8214301 0.98634499 0.45993996
1.81855 0.99799502 0.45737296
1.8254601 1.01367 0.45379394
1.70495 1.07699 0.48737496
1.83547 0.97820604 0.44546294
1.8278999 0.98759496 0.44721398
1.8228199 1.0011001 0.445914
1.82101 1.0123 0.44583198
1.82608 0.97597396 0.43995193
1.82453 0.98866796 0.43740195
1.8199401 1.0003099 0.43806297
1.8175 1.0106 0.43755096
1.82758 0.97729403 0.42818892
1.82541 0.98884201 0.42714798
1.82263 1.00089 0.42842698
1.82504 1.01343 0.42421395
1.8214 0.98539001 0.42020094
1.8520501 1.06742 0.69984299
1.8693601 1.06339 0.69057798
1.8695301 1.0728099 0.68992996
1.8715301 1.0539601 0.68282294
1.87392 1.0647 0.68308997
1.87509 1.07468 0.68100798
1.8258901 1.01737 0.68144304
1.8635299 1.0486799 0.67590499
1.8739901 1.06362 0.67435503
1.87802 1.07493 0.67237002
1.82973 1.00493 0.674694
1.82918 1.01818 0.67478299
1.84086 1.03659 0.67263705
1.8583599 1.05589 0.66977096
1.8705299 1.07098 0.66672593
1.8314999 0.99196196 0.66731995
1.8343899 1.0036399 0.66708493
1.82761 1.01457 0.66804296
1.83281 1.03277 0.665609
1.8530499 1.05265 0.66260695
1.76305 1.1059101 0.67108995
1.84374 0.99142599 0.65552199
1.8311599 1.00183 0.65929198
1.82924 1.01807 0.65868098
1.83039 1.0340199 0.65642297
1.83284 1.04767 0.65579796
1.76859 1.09784 0.66421098
1.7652299 1.1056501 0.66526002
1.84966 0.97834605 0.64545
1.8430499 0.99081999 0.64808702
1.8278199 0.99982905 0.65155196
1.82595 1.01297 0.65092897
1.82452 1.02923 0.64991999
1.82964 1.04756 0.64663893
1.8510201 1.0689399 0.63995397
1.79005 1.10311 0.65014493
1.78017 1.11075 0.65421796
1.8729601 0.971066 0.632119
1.8602201 0.97805196 0.63554895
1.84733 0.98747903 0.63834494
1.8340601 1.00103 0.64121497
1.82822 1.0169799 0.64068395
1.8251899 1.0324299 0.64111495
1.8299201 1.04883 0.63687301
1.82651 1.0631 0.63780099
1.82827 1.07884 0.635988
1.8026401 1.09009 0.63965201
1.78546 1.09986 0.64365405
1.78548 1.11193 0.64261699
1.87569 0.97018403 0.62392598
1.8582001 0.97659498 0.62804496
1.84017 0.98762101 0.63046294
1.83544 1.00448 0.63103998
1.8387399 1.01973 0.629354
1.83372 1.03316 0.62975997
1.8335899 1.05002 0.62651396
1.82613 1.06265 0.62959695
1.8150301 1.07568 0.63130796
1.8008599 1.08742 0.63213694
1.79448 1.1024899 0.63290799
1.79419 1.1168901 0.63207597
1.7960401 1.12834 0.62953997
1.8771499 0.97029603 0.61565393
1.8509599 0.97547799 0.62020701
1.8439701 0.98707902 0.62000394
1.83549 1 0.62217897
1.8348199 1.01689 0.62188601
1.84512 1.0370899 0.61686194
1.84315 1.0526999 0.61469698
1.8299899 1.06584 0.61947995
1.8021899 1.07415 0.62581396
1.7933501 1.08618 0.62568194
1.78408 1.09948 0.62561297
1.7952901 1.11796 0.62368196
1.7761799 1.12301 0.62592596
1.8697901 0.96950501 0.607862
1.8512801 0.97709501 0.61013895
1.8372799 0.987836 0.61414295
1.84069 1.00397 0.61179996
1.8400799 1.02045 0.61048394
1.86649 1.04476 0.60152596
1.86537 1.05955 0.59988898
1.85017 1.06836 0.60525995
1.7973801 1.07199 0.61820996
1.7845501 1.0829 0.61901301
1.78847 1.09978 0.61678499
1.7778 1.11234 0.61990798
1.7677699 1.12094 0.62127596
1.8670599 0.96844298 0.59793496
1.8516001 0.97631896 0.60047299
1.8420501 0.98930198 0.60346895
1.84376 1.00728 0.60117799
1.84998 1.0257701 0.59828699
1.8730999 1.0474401 0.590698
1.88474 1.06242 0.58621293
1.82886 1.06613 0.60231698
1.79215 1.06941 0.610062
1.78168 1.07973 0.61217296
1.79304 1.11516 0.60953999
1.7550501 1.11655 0.61923796
1.8721001 0.96828699 0.58780199
1.85815 0.975326 0.59044999
1.83829 0.98437202 0.59482795
1.8381799 1.00099 0.59395999
1.84437 1.0197899 0.59038293
1.86421 1.04115 0.58506495
1.86765 1.05516 0.58248198
1.81216 1.06095 0.59634894
1.7986 1.0691 0.59993297
1.86658 0.967628 0.58053398
1.84823 0.975308 0.583206
1.83824 0.98890406 0.58561593
1.8426199 1.00528 0.58398896
1.8390499 1.0178601 0.58247095
1.86105 1.0398201 0.57626599
1.83763 1.05118 0.58108401
1.81067 1.05801 0.58739394
1.8611599 0.96737295 0.57179594
1.8493201 0.97492701 0.57429099
1.84252 0.98715895 0.57469398
1.83516 1.00255 0.57727194
1.84412 1.02124 0.57185096
1.85323 1.0387599 0.56979698
1.80984 1.04565 0.57921398
1.8024001 1.0530699 0.58092999
1.86569 0.96746999 0.56038594
1.8452201 0.973445 0.56733
1.84764 0.98728299 0.56381798
1.8354 1.00193 0.56635696
1.8392199 1.01984 0.56369895
1.84936 1.03496 0.56150401
1.80457 1.04026 0.57111299
1.80559 1.0517601 0.57143694
1.8737199 0.96914297 0.54909301
1.8517101 0.97496003 0.55549198
1.83834 0.98723394 0.55734801
1.82976 1.0004901 0.55769694
1.83235 1.01559 0.55777395
1.8263201 1.02958 0.55832899
1.80844 1.0383 0.561831
1.87483 0.96982694 0.53955698
1.84491 0.97533095 0.54750896
1.83612 0.98867303 0.54867995
1.82528 0.99932998 0.55095398
1.82619 1.01399 0.55023599
1.81628 1.0273401 0.55150294
1.8225701 1.04083 0.54868197
1.87098 0.96816903 0.53114998
1.8542399 0.97475702 0.53541994
1.8365101 0.98454303 0.53995997
1.8298399 0.99957603 0.54117399
1.8233501 1.0149 0.54039198
1.81387 1.02624 0.54346699
1.86761 0.96870202 0.52259296
1.8471899 0.97591299 0.52834493
1.8321899 0.98646599 0.53279597
1.82888 1.0001999 0.53150398
1.8257 1.01367 0.52966994
1.81938 1.02701 0.53062898
1.79474 1.05143 0.53162295
1.74939 1.05663 0.54482597
1.7447701 1.06771 0.54463196
1.87464 0.97101897 0.51121897
1.8465899 0.97483903 0.51933599
1.83513 0.98638296 0.52301598
1.82841 0.99978602 0.52214098
1.81905 1.0135399 0.52265495
1.81861 1.02864 0.52205795
1.79021 1.03596 0.52844995
1.77133 1.0488601 0.53306097
1.74647 1.05704 0.53978598
1.7344201 1.06573 0.542032
1.72841 1.07575 0.54139996
1.84677 0.97518098 0.51058793
1.83303 0.985183 0.513565
1.8233399 0.99923104 0.51403499
1.81446 1.01152 0.51483297
1.81147 1.02657 0.515571
1.7904899 1.03561 0.51931298
1.77467 1.04735 0.52434599
1.74905 1.05538 0.53206998
1.7376 1.06765 0.53301698
1.7209599 1.07612 0.53606999
1.7411901 1.0929101 0.52862799
1.84246 0.97688597 0.50127697
1.82679 0.98639101 0.50495297
1.8190601 1 0.50584596
1.80924 1.01323 0.50815898
1.7975501 1.02461 0.51115096
1.7965 1.0357701 0.50925696
1.79342 1.04678 0.51024795
1.73964 1.05554 0.525567
1.7306199 1.0665001 0.52595693
1.72543 1.0771099 0.52735698
1.7228301 1.08753 0.52647799
1.8452201 0.97748297 0.490513
1.8309399 0.98433095 0.49447396
1.82556 0.99701697 0.49501097
1.81656 1.01149 0.49687997
1.80313 1.02429 0.50131094
1.8203599 1.04162 0.49443793
1.75474 1.06279 0.51230794
1.73405 1.0664901 0.51801997
1.7269299 1.07763 0.519162
1.7132699 1.0849401 0.52215201
1.8398 0.976713 0.48293197
1.8302799 0.98599702 0.48585197
1.82987 1.0004699 0.48341897
1.85113 1.02165 0.472967
1.82877 1.02878 0.48356995
1.72877 1.0656301 0.51374596
1.73546 1.09295 0.50858396
1.83866 0.97660601 0.473582
1.82964 0.986408 0.47569299
1.8354499 1.00397 0.471977
1.85195 1.0213701 0.46515396
1.8460699 1.03028 0.46752098
1.8319099 0.97507006 0.46608499
1.8298399 0.98628801 0.46542901
1.82544 0.99788594 0.46729401
1.8490601 1.01807 0.45811096
1.83916 0.97724402 0.45344597
1.83099 0.98535401 0.45681792
1.82732 0.99833298 0.45647499
1.84132 1.01459 0.45037299
1.85118 0.98155195 0.44008499
1.8301899 0.98688698 0.44758499
1.8202699 0.996737 0.44963396
1.82575 1.0090799 0.44616294
1.82426 0.98597902 0.43976799
1.82377 0.99740797 0.43988296
1.83373 1.0107 0.43301401
1.8217999 0.98543501 0.43067497
1.8213201 0.99627 0.43020096
1.83336 1.01035 0.42366394
1.82207 0.98512101 0.42071694
1.8619299 1.05469 0.70785993
1.87287 1.06768 0.70495898
1.8044 1.01027 0.71294892
1.8577499 1.04098 0.7029289
1.87589 1.0580001 0.69867998
1.87272 1.06858 0.69821703
1.80653 1.00104 0.70713896
1.8302699 1.01819 0.70171797
1.8572501 1.03983 0.69570297
1.87668 1.0590301 0.69010597
1.8691601 1.06844 0.69172096
1.83099 1.00545 0.69401091
1.84179 1.02123 0.69088799
1.86127 1.04145 0.68669099
1.8786099 1.05879 0.68032593
1.8737601 1.06889 0.68240297
1.84394 0.99253798 0.68117797
1.8406799 1.00642 0.68336505
1.8356 1.01844 0.6825
1.8569 1.03736 0.67937696
1.90511 1.0683999 0.66528493
1.88039 1.07139 0.67100096
1.8558 0.98038101 0.67035204
1.8555 0.99150705 0.67021197
1.83426 1.00309 0.675345
1.83157 1.01837 0.67446399
1.84593 1.0346299 0.6715669
1.88712 1.06457 0.66101897
1.8899499 1.0743001 0.65998995
1.86707 0.97175002 0.66056597
1.85326 0.97959298 0.66343904
1.84229 0.99131101 0.66570997
1.8358999 1.00327 0.66663694
1.82995 1.0158401 0.66668493
1.8350999 1.0326899 0.66489297
1.8593299 1.05387 0.65937591
1.88056 1.07161 0.65496796
1.75423 1.1042299 0.67457199
1.8973399 0.97331101 0.63950998
1.85852 0.97955805 0.65352899
1.8460201 0.990385 0.65605795
1.83241 1.00336 0.65912992
1.82235 1.0149 0.66040999
1.82559 1.02878 0.65876496
1.8322301 1.0455999 0.65521395
1.87406 1.0685199 0.65029997
1.7769001 1.10083 0.66355395
1.75174 1.1022899 0.66966701
1.8948399 0.97223699 0.633627
1.8727901 0.979972 0.63996196
1.84588 0.98901099 0.64719599
1.8393201 1.00297 0.64825898
1.82877 1.0174099 0.65050489
1.8275399 1.0327201 0.64967191
1.83323 1.04821 0.64507401
1.83523 1.0622001 0.64346999
1.77556 1.09973 0.65693396
1.77547 1.10797 0.65633392
1.8995199 0.97293198 0.62507701
1.8729401 0.97870797 0.63110197
1.8524801 0.98940301 0.63643497
1.8384399 1.0009999 0.64011598
1.8345799 1.01547 0.63976598
1.8291299 1.03264 0.63972396
1.83178 1.04855 0.63777196
1.8311701 1.06247 0.636406
1.8230499 1.0764199 0.63714701
1.8209399 1.09261 0.63645798
1.79304 1.1001999 0.643929
1.7868299 1.1093 0.64375001
1.89282 0.97207803 0.617984
1.8697799 0.97821802 0.62340897
1.85483 0.98835802 0.62667298
1.8372799 1.00236 0.63070798
1.83687 1.01919 0.63029397
1.8440199 1.03544 0.62543195
1.83534 1.0503 0.62844896
1.8324001 1.0639701 0.628178
1.8216499 1.07487 0.63009894
1.8072701 1.0881801 0.63309401
1.79127 1.0994201 0.63558197
1.7857699 1.10886 0.63514996
1.8911901 0.971726 0.60966599
1.87321 0.97967696 0.61339998
1.8414999 0.99005699 0.62111098
1.8320301 1.00211 0.62325495
1.8397099 1.01802 0.620417
1.8472501 1.0350701 0.61559898
1.84935 1.05123 0.61460799
1.83443 1.06506 0.61922497
1.81005 1.0755301 0.62512797
1.79414 1.08612 0.62748694
1.78588 1.09763 0.628389
1.7727001 1.10431 0.63121897
1.8878101 0.97094899 0.60184693
1.87142 0.978706 0.60395396
1.84752 0.988644 0.60985899
1.8380499 1.00322 0.61346495
1.84752 1.02201 0.60792494
1.86075 1.0417299 0.60382098
1.87562 1.05784 0.59934598
1.85677 1.06559 0.60364199
1.8064599 1.07461 0.61667496
1.78974 1.085 0.61983794
1.78861 1.09693 0.62019801
1.8859 0.97168404 0.59192497
1.86078 0.97914004 0.59833097
1.8428799 0.988693 0.60274899
1.83963 1.0029399 0.60256797
1.84427 1.02099 0.59913599
1.8527 1.0379 0.59754199
1.8733901 1.0576 0.59243494
1.8373101 1.06547 0.59948194
1.80037 1.07341 0.60928094
1.78502 1.08254 0.61393297
1.88074 0.96934503 0.58315998
1.8683701 0.97888601 0.58729899
1.84172 0.98804903 0.59524196
1.8469901 1.00246 0.59105098
1.83461 1.015 0.59368896
1.84275 1.03369 0.59042495
1.86862 1.0549999 0.58606797
1.8288901 1.06248 0.59178495
1.81013 1.07068 0.59818196
1.80731 1.08401 0.60052896
1.88517 0.96941704 0.57381898
1.87255 0.97735804 0.57694197
1.85181 0.98847997 0.58250397
1.83836 1.00251 0.58470696
1.83603 1.0177101 0.58422399
1.8345799 1.0327201 0.58236396
1.8309599 1.0474 0.58430398
1.80936 1.05547 0.58926296
1.8817199 0.96948797 0.56659395
1.86646 0.97866201 0.56935096
1.84267 0.98959804 0.57479095
1.83666 1.00414 0.57684797
1.83583 1.018 0.57505399
1.8406399 1.03363 0.57177401
1.82107 1.04431 0.57808596
1.8147501 1.05478 0.57766896
1.8765601 0.97044599 0.55773497
1.8580499 0.97934401 0.56221396
1.84192 0.98897499 0.56636596
1.83535 1.0021 0.56808197
1.8352499 1.0185701 0.56556797
1.83943 1.03636 0.56404197
1.81178 1.04375 0.57188797
1.82516 1.05668 0.565193
1.8821001 0.97169405 0.54650998
1.86138 0.978742 0.55215394
1.8408099 0.98950303 0.55826795
1.83986 1.00491 0.55761898
1.8354 1.01685 0.55659199
1.8343101 1.03106 0.55651593
1.82373 1.04444 0.559066
1.8502001 1.0622699 0.548244
1.85948 0.97872901 0.54317099
1.84192 0.98842102 0.54793495
1.83641 1.00394 0.54956299
1.83398 1.01847 0.54940796
1.82918 1.0314701 0.54927099
1.84416 1.05012 0.54303396
1.8623199 1.0660701 0.53556299
1.8634801 0.98088402 0.53244895
1.84173 0.98770696 0.53802097
1.8331399 1.0013 0.54061395
1.82804 1.01641 0.54267901
1.8224601 1.029 0.54175699
1.87261 1.06045 0.526784
1.8782201 1.0711499 0.52388895
1.8569299 0.98057503 0.52527696
1.8402699 0.98758501 0.52985299
1.8328301 0.99867797 0.53137398
1.82407 1.0146099 0.53292698
1.8237 1.02966 0.53112596
1.86507 1.05933 0.52290899
1.8035899 1.05257 0.53182298
1.76009 1.06112 0.54455793
1.75541 1.07212 0.54461998
1.85918 0.98105502 0.51542896
1.83636 0.98741096 0.52243298
1.82661 1.0004001 0.52390099
1.8194901 1.01431 0.52389997
1.82043 1.0282 0.52457595
1.80182 1.03918 0.52807599
1.78002 1.05112 0.53306198
1.75308 1.06028 0.54065996
1.7376801 1.06902 0.544218
1.7282201 1.07733 0.54560095
1.85686 0.981444 0.506836
1.8304 0.98859102 0.51477098
1.82113 1.00102 0.51672697
1.8150901 1.0134 0.51602495
1.8130901 1.02803 0.51821893
1.7959 1.04001 0.52109599
1.7696401 1.05101 0.52878696
1.7422099 1.06001 0.53666598
1.73158 1.06969 0.53913897
1.7252001 1.0798 0.53828597
1.8550301 0.98194396 0.49822098
1.8384 0.98841101 0.50367999
1.8236301 0.99950898 0.50707299
1.8199899 1.01397 0.50529498
1.81036 1.02741 0.50979894
1.79898 1.03776 0.51171196
1.7949699 1.04969 0.51315999
1.7425799 1.05924 0.52984899
1.72901 1.06906 0.53289998
1.7344999 1.08446 0.52867597
1.71749 1.08979 0.53333098
1.83138 0.98927301 0.49659798
1.8243401 1.00111 0.497567
1.8236901 1.0131199 0.49545997
1.81671 1.02703 0.49902299
1.8213401 1.04281 0.49828994
1.75596 1.06384 0.51943898
1.71744 1.09059 0.52794796
1.8313 0.99036002 0.48637101
1.82672 1.00058 0.48756799
1.82225 1.01201 0.48749101
1.8274499 0.99071801 0.47806594
1.8234 1.0007499 0.47920799
1.82306 1.01046 0.47684997
1.8285201 0.99081701 0.467994
1.82375 0.99991995 0.46890596
1.8249 1.00993 0.46743402
1.82336 0.98976099 0.46038896
1.8199699 0.99882007 0.46088699
1.81918 1.00841 0.46044198
1.82616 0.990291 0.44997299
1.82564 0.999973 0.44944793
1.8219399 1.0090001 0.45003998
1.82933 0.99115896 0.43941894
1.8161701 0.99797994 0.44380701
1.82078 1.00846 0.441091
1.82909 0.99055099 0.42934096
1.81722 0.99799204 0.43489397
1.8185699 1.00762 0.43145797
1.82517 0.98913801 0.42216995
1.82239 0.99848902 0.42279395
1.81645 1.00793 0.42181098
1.8083999 1.06565 0.71362793
1.80161 1.05864 0.71254295
1.83893 1.06959 0.71677995
1.8129201 1.0657099 0.708799
1.8057801 1.0584201 0.70735002
1.84712 1.0694001 0.71234894
1.8102299 1.06555 0.70190096
1.8117 1.05801 0.70147401
1.8515601 1.06873 0.70568103
1.82303 1.0645 0.69869095
1.83184 1.05618 0.70110899
1.8714501 1.06584 0.704337
1.85964 1.0594001 0.70265597
1.89345 1.04263 0.71126294
1.88451 1.06418 0.70100492
1.8901801 1.05444 0.704817
1.90063 1.04166 0.70676798
1.9216701 1.0271 0.71554202
1.88925 1.06371 0.69589597
1.88957 1.05459 0.69622695
1.8924401 1.04186 0.6969769
1.91994 1.0270801 0.70804995
1.94253 1.01298 0.71740693
1.9399899 1.00108 0.71498698
1.94278 0.98920304 0.71828699
1.93458 0.97807401 0.71511197
1.9306799 0.968207 0.71416593
1.88991 1.06363 0.68953294
1.8917799 1.0553 0.68912399
1.88788 1.04459 0.68795395
1.92024 1.02696 0.700885
1.9419701 1.0126899 0.70991898
1.9390601 1.00135 0.70705199
1.9410499 0.98830199 0.709759
1.9338901 0.97724605 0.70756394
1.92263 0.97009104 0.70377702
1.8913901 1.06294 0.68248397
1.8856701 1.0553299 0.67970598
1.8727001 1.0486699 0.67471802
1.92456 1.02501 0.69505799
1.93819 1.01309 0.70138705
1.9393401 1.00245 0.70033491
1.94242 0.99031198 0.701832
1.93752 0.979339 0.70205092
1.92361 0.97162497 0.69674599
1.8735499 1.06463 0.66756994
1.86718 1.05716 0.66577101
1.86866 1.0492901 0.66670501
1.92431 1.0230401 0.68694395
1.93875 1.01263 0.69418794
1.9435201 1.0013 0.69505996
1.9447399 0.99022204 0.69524795
1.9386799 0.97975802 0.69458801
1.9240601 0.97180998 0.68841201
1.87731 1.0653701 0.66019499
1.86657 1.05852 0.65774798
1.8612 1.05085 0.65723097
1.91838 1.0234101 0.67773104
1.9391 1.01235 0.68638396
1.9461 1.00045 0.68879592
1.93685 0.989797 0.68584096
1.9311999 0.97931898 0.68406099
1.91619 0.97209501 0.67782801
1.8808999 1.06519 0.65442902
1.8666 1.05934 0.64979994
1.8640199 1.05114 0.64966291
1.9243699 1.02188 0.67289996
1.9430701 1.0106701 0.68091291
1.9359599 1.0011699 0.67801499
1.93387 0.98958504 0.67734599
1.92818 0.97896004 0.675412
1.91822 0.97116095 0.67134798
1.87852 1.0643901 0.64600599
1.8671899 1.05749 0.64264601
1.8539901 1.0513301 0.63836294
1.9189501 1.0225199 0.66255897
1.9358901 1.01191 0.67118192
1.9348199 1.0011901 0.67009497
1.93646 0.98847097 0.67040193
1.92581 0.97825897 0.667292
1.91787 0.97095495 0.66459596
1.88401 1.06399 0.63937998
1.8797799 1.0559601 0.63943499
1.8600301 1.0502501 0.63362098
1.9164599 1.02421 0.65362495
1.9349899 1.01229 0.66311294
1.93602 1.00046 0.662534
1.9389999 0.98923701 0.664527
1.93155 0.980169 0.66221297
1.92036 0.97175699 0.65808898
1.88873 1.0637699 0.63430494
1.88403 1.05602 0.63264096
1.87354 1.04735 0.63048297
1.9046 1.0295401 0.64158994
1.9333501 1.0134799 0.65414399
1.93019 1.0016999 0.65227097
1.93918 0.98930603 0.65825391
1.92553 0.98001701 0.65263003
1.91892 0.971901 0.64902496
1.89122 1.06336 0.62856299
1.88406 1.0561 0.62489998
1.8874401 1.04357 0.62712198
1.9123501 1.02606 0.63803595
1.93382 1.01194 0.64717698
1.93196 1.0014701 0.64543593
1.93375 0.98962998 0.64880598
1.92624 0.97949201 0.645235
1.9139999 0.97214401 0.63935298
1.88534 1.0636901 0.61889094
1.8791001 1.0557801 0.61576098
1.87842 1.0446601 0.61531901
1.9117199 1.02798 0.62994897
1.92977 1.01342 0.63848096
1.93187 1.00213 0.63776594
1.9327201 0.98983598 0.64077699
1.9260299 0.97947401 0.63739699
1.9106101 0.97194397 0.63053697
1.87192 1.06503 0.60638797
1.85195 1.0601699 0.597646
1.82912 1.0570099 0.58775598
1.91319 1.0274299 0.62320697
1.92934 1.01438 0.63018698
1.9421699 1.00138 0.63460898
1.93294 0.99035698 0.63261598
1.92225 0.97945601 0.62773895
1.9126899 0.97162902 0.62453198
1.8631799 1.06596 0.59699899
1.8360699 1.06321 0.58554798
1.9364799 1.0300701 0.62632096
1.94366 1.0201 0.628627
1.93914 1.01018 0.62651193
1.9399699 0.99951899 0.62789398
1.9323699 0.98951399 0.62450296
1.9242101 0.97991204 0.620754
1.9145199 0.97195297 0.61777699
1.93668 1.01057 0.61801195
1.9411 0.99981004 0.62117398
1.92696 0.98972702 0.61429
1.91965 0.97934896 0.61255801
1.9116701 0.97230202 0.60835999
1.93607 1.0098001 0.61016595
1.93222 1.0013601 0.60912597
1.92944 0.99067903 0.60714197
1.92353 0.97972298 0.606309
1.9075301 0.97272402 0.59894198
1.93634 1.00848 0.60316998
1.9365401 0.99902296 0.60221094
1.9247501 0.98854601 0.59867996
1.9181399 0.97927999 0.59712797
1.91004 0.97281098 0.59352595
1.9393699 1.0073 0.59631497
1.93586 0.99893099 0.59409201
1.93332 0.98947501 0.59440798
1.9217 0.98065495 0.59169
1.96516 1.0047001 0.60140795
1.9406101 0.99863297 0.59030199
1.9355 0.98974001 0.58787501
1.9330901 0.98164099 0.588355
1.9323699 0.98948699 0.58071399
1.93012 0.98196101 0.58016396
1.92767 0.981794 0.57376695
1.87072 1.07469 0.71579599
1.87335 1.0739499 0.70912397
1.88688 1.06168 0.714481
1.89031 1.04883 0.71499199
1.87556 1.07256 0.70253199
1.8862399 1.06047 0.70693803
1.8852401 1.04965 0.70570397
1.90756 1.0334201 0.71556199
1.87196 1.0726 0.69405001
1.8855001 1.06069 0.69962198
1.87683 1.0517 0.69522893
1.9104899 1.03067 0.70926696
1.93391 1.0131199 0.71847093
1.9361501 1.00035 0.718678
1.92988 0.99011302 0.71778399
1.92981 0.96597701 0.71928191
1.91607 0.95830595 0.71452796
1.92084 0.948125 0.717884
1.8746201 1.06287 0.68852198
1.85928 1.05857 0.68142295
1.9122599 1.02879 0.70189595
1.9323599 1.01336 0.71079195
1.9346001 1.00131 0.71018404
1.93487 0.98833901 0.7125659
1.93053 0.97649497 0.71243304
1.92317 0.96685302 0.70980102
1.9031501 0.960899 0.70346892
1.8662699 1.06401 0.67722899
1.8436999 1.0620099 0.66811699
1.9108 1.0266 0.69318694
1.93416 1.0121601 0.70324296
1.93879 1.00059 0.70508796
1.93527 0.99039596 0.70465302
1.93056 0.97735399 0.70431703
1.91282 0.96850097 0.6993559
1.8942701 0.96370298 0.69195294
1.8598 1.06473 0.66599298
1.8421401 1.0614901 0.66036695
1.9025301 1.02748 0.68323296
1.9259 1.0138099 0.69243097
1.93744 0.99996495 0.6980049
1.93239 0.98788202 0.69665891
1.93516 0.97647399 0.69828993
1.90966 0.97051805 0.69033897
1.8894299 0.96452796 0.68246794
1.8644501 1.06446 0.65811402
1.84884 1.05871 0.65469193
1.8680999 1.0455201 0.66131395
1.92732 1.0131099 0.68542397
1.9299201 1.00266 0.68737596
1.9350901 0.98980302 0.69071299
1.9264799 0.97864199 0.68773103
1.9009199 0.97070003 0.67933196
1.88622 0.96464401 0.67445296
1.8608 1.0749199 0.64888197
1.8690699 1.0649099 0.65317899
1.8516901 1.05936 0.64806002
1.86386 1.04695 0.65437096
1.9265801 1.01227 0.67768997
1.9246401 1.00405 0.677724
1.9362301 0.98978698 0.68330693
1.9277201 0.97952795 0.67984802
1.9131199 0.970595 0.67578697
1.8891701 0.96457297 0.66809797
1.8480999 1.07836 0.63870299
1.8689301 1.06513 0.64738798
1.8439 1.0620201 0.63907897
1.8637199 1.04783 0.64810395
1.9319 1.00964 0.67211896
1.9337 0.99943298 0.67399096
1.9323699 0.98826104 0.67462802
1.9245399 0.97841907 0.67130095
1.9043499 0.97019798 0.66526496
1.8924299 0.96372002 0.66159797
1.85698 1.0681601 0.63769495
1.93248 1.0104901 0.66409594
1.93154 1.0016999 0.66586095
1.9302001 0.990637 0.66607195
1.92774 0.979729 0.66459394
1.91787 0.97003996 0.66230392
1.89406 0.96428597 0.65423203
1.87201 1.0606099 0.62722498
1.89483 1.03292 0.63888997
1.92435 1.01458 0.65318298
1.92936 1.0027699 0.65739
1.9328799 0.98947406 0.65898699
1.9225399 0.97924399 0.65583801
1.91351 0.96955299 0.653229
1.8924099 0.96412301 0.64499301
1.8822399 1.05841 0.62544596
1.86904 1.0516601 0.62197697
1.8957499 1.0338501 0.63254499
1.92204 1.0150701 0.64566398
1.9333701 1.0000701 0.65179199
1.9280901 0.98901904 0.64943999
1.9271699 0.97655898 0.65098399
1.90741 0.96989602 0.64292496
1.8924 0.96382898 0.63784796
1.8882099 1.05669 0.62164193
1.88345 1.04873 0.62042993
1.8975999 1.03343 0.62623298
1.9194599 1.01661 0.63667697
1.9265801 1.00236 0.64155197
1.92998 0.98970705 0.64165395
1.9229699 0.97862899 0.64172393
1.9147 0.96954101 0.63780797
1.89224 0.96398807 0.63021696
1.89272 1.0545601 0.61673397
1.8801601 1.0493901 0.61178797
1.8866701 1.0384899 0.61485296
1.9174 1.01796 0.62878698
1.92656 1.0026001 0.63286299
1.93452 0.98893899 0.63670397
1.92302 0.97918999 0.63309896
1.91373 0.96838897 0.63030893
1.88817 0.96433294 0.621117
1.88888 1.04615 0.60795397
1.8855001 1.03974 0.60681701
1.92445 1.0125 0.62415195
1.9273599 1.00176 0.62425399
1.9308901 0.98969299 0.62863499
1.92687 0.97920698 0.62647796
1.91833 0.969446 0.62436897
1.88965 0.964692 0.613747
1.91661 1.03786 0.61144197
1.8897001 1.0374199 0.60166496
1.92655 1.01299 0.61629194
1.9199899 1.00376 0.61293101
1.92694 0.98956597 0.61875397
1.9166499 0.97854501 0.61560094
1.9097199 0.96930999 0.61400896
1.8945199 0.96403801 0.60693896
1.90284 1.0302501 0.59962499
1.9249001 1.01404 0.60764098
1.9236301 1.00333 0.606718
1.9214901 0.99182999 0.60812896
1.92327 0.97961307 0.61099893
1.9133201 0.969625 0.60749596
1.88959 0.96497297 0.59707397
1.92241 1.02332 0.59833395
1.9265199 1.01237 0.60079294
1.9316901 1.00164 0.60375094
1.9229699 0.99301696 0.60093099
1.91962 0.97995204 0.60103297
1.9067 0.97030401 0.59723997
1.88906 0.96565104 0.58992094
1.92225 1.0235801 0.58949494
1.93073 1.01298 0.59487295
1.92968 1.00203 0.59642297
1.9249201 0.990237 0.59391195
1.92541 0.97862899 0.59569699
1.91607 0.970842 0.593072
1.94919 1.01677 0.59430897
1.93241 1.01319 0.58842999
1.9326301 1.00167 0.58932698
1.92514 0.99007899 0.58546597
1.92638 0.97884595 0.58905596
1.9162101 0.97210902 0.58389497
1.9380499 1.0089099 0.58427697
1.9275999 0.99982297 0.57906097
1.9251699 0.98937798 0.57814997
1.92259 0.97980499 0.57934797
1.9232601 0.97128999 0.57834101
1.9407699 0.99668401 0.57855898
1.9300799 0.98954904 0.57404298
1.92312 0.97981501 0.57141095
1.9126899 0.97242498 0.56588697
1.91854 0.98910201 0.56232798
1.91607 0.97917396 0.56024098
1.90944 0.97255599 0.55730397
1.91899 0.97831297 0.55460197
1.91634 0.97102302 0.55289996
1.9203399 0.97643799 0.54636598
1.91474 0.97099602 0.54433995
1.92662 0.97469902 0.54248899
1.9245 0.96854103 0.54241693
1.9273399 0.96816498 0.53818595
1.8829601 1.07927 0.71254897
1.8856399 1.06901 0.7148599
1.86949 1.06478 0.70887595
1.882 1.07934 0.70366096
1.8784699 1.0711399 0.70444196
1.8560201 1.06847 0.69626498
1.9051601 1.03231 0.71619296
1.8755001 1.08099 0.69441897
1.88282 1.0705 0.69840097
1.85551 1.06875 0.68957496
1.86506 1.05571 0.69233096
1.92451 1.0165 0.71650803
1.93408 1.00388 0.719935
1.87998 1.06883 0.68987989
1.8579401 1.06574 0.68300492
1.86297 1.0550801 0.68404394
1.93004 1.0124099 0.71061599
1.9423801 0.99903899 0.71610701
1.94058 0.99076498 0.71626097
1.87954 1.06783 0.681539
1.8625901 1.06387 0.67622399
1.8646899 1.05416 0.67771697
1.9287699 1.01255 0.70365494
1.9470799 0.99843806 0.71142501
1.9520799 0.98859 0.71409798
1.8819901 1.06635 0.67486197
1.8638699 1.06381 0.66748399
1.86472 1.05458 0.67033404
1.9330499 1.0116401 0.70020401
1.88097 1.06656 0.66634399
1.86147 1.0646399 0.65882796
1.8658201 1.05467 0.66171896
1.87615 1.0676399 0.65620798
1.8696201 1.0612 0.65520203
1.8645101 1.05457 0.65280199
1.87965 1.06752 0.64813697
1.8733299 1.06007 0.64875394
1.8762699 1.05077 0.64882898
1.89112 1.06616 0.64373899
1.88165 1.05902 0.64289993
1.8802099 1.04924 0.64419693
1.88557 1.07785 0.63373995
1.88511 1.06977 0.63450599
1.8603599 1.06951 0.62609595
1.8885499 1.04663 0.64229697
1.88694 1.0775599 0.62741399
1.8780999 1.0734301 0.62398696
1.88389 1.07986 0.61899996
1.87612 1.0751899 0.61624599
1.88186 1.07314 0.61322796
1.93973 1.00124 0.71732599
1.9339 0.97922498 0.71954697
1.92154 0.97138602 0.715666
1.921 0.96167201 0.71856993
1.9572901 1.00468 0.71500397
1.94187 1.0018901 0.710186
1.93961 0.98963499 0.71281898
1.9322799 0.97791803 0.71168
1.90985 0.97530502 0.70502096
1.9102299 0.96669698 0.70627701
1.9387 1.01261 0.70140791
1.94043 1.0030999 0.70305997
1.9377201 0.99241996 0.70332301
1.9323801 0.98102897 0.70437098
1.91511 0.97476995 0.69978696
1.88831 0.97486198 0.69139695
1.9320799 1.01561 0.69045097
1.93929 1.0026799 0.69579393
1.94133 0.99015802 0.69767702
1.93065 0.98166704 0.69535601
1.9091201 0.97728896 0.69011599
1.92351 1.01946 0.67907
1.9382499 1.0035501 0.68708396
1.93354 0.99305099 0.68816298
1.92976 0.98245794 0.686445
1.9147501 0.977202 0.68284696
1.91433 1.0234799 0.66870195
1.9329699 1.0061901 0.67697299
1.93487 0.99187899 0.68014801
1.9254299 0.98231596 0.67774004
1.9102401 0.97874606 0.67327696
1.90808 1.02632 0.66078597
1.9295 1.0083899 0.66876894
1.93252 0.99495101 0.67018098
1.93226 0.98193705 0.67285097
1.9116701 0.97880399 0.66569704
1.93433 1.00495 0.66145402
1.9342101 0.99368501 0.66260099
1.93011 0.98290199 0.663598
1.9057699 0.97846705 0.65410596
1.8473101 0.98209399 0.63239694
1.9171699 1.02239 0.64414293
1.93457 1.00335 0.65402597
1.9356101 0.99082899 0.65697598
1.9245501 0.98265702 0.65346098
1.90737 0.97612101 0.647035
1.87535 0.974733 0.63709295
1.84649 0.97429299 0.62743795
1.92427 1.0308599 0.63763398
1.9223399 1.0224199 0.63856298
1.9302001 1.00758 0.64406198
1.9311399 0.99273199 0.64723498
1.92204 0.982539 0.64517701
1.91063 0.97563499 0.64098394
1.88968 0.97113901 0.63506496
1.8727901 0.96654505 0.62997895
1.93907 1.02536 0.63649797
1.92396 1.0224401 0.63210893
1.9294299 1.00986 0.63642597
1.9275501 0.99745697 0.63708395
1.9260601 0.98245502 0.63826299
1.90519 0.97589993 0.63255495
1.8875301 0.97051901 0.62653899
1.87457 0.96505499 0.62144297
1.92528 1.02119 0.62467796
1.93164 1.00693 0.62963599
1.93204 0.99293298 0.63171297
1.92802 0.98291498 0.63033998
1.9091901 0.97586 0.62562597
1.8875301 0.97009498 0.61798096
1.8722 0.96518207 0.61220396
1.92301 1.02104 0.61557895
1.9301 1.00797 0.619672
1.93224 0.99370599 0.62394798
1.9225 0.98384696 0.62083495
1.90576 0.97574097 0.61578393
1.88132 0.97116399 0.60702199
1.86771 0.96639502 0.60344499
1.9266601 1.01855 0.60910696
1.93059 1.00728 0.61198497
1.9291 0.99468595 0.61355495
1.9244901 0.98137701 0.61439794
1.90316 0.97611099 0.60602099
1.88457 0.97023904 0.59994996
1.8738099 0.96447301 0.59839296
1.92616 1.01855 0.60087597
1.93291 1.0056601 0.60493201
1.9263201 0.99507004 0.60386801
1.9208901 0.98407602 0.60489899
1.90843 0.97684199 0.59951997
1.89644 0.96823698 0.596681
1.87874 0.96371597 0.59124398
1.92995 1.0168099 0.59406096
1.9322 1.00578 0.59612495
1.9310899 0.99517304 0.59828395
1.92265 0.98449701 0.59677798
1.90762 0.97513902 0.59148198
1.8905799 0.96851802 0.58722097
1.88389 0.96174794 0.58408999
1.92834 1.01803 0.58447498
1.9319501 1.00712 0.58860797
1.92759 0.99574095 0.58850497
1.9196899 0.98387003 0.587681
1.90802 0.97666705 0.58306897
1.8981199 0.967062 0.58145398
1.8799601 0.963292 0.57363796
1.93012 1.01721 0.57748693
1.93154 1.00676 0.57989997
1.93239 0.99415702 0.58223397
1.92375 0.98438299 0.58077794
1.9071499 0.97624999 0.57513398
1.8948101 0.96773398 0.57137698
1.88351 0.96182299 0.56661296
1.93204 1.01556 0.57062799
1.9334599 1.0059201 0.57274199
1.9281501 0.99594396 0.57264799
1.9248599 0.98257303 0.57287896
1.9080701 0.97513497 0.56740999
1.8934599 0.967893 0.56229395
1.87688 0.96360803 0.55558598
1.94261 1.0107599 0.56746
1.93467 1.00439 0.565687
1.9327099 0.99158305 0.56640494
1.91934 0.98328799 0.56304097
1.91379 0.97327304 0.56150997
1.8857001 0.96997398 0.55035996
1.87234 0.96508402 0.54610193
1.9269201 1.0076699 0.554322
1.93521 0.99359494 0.55887097
1.92419 0.98390001 0.55637693
1.90694 0.977835 0.54957396
1.8611 0.97606003 0.53247696
1.87175 0.96499497 0.53801894
1.93318 1.00245 0.54840797
1.92915 0.99339205 0.54899096
1.92011 0.98539704 0.54571396
1.9164599 0.97696799 0.54390794
1.8659101 0.97406602 0.52802199
1.87117 0.96474099 0.53100896
1.9188299 1.00766 0.53252894
1.92962 0.99328005 0.54097497
1.91965 0.985771 0.53683394
1.9141999 0.977983 0.53444093
1.86411 0.97454 0.52133495
1.91813 1.0084 0.524396
1.92259 0.99632001 0.52817196
1.9236599 0.983374 0.53077996
1.9129801 0.97815102 0.52576596
1.9247099 1.00588 0.52006596
1.92818 0.995139 0.52144998
1.9225999 0.98487604 0.52108997
1.91959 0.97602302 0.52104795
1.93084 1.00279 0.51440793
1.9292301 0.992872 0.51382995
1.92768 0.98266 0.51544696
1.9192901 0.97659796 0.51279598
1.9368601 0.99970496 0.50843197
1.9278301 0.99287105 0.50487596
1.92707 0.98280799 0.50760001
1.9158701 0.97644997 0.50248599
1.87499 0.97803599 0.481249
1.95656 0.99246401 0.51134098
1.93037 0.992239 0.49913797
1.92015 0.98356795 0.49598694
1.9036599 0.97753 0.48900795
1.87875 0.97704005 0.47681001
1.92399 0.98076797 0.48898399
1.9031501 0.97758102 0.48161301
1.88271 0.97543502 0.47100595
1.9298199 0.97753406 0.48202994
1.91074 0.97469705 0.47573897
1.88138 0.97555602 0.46232697
1.9376601 0.97501802 0.47816598
1.9233099 0.97198701 0.47255194
1.88748 0.97374701 0.45648897
1.92571 0.97882795 0.46509698
1.9149699 0.97347504 0.45997596
1.88843 0.97342598 0.447007
1.9194701 0.97958297 0.45367196
1.9087 0.974904 0.44759095
1.8864599 0.97400594 0.43787897
1.9149499 0.981457 0.44213495
1.9106599 0.97459102 0.43955794
1.8910899 0.97254896 0.43156996
1.91354 0.98131102 0.43176094
1.9074401 0.97463697 0.43011397
1.88886 0.97274297 0.42230895
1.92616 0.97657305 0.42983094
1.91258 0.97331595 0.42416
1.9056799 1.0496 0.71869397
1.9002099 1.06443 0.70663595
1.90053 1.0543699 0.70849699
1.9154401 1.0331 0.71603501
1.89688 1.0672899 0.69781691
1.8929801 1.0603299 0.69895995
1.88932 1.05197 0.69859999
1.9287699 1.01006 0.71507204
1.92918 0.98334396 0.71850294
1.92987 0.96874201 0.71999896
1.92559 0.960181 0.71883196
1.88776 1.0708799 0.68761992
1.89423 1.05922 0.69190097
1.8827499 1.05485 0.68752503
1.93608 1.00428 0.70863998
1.9335201 0.99448603 0.71114296
1.92891 0.98198801 0.70995694
1.9296299 0.96826798 0.71243995
1.91804 0.96435094 0.70812303
1.89149 1.05854 0.68225396
1.8824201 1.05389 0.67938203
1.92748 1.00796 0.69803596
1.93427 0.99386299 0.70214796
1.92888 0.98338097 0.70207298
1.9246001 0.97242302 0.70250297
1.9051 0.97049004 0.69545394
1.8909 1.0581601 0.67312193
1.89022 1.04883 0.67350602
1.93293 1.00632 0.69212198
1.93636 0.99363899 0.69496292
1.9311399 0.98342597 0.69525498
1.92128 0.97363502 0.69280398
1.9054899 0.97009003 0.68734097
1.8956399 1.05663 0.665986
1.89239 1.04751 0.66565597
1.91581 1.0212799 0.67669797
1.93204 0.99688005 0.68561196
1.92741 0.98393601 0.68562895
1.92107 0.97322798 0.68442202
1.90046 0.971192 0.67741996
1.8789999 1.07558 0.65035897
1.8988099 1.05529 0.65886289
1.9023801 1.04024 0.66206396
1.9224499 1.01469 0.67129701
1.9358799 0.99304396 0.67953795
1.9257801 0.98418897 0.67694592
1.9166499 0.974244 0.67430496
1.8958299 0.97207499 0.66797996
1.8925 1.06945 0.646568
1.90101 1.0527301 0.65175992
1.9097999 1.0343499 0.65739596
1.9242799 1.01395 0.66308701
1.93108 0.99638498 0.66985792
1.92732 0.98399699 0.669245
1.91731 0.97547203 0.66611999
1.90423 0.96881598 0.66378999
1.88353 0.96787 0.65800399
1.893 1.0706301 0.63834298
1.8970599 1.0572699 0.64080596
1.9099499 1.03503 0.64877295
1.92651 1.01183 0.65616393
1.92974 0.997033 0.66112703
1.92414 0.98507601 0.65998596
1.91246 0.97631401 0.65684801
1.89517 0.97260594 0.65351999
1.89632 1.06879 0.63177896
1.89767 1.05688 0.63175398
1.9077001 1.03787 0.63876897
1.92318 1.01477 0.64713699
1.9267501 0.99726897 0.65152395
1.91767 0.986642 0.650132
1.91559 0.97613502 0.64967895
1.90086 0.97172898 0.64609998
1.90084 1.06591 0.62514299
1.8951199 1.0584201 0.62210196
1.90674 1.03853 0.62963694
1.91317 1.0202401 0.63489997
1.92735 0.99829203 0.64267099
1.9223399 0.984761 0.64370596
1.90931 0.97769797 0.64043999
1.9063901 0.96851897 0.63914496
1.8979201 1.06761 0.61533499
1.89493 1.0589299 0.61392897
1.89956 1.04261 0.61786199
1.91751 1.01835 0.62807894
1.9224499 1.0009999 0.63228297
1.9225999 0.98612398 0.63480699
1.9144299 0.974841 0.634009
1.8996401 0.97017896 0.62864995
1.89754 1.06751 0.60578096
1.89979 1.05409 0.60846996
1.90233 1.0395501 0.61096096
1.90703 1.02376 0.61531699
1.9253399 1.00008 0.62507498
1.92059 0.98768306 0.62559795
1.92065 0.974033 0.62813699
1.9021001 0.96900398 0.62168199
1.8825001 0.96814698 0.61707896
1.94247 1.07362 0.60739195
1.91423 1.0772099 0.59810495
1.90205 1.06876 0.59733695
1.89774 1.05725 0.59926397
1.89854 1.0438401 0.60218
1.90853 1.02521 0.60736495
1.9199899 1.00369 0.61387098
1.92536 0.986691 0.61942399
1.91627 0.97521698 0.61744994
1.9061 0.96593803 0.61468798
1.9110899 0.95448798 0.61855996
1.94171 1.07365 0.60186994
1.9326199 1.06926 0.59983897
1.9123399 1.06656 0.59319395
1.90099 1.05825 0.59213799
1.89864 1.04427 0.59363496
1.91782 1.0180401 0.602503
1.9228301 1.00115 0.60722899
1.9216599 0.987068 0.60910898
1.9204401 0.97308505 0.61092895
1.90724 0.96707702 0.60758299
1.90877 0.955899 0.61049896
1.9252299 1.07058 0.590729
1.91267 1.0650901 0.58629596
1.90693 1.05481 0.58621794
1.91418 1.03521 0.59073901
1.91517 1.02063 0.59244496
1.9272799 0.99954903 0.60094094
1.9183099 0.98873103 0.59817797
1.9153 0.97538 0.60092098
1.9063699 0.96736801 0.600016
1.91494 1.06189 0.58052599
1.92182 1.0450901 0.58367497
1.91575 1.0334899 0.58271497
1.9255 1.01291 0.58918893
1.9272599 0.99763298 0.59329695
1.92085 0.98882204 0.591151
1.91677 0.97768098 0.59186596
1.91076 0.96800303 0.59166396
1.9217501 1.05555 0.57424498
1.9236 1.04265 0.57512796
1.92041 1.0288301 0.57641798
1.92827 1.0106701 0.58191097
1.9229 1.0002999 0.58356398
1.9198899 0.98786598 0.583556
1.9187801 0.97507101 0.58478093
1.91026 0.96851999 0.58155394
1.9266499 1.05217 0.56654698
1.9278301 1.04161 0.56859499
1.92448 1.0301499 0.56889498
1.925 1.01466 0.572236
1.9277999 0.99748701 0.57678294
1.9239399 0.98411399 0.57772899
1.91677 0.97524101 0.57558298
1.90649 0.96968299 0.57153898
1.9252499 1.05384 0.55608696
1.92687 1.0415699 0.56012797
1.9281501 1.02706 0.56235898
1.9220101 1.01801 0.56280398
1.9225501 1.00339 0.56519395
1.9192599 0.98779196 0.56635398
1.91397 0.97580999 0.56652999
1.90966 0.968005 0.56468499
1.92382 1.0548 0.54765695
1.9227099 1.04505 0.54888296
1.91602 1.03545 0.54962099
1.9224401 1.0163 0.55533099
1.9261 0.99847704 0.55939996
1.9181399 0.98919898 0.55647296
