# .PCD v0.7 - Point Cloud Data file format
VERSION 0.7
FIELDS x y z
SIZE 4 4 4
TYPE F F F
COUNT 1 1 1
WIDTH 70
HEIGHT 1
VIEWPOINT 0 0 0 1 0 0 0
POINTS 70
DATA ascii
1.6577201 1.0988201 2.4869599
1.65418 1.0733 2.4874499
1.6527499 1.0843 2.4869001
1.6517501 1.07453 2.4797599
1.66444 1.0928299 2.4810097
1.67225 1.08804 2.4761999
1.6660401 1.09499 2.4751899
1.6445199 1.07962 2.4879401
1.656 1.06261 2.48333
1.64748 1.07057 2.4814599
1.6481301 1.0823101 2.4820499
1.6427699 1.08972 2.4816198
1.65856 1.0764199 2.47664
1.64388 1.08069 2.47457
1.6378999 1.0889499 2.4723198
1.64354 1.08312 2.4657001
1.64455 1.0936799 2.4657199
1.64082 1.08527 2.4556398
1.64428 1.09604 2.4574201
1.64328 1.09737 2.44977
1.63999 1.10803 2.4487
1.6210999 1.10209 2.4385998
1.6232899 1.1124099 2.4394102
1.61852 1.1041501 2.43083
1.61577 1.11062 2.4307799
1.61388 1.10217 2.4237201
1.60835 1.10807 2.42312
1.6073599 1.09929 2.4172599
1.6609801 1.07778 2.4877501
1.6494299 1.08418 2.4851499
1.6612601 1.07981 2.4811301
1.64659 1.0847 2.4781299
1.64643 1.0942401 2.4782097
1.63828 1.08365 2.4699099
1.63212 1.09078 2.4683797
1.6260699 1.08172 2.4589899
1.6210699 1.0879101 2.4587798
1.6294399 1.0839 2.45052
1.62349 1.08971 2.4515297
1.63211 1.08582 2.4437399
1.62586 1.09191 2.4428399
1.63255 1.0877401 2.4370699
1.62717 1.09496 2.43556
1.64148 1.1083599 2.43836
1.62377 1.09471 2.4298201
1.63508 1.10734 2.43168
1.63315 1.10701 2.4263999
1.6446899 1.08541 2.4885299
1.65503 1.0818499 2.4830799
1.63914 1.08481 2.4802301
1.6531799 1.0835099 2.4748402
1.6375301 1.0862499 2.4725602
1.6331 1.08689 2.4641001
1.6400701 1.09624 2.4659698
1.63735 1.09097 2.4563999
1.62918 1.09503 2.4568701
1.6396201 1.09378 2.4494698
1.6278701 1.09743 2.4482999
1.62672 1.0994201 2.44048
1.62429 1.10587 2.4408
1.61886 1.09894 2.4309101
1.626 1.10803 2.43401
1.6349001 1.1042 2.42641
1.6199899 1.10668 2.4257998
1.62957 1.11008 2.4213102
1.66596 1.08839 2.4892099
1.65309 1.0939499 2.48208
1.66478 1.0896 2.47875
1.6471699 1.09217 2.46772
1.6498399 1.0944899 2.4621999
