# .PCD v0.7 - Point Cloud Data file format
VERSION 0.7
FIELDS x y z
SIZE 4 4 4
TYPE F F F
COUNT 1 1 1
WIDTH 72
HEIGHT 1
VIEWPOINT 0 0 0 1 0 0 0
POINTS 72
DATA ascii
1.93677 0.94481397 0.75062096
1.96559 0.93184096 0.75912094
1.96877 0.92224699 0.76016498
1.9459801 0.94181705 0.74785995
1.9733299 0.928711 0.756356
1.98883 0.91976798 0.76172799
1.93945 0.95267797 0.73909897
1.9538901 0.93937105 0.74402696
1.97972 0.92693299 0.75197494
1.98677 0.91802001 0.75470793
1.9428101 0.94453204 0.73414397
1.96881 0.92865199 0.74291795
1.99886 0.91616303 0.75226295
2.0127099 0.90660501 0.75583398
1.99782 0.91462499 0.74647093
2.0148802 0.90531194 0.75143999
2.0202401 0.89540601 0.751167
2.02391 0.90214401 0.74816191
2.0255799 0.89238 0.74633497
2.0213499 0.88454902 0.74478501
2.0316498 0.89871901 0.74297899
2.0314901 0.89132398 0.74261594
2.03128 0.88282603 0.74228698
2.0269098 0.89793998 0.73453498
2.0334399 0.89025003 0.73719496
2.0374601 0.88103998 0.73783195
2.0252399 0.87440103 0.73458695
2.0371001 0.88929099 0.73157293
2.0367999 0.88173598 0.731879
2.02882 0.88762701 0.72164994
2.0476301 0.87935996 0.72872299
2.0459499 0.878281 0.721165
1.93524 0.94227797 0.74963099
1.9586501 0.92750299 0.75696701
1.96429 0.91703397 0.75844896
1.95303 0.93680102 0.75024092
1.96716 0.924151 0.75467896
1.9846699 0.91198897 0.75928801
1.95495 0.93600404 0.74422395
1.97918 0.92063797 0.75261199
1.9905701 0.90991402 0.75548494
1.98715 0.90209001 0.75400496
1.94962 0.93854797 0.73468596
1.9862199 0.919159 0.74825096
1.99869 0.90690303 0.75229204
2.01336 0.895625 0.75577796
1.9811599 0.919541 0.74000794
2.0051801 0.90506399 0.74781001
2.02198 0.89299005 0.75236696
2.0106599 0.887371 0.74914002
2.0120001 0.90412498 0.74370497
2.0169001 0.89433801 0.74480993
2.0289299 0.88463598 0.74884695
2.0123701 0.90080297 0.73619699
2.0293601 0.89082301 0.74259096
2.03262 0.88315099 0.742881
2.01546 0.90025198 0.73118299
2.0276101 0.89089996 0.73592299
2.0423501 0.88167101 0.74094599
2.01842 0.89323896 0.72797698
2.0490899 0.88064104 0.73913598
1.93401 0.939574 0.73877698
1.94858 0.925291 0.74308097
1.9632499 0.92809796 0.740776
1.94724 0.92564696 0.73717898
1.9798199 0.91967303 0.73850799
1.96538 0.91841698 0.73601794
1.98611 0.91556096 0.73422503
1.988 0.908499 0.73569596
1.9900301 0.90637702 0.73074996
1.99902 0.89635801 0.73418397
2.0069299 0.89305496 0.73220396
