# .PCD v0.7 - Point Cloud Data file format
VERSION 0.7
FIELDS x y z
SIZE 4 4 4
TYPE F F F
COUNT 1 1 1
WIDTH 157
HEIGHT 1
VIEWPOINT 0 0 0 1 0 0 0
POINTS 157
DATA ascii
1.7595799 1.0312101 2.5243299
1.74046 1.05159 2.5248899
1.7585001 1.04408 2.5131102
1.75836 1.03246 2.5167401
1.7633799 1.0201 2.5160999
1.76875 1.00713 2.51244
1.76671 1.01897 2.5030999
1.7722099 1.0084 2.49821
1.76897 0.99688005 2.5047801
1.76819 0.99709398 2.4926598
1.73769 1.06249 2.5392802
1.73901 1.06349 2.5325601
1.7322501 1.05022 2.5241997
1.73815 1.06269 2.52687
1.73708 1.03666 2.51753
1.72937 1.06042 2.5280499
1.7285299 1.0472699 2.5188198
1.73241 1.05725 2.52034
1.7338099 1.0364801 2.5126998
1.7157201 1.08599 2.5448999
1.7411 1.08935 2.5490799
1.73914 1.09983 2.5478299
1.72651 1.09299 2.5401402
1.72495 1.05119 2.5239398
1.71593 1.09264 2.5402999
1.7238699 1.08527 2.5339701
1.7260699 1.07086 2.5359101
1.73667 1.05805 2.5342498
1.74859 1.04919 2.53392
1.73106 1.07218 2.5269198
1.7373599 1.05784 2.52613
1.74586 1.04766 2.5269699
1.73965 1.04407 2.5185001
1.74834 1.03171 2.5099301
1.74626 1.01447 2.5042601
1.76354 1.00502 2.5007801
1.71065 1.09132 2.5424302
1.71901 1.08283 2.5362601
1.72521 1.06478 2.5285599
1.7394501 1.05453 2.5268202
1.74209 1.04196 2.5263
1.74336 1.04302 2.51915
1.74024 1.0266 2.51267
1.7228799 1.1030899 2.5431101
1.71873 1.08977 2.5387602
1.7504401 1.05186 2.53527
1.7065101 1.08227 2.5344698
1.71776 1.07125 2.53281
1.7408 1.0630001 2.5298002
1.7494299 1.0519 2.5283301
1.75383 1.0403299 2.5285997
1.74562 1.06224 2.5216401
1.75545 1.0506099 2.5208099
1.7615601 1.0402501 2.5200198
1.7607499 1.0276101 2.5192699
1.75802 1.03933 2.5128198
1.75439 1.0225101 2.5130799
1.75696 1.0248899 2.5052798
1.7477601 1.0070601 2.5007901
1.76006 0.99534106 2.4988902
1.75966 0.99246001 2.4910097
1.72954 1.1112599 2.54668
1.7332001 1.10225 2.5462699
1.72323 1.0887101 2.5474601
1.73035 1.0914199 2.54141
1.7627499 1.0411299 2.53719
1.7263401 1.08859 2.5348599
1.75341 1.04888 2.5325198
1.76292 1.0395 2.5312202
1.7154801 1.06945 2.52895
1.7245599 1.059 2.5283701
1.74299 1.05003 2.52635
1.7595199 1.0387599 2.52458
1.75117 1.04758 2.5174899
1.7531799 1.03361 2.5174701
1.7522 1.0355201 2.5097101
1.7527499 1.0222499 2.5106001
1.75181 1.01247 2.5039301
1.7327 1.02915 2.5106299
1.70759 1.0842299 2.5350602
1.73045 1.03835 2.51577
1.73414 1.02391 2.5075698
1.72952 1.05417 2.5215101
1.73765 1.02728 2.5123801
1.73229 1.04029 2.5142801
1.73885 1.01452 2.5042601
1.7374899 1.10297 2.5431299
1.7360001 1.0414701 2.5181
1.7355701 1.02512 2.5099399
1.7244099 1.08235 2.5397599
1.75788 1.0438501 2.5361397
1.76194 1.0320201 2.5345199
1.7262601 1.08392 2.5334001
1.7196801 1.07381 2.5357001
1.73541 1.06006 2.53233
1.7578599 1.04325 2.52915
1.7620399 1.02914 2.52807
1.74392 1.05652 2.5240901
1.75526 1.04331 2.5225198
1.7600501 1.03126 2.5217099
1.75519 1.043 2.51495
1.7541299 1.02825 2.5155399
1.75363 1.02941 2.50807
1.7532001 1.01608 2.5088902
1.7639799 1.00252 2.5053699
1.7560099 1.01596 2.50137
1.76912 1.00148 2.4984798
1.7627901 1.0007499 2.4933398
1.73338 1.1068801 2.5499701
1.74482 1.06126 2.5464399
1.7438999 1.1042199 2.5431201
1.73431 1.09603 2.54445
1.7346201 1.0821099 2.54354
1.7569799 1.0613301 2.5396299
1.75255 1.04811 2.53986
1.74428 1.0922199 2.5370998
1.74586 1.0760399 2.53531
1.7519299 1.05954 2.5344198
1.7578101 1.0453 2.5330701
1.7474899 1.06244 2.5278699
1.75762 1.04667 2.5263999
1.7546 1.03333 2.52686
1.73394 1.0537 2.52303
1.74589 1.03817 2.5204499
1.7460899 1.03488 2.5123
1.7491299 1.01995 2.5125399
1.74524 1.02071 2.5051699
1.7659801 1.00387 2.5019197
1.73989 1.11413 2.54914
1.7411799 1.10473 2.54793
1.76826 1.0498101 2.5431101
1.76522 1.03991 2.54423
1.7394201 1.10514 2.5427701
1.74526 1.09111 2.5407701
1.7489101 1.07179 2.53971
1.76174 1.05301 2.5370898
1.76687 1.0386699 2.53719
1.7467101 1.0861 2.5335
1.7526401 1.06833 2.53227
1.7625799 1.05199 2.53018
1.7616299 1.0400701 2.5307701
1.75068 1.0575299 2.5250602
1.75713 1.04254 2.52457
1.75849 1.02801 2.52386
1.7582099 1.04208 2.5165
1.76008 1.02503 2.5148599
1.76214 1.0253199 2.5072699
1.75772 1.01318 2.5078199
1.76248 1.0100701 2.4985998
1.7536099 1.05082 2.54125
1.73123 1.05484 2.52896
1.7572099 1.03857 2.5272698
1.7491901 1.0475399 2.5265298
1.74303 1.0584999 2.5262001
1.7462399 1.0321 2.5092402
1.75752 1.04851 2.5218499
1.7602201 1.04967 2.51583
