# .PCD v0.7 - Point Cloud Data file format
VERSION 0.7
FIELDS x y z
SIZE 4 4 4
TYPE F F F
COUNT 1 1 1
WIDTH 99
HEIGHT 1
VIEWPOINT 0 0 0 1 0 0 0
POINTS 99
DATA ascii
1.86806 1.10431 1.907286
1.86474 1.14222 1.8956469
1.86955 1.1331301 1.895008
1.87738 1.12071 1.8940049
1.86692 1.1035501 1.9018219
1.8709199 1.09198 1.9025
1.87411 1.1454 1.8856229
1.8803799 1.13441 1.8850999
1.8772501 1.12265 1.886718
1.87771 1.11077 1.8884461
1.8744501 1.1488401 1.876986
1.87625 1.13414 1.879006
1.87466 1.12078 1.881098
1.8814999 1.11252 1.8790109
1.88546 1.1512799 1.8650219
1.87334 1.13684 1.8710181
1.87342 1.1228501 1.8730578
1.86362 1.11067 1.877569
1.8761301 1.14926 1.8611301
1.8682201 1.13406 1.8653809
1.86867 1.1231099 1.8669989
1.87331 1.1466401 1.854856
1.8591499 1.13296 1.861788
1.8765401 1.10504 1.9075931
1.8725901 1.11654 1.9014539
1.8905001 1.1094899 1.8950059
1.8791001 1.09396 1.9023029
1.8853 1.12901 1.888555
1.88352 1.1195301 1.88972
1.8807499 1.10624 1.8927178
1.88257 1.09505 1.893298
1.87017 1.1404099 1.883709
1.87786 1.131 1.8829489
1.8861099 1.12194 1.8810691
1.8818899 1.11023 1.884129
1.8817999 1.0964299 1.886878
1.8783901 1.14307 1.8734729
1.87744 1.1326799 1.875932
1.87954 1.12208 1.8764719
1.86044 1.10738 1.8857111
1.8769799 1.15766 1.864812
1.88272 1.14539 1.8640438
1.87464 1.1327 1.8699781
1.88052 1.1235299 1.8676748
1.8805299 1.14754 1.857795
1.8810401 1.13563 1.8589569
1.8646699 1.1237301 1.865461
1.87783 1.13662 1.852549
1.87 1.1028299 1.911628
1.86655 1.11131 1.9065619
1.87666 1.1028299 1.902572
1.8721499 1.1128299 1.8967869
1.8772 1.10436 1.895067
1.87809 1.0934401 1.895318
1.87363 1.11647 1.8870859
1.8705901 1.1052899 1.8905231
1.84754 1.12705 1.888659
1.8611599 1.11682 1.8859189
1.8625101 1.10474 1.8879249
1.84547 1.13989 1.880674
1.86203 1.13115 1.8755499
1.8426 1.14232 1.8748339
1.8585601 1.13466 1.8692441
1.8423101 1.1443599 1.8677909
1.88302 1.14165 1.8806109
1.88693 1.1334701 1.880869
1.89309 1.12457 1.881825
1.89108 1.11429 1.8811389
1.88125 1.14192 1.874764
1.87782 1.1323 1.8729221
1.89115 1.125 1.8767661
1.8873399 1.11316 1.875631
1.874 1.14274 1.866153
1.87614 1.13318 1.8667169
1.8572201 1.15285 1.8556501
1.85655 1.1403 1.8550639
1.87717 1.0924801 1.9037199
1.8785601 1.11033 1.913379
1.8745199 1.12237 1.9085709
1.87799 1.11169 1.907066
1.8867999 1.09918 1.9035989
1.88304 1.13132 1.897977
1.87748 1.12321 1.90091
1.87922 1.11431 1.8989661
1.8765199 1.10348 1.901319
1.8860699 1.13265 1.889451
1.8788 1.12512 1.8925309
1.8789101 1.11561 1.8916581
1.87712 1.13633 1.8853971
1.87049 1.1277601 1.8877039
1.85922 1.12108 1.8918079
1.8713001 1.14966 1.8795019
1.8643899 1.14028 1.8828549
1.8655299 1.13034 1.882272
1.87034 1.15158 1.8731408
1.8520799 1.1440101 1.881235
1.84132 1.13581 1.886223
1.8712699 1.15372 1.8651609
1.8702201 1.15659 1.8563679
