# .PCD v0.7 - Point Cloud Data file format
VERSION 0.7
FIELDS x y z
SIZE 4 4 4
TYPE F F F
COUNT 1 1 1
WIDTH 275
HEIGHT 1
VIEWPOINT 0 0 0 1 0 0 0
POINTS 275
DATA ascii
1.9493401 1.04961 1.9303031
1.9391999 0.99631202 1.9686799
1.9482601 1.0135701 1.953994
1.9382499 0.99489802 1.96164
1.9485401 1.0059201 1.9482269
1.9437801 0.99608999 1.951187
1.94022 1.06118 1.9338809
1.95412 1.05697 1.9281061
1.96167 1.01636 1.931419
1.95375 1.05028 1.9236169
1.9638699 1.0161901 1.923395
2.00474 1.04739 2.0069818
2.0064001 1.05572 1.9998169
2.01072 1.0490299 1.9988691
2.01649 1.06718 1.987041
2.0139799 1.05779 1.990044
2.0081398 1.04967 1.9945459
2.0103102 1.05928 1.986095
2.0038099 1.0598201 1.9835429
1.9484 1.03262 1.973122
1.97146 1.0362999 1.95393
1.9470301 1.02362 1.9672589
1.96543 1.0267299 1.9503821
1.97039 1.0271801 1.941856
1.96996 1.0250599 1.936507
1.9397999 1.03345 1.9909281
1.93748 1.04181 1.9841049
1.9587399 1.0424199 1.9878681
1.94576 1.04549 1.9778019
1.94864 1.03676 1.9788929
1.93829 1.04407 1.968642
1.94919 1.0362999 1.9704199
1.94452 1.0334101 1.9610181
1.9514101 1.0351599 1.955515
1.95237 1.02627 1.954996
1.95093 1.03549 1.9491529
1.95418 1.02758 1.9489499
1.9409 1.0584999 1.941084
1.96156 1.05625 1.9448389
1.96032 1.0420899 1.9451759
1.9331399 1.066 1.935616
1.94936 1.06268 1.9379519
1.9418601 1.0231301 1.9999859
1.93739 1.0424401 1.99245
1.94124 1.03171 1.9942939
1.9399201 1.02079 1.9918219
1.94645 1.0455999 1.9876801
1.9479401 1.03388 1.987399
1.94166 1.02097 1.98515
1.9441099 1.04378 1.980526
1.95358 1.03584 1.9815559
1.93793 1.0200801 1.9774899
1.94015 1.0436901 1.9720731
1.9499099 1.03501 1.974382
1.9535401 1.03826 1.9669831
1.95011 1.04845 1.9597559
1.9523599 1.0512 1.953808
1.94586 1.06267 1.938591
1.9185899 1.06115 2.0370359
1.9261 1.04975 2.005862
1.9329699 1.05211 2.000067
1.9408901 1.05389 1.9947048
1.9330299 1.04353 1.9936509
1.96083 1.05733 1.992377
1.94427 1.04555 1.98888
1.95044 1.04597 1.983031
1.9384199 1.03299 1.980152
1.9544501 1.04588 1.976951
1.93962 1.03329 1.9727679
1.95022 1.04361 1.9694629
1.9443401 1.03301 1.9660139
1.94752 1.0418299 1.961857
1.9474499 1.03328 1.9600101
1.94735 1.0227799 1.9599148
1.95841 1.03536 1.9570441
1.9521401 1.0242801 1.9542029
1.95052 1.031 1.948154
1.9606799 1.01972 1.927441
1.8970799 1.06741 2.0782931
1.89396 1.0664901 2.0713611
1.90325 1.0660601 2.0571339
1.9052901 1.06596 2.051141
1.91205 1.0660701 2.04689
1.91093 1.06564 2.0417221
1.92934 1.05784 1.9969971
1.93176 1.0285 1.9980719
1.9626199 1.06692 1.993517
1.9763901 1.05726 1.9962839
1.9287 1.04984 1.9904709
1.95915 1.0665001 1.9887609
1.9802901 1.05567 1.993165
1.9502499 1.05015 1.9870811
1.9579401 1.05671 1.983346
1.9553101 1.04721 1.9818618
1.93673 1.0402 1.979484
1.93854 1.0161 1.9793179
1.9573399 1.0461299 1.9760801
1.9444901 1.0382199 1.9743781
1.9456 1.0269101 1.9729708
1.93495 0.99750298 1.9728119
1.9405299 1.04689 1.9646139
1.95052 1.03724 1.9687771
1.95121 1.02703 1.967824
1.94823 1.01555 1.9675651
1.93984 1.0044999 1.9671829
1.95213 1.03583 1.9619449
1.95436 1.0245301 1.9628189
1.95869 1.01343 1.9628699
1.94638 1.00484 1.961676
1.94104 0.994313 1.9599899
1.94888 1.03661 1.9540979
1.9549 1.0247 1.956427
1.9615101 1.0130401 1.957661
1.94675 1.00351 1.954388
1.95329 1.0350499 1.948452
1.9524001 1.02676 1.949466
1.9547501 1.01459 1.949935
1.9519 1.0028399 1.9479871
1.95603 1.02465 1.943702
1.9569401 1.0128 1.942901
1.9561599 1.02378 1.9361459
1.95841 1.01307 1.93716
1.94261 1.0595601 1.983421
1.9595599 1.05664 1.9814029
1.9527299 1.0494599 1.9816569
1.94371 1.0288501 1.980029
1.9664 1.05468 1.9767349
1.9590499 1.04914 1.9768829
1.9497 1.04004 1.97549
1.94506 1.02891 1.973653
1.94242 1.01765 1.9738569
1.94945 1.05792 1.966821
1.9566799 1.04763 1.9695929
1.9500999 1.03716 1.968443
1.9463099 1.0260299 1.9680109
1.95182 1.01472 1.9697239
1.9439101 1.00643 1.9686379
1.95566 1.03714 1.9628501
1.94559 1.02821 1.9617039
1.9521699 1.01412 1.963382
1.94802 1.0391999 1.953759
1.95281 1.02556 1.9561539
1.94795 1.01372 1.955049
1.95376 1.0251499 1.9412949
1.95544 1.0149601 1.93556
1.95815 1.01402 1.9293829
1.9341099 1.01272 1.985112
1.94348 1.053 1.9775651
1.9381599 1.01129 1.9788198
1.9449401 1.0219001 1.973587
1.9410601 1.01036 1.97241
1.93919 1.04494 1.965418
1.94961 1.03176 1.9674621
1.9435 1.02213 1.9663489
1.9512801 1.00739 1.9677409
1.9477401 1.04117 1.9594569
1.9478301 1.03167 1.9607159
1.95239 1.01912 1.961429
1.94699 1.00818 1.9598569
1.94479 0.99800104 1.9617959
1.9512199 1.0312001 1.9545829
1.95152 1.0191001 1.9536538
1.9464799 1.0074199 1.953222
1.95209 1.03162 1.9468908
1.94505 0.99763101 1.9481009
1.93819 0.98721004 1.9470389
1.96297 1.01498 1.9281821
1.96012 1.00521 1.9214929
1.9806 1.06468 2.004581
1.9924999 1.06724 2.001622
1.99194 1.05924 2.002023
1.9897599 1.06779 1.9953821
1.9921499 1.05875 1.9972999
1.97513 1.05582 1.992962
1.9816099 1.07043 1.9877759
1.98665 1.06015 1.9899909
1.97597 1.05325 1.987174
1.9507401 1.05007 1.9827399
1.9752499 1.06196 1.9815249
1.96737 1.05406 1.979704
1.95524 1.0479 1.9767929
1.9389501 1.0412201 1.975109
1.93768 1.01272 1.9759729
1.9337399 1.00209 1.9764389
1.95893 1.0556301 1.9717599
1.95119 1.04635 1.9695411
1.94187 1.03694 1.9686279
1.9445 1.02426 1.9635839
1.9439501 1.01185 1.962126
1.95155 1.00928 1.9570349
1.94936 1.00773 1.9499429
1.9824201 1.0637001 2.0025101
1.98306 1.06286 1.9982871
1.97772 1.05629 1.9969339
1.9839 1.06137 1.9930179
1.9709599 1.05826 1.9893479
1.9619701 1.05205 1.988256
1.9803901 1.0618 1.985625
1.96772 1.05959 1.9827679
1.96369 1.05047 1.9825158
1.93722 1.0472599 1.978897
1.96901 1.0574299 1.976918
1.9564 1.05037 1.974146
1.9414999 1.0421801 1.9721179
1.9638699 1.05801 1.969496
1.9528301 1.05068 1.9666141
1.95061 1.03976 1.9670858
1.9436799 1.0401599 1.9581228
1.91913 1.0675701 2.0388229
1.93198 1.074 2.0270929
1.9236799 1.06664 2.030808
1.9087801 1.07804 2.0344448
1.91905 1.06748 2.0265689
1.93145 1.06376 2.0102429
1.9170899 1.05687 2.0186789
1.9260899 1.0641 2.0045669
1.92584 1.0554399 2.005275
1.9170899 1.0657001 2.0011201
1.9275301 1.05616 1.99659
1.92756 1.05489 1.987799
1.93629 1.04205 1.981787
1.92045 1.0637699 1.984794
1.94248 1.0427201 1.971792
1.94769 1.0469999 1.9450181
1.95559 1.0778 2.0299671
1.95356 1.09505 2.0288119
1.95784 1.08508 2.0245559
1.96017 1.07556 2.0218339
1.89417 1.07189 2.0577319
1.96013 1.09289 2.0197699
1.94639 1.0868599 2.0248759
1.96295 1.07345 2.013947
1.93823 1.07161 2.0261011
1.95724 1.0727201 2.009593
1.94049 1.06775 2.016634
1.94485 1.06355 2.0053751
1.91536 1.05856 2.0198181
1.94505 1.06144 1.9965531
1.92782 1.05652 2.0039458
1.9328101 1.06305 1.9950589
1.9363201 1.05391 1.99138
1.9286901 1.0447201 1.9934119
1.9320599 1.05336 1.984962
1.9393899 1.0408 1.979225
1.9265 1.0628099 1.9804081
1.95237 1.0452 1.9341489
1.89428 1.07766 2.0359139
1.89712 1.0863301 2.029156
1.91468 1.07146 2.0168781
1.9427699 1.0616001 1.993454
1.9289399 1.05686 2.0000339
1.9416499 1.0604399 1.9868021
1.9359699 1.05451 1.9888721
1.93555 1.04265 1.98631
1.94151 1.0498999 1.9780949
1.9387699 1.03934 1.9756119
1.9296299 1.09846 2.0242388
1.9430499 1.0837101 2.0148802
1.94108 1.08347 2.010088
1.92336 1.08193 2.016408
1.91898 1.08039 2.010968
1.9099001 1.0735199 2.0130379
1.92053 1.07559 2.001338
1.9210299 1.06582 1.9995209
1.93659 1.04581 1.9867951
1.9209501 1.06302 1.99086
1.94078 1.0436901 1.977188
1.91328 1.09008 2.02387
1.91933 1.09598 2.017333
1.92731 1.08233 2.010958
1.90642 1.08283 2.0188651
1.9196299 1.08456 2.0086701
1.9129699 1.0780799 2.0094531
1.91608 1.07192 1.999302
1.93321 1.0472599 1.977066
