# .PCD v0.7 - Point Cloud Data file format
VERSION 0.7
FIELDS x y z
SIZE 4 4 4
TYPE F F F
COUNT 1 1 1
WIDTH 400
HEIGHT 1
VIEWPOINT 0 0 0 1 0 0 0
POINTS 400
DATA ascii
1.74298 0.93320394 2.47751
1.77136 0.88275498 2.4883599
1.75123 0.89802003 2.48524
1.74169 0.91249901 2.4860198
1.77527 0.86756897 2.48172
1.76375 0.88191497 2.4802201
1.7566099 0.89624196 2.47824
1.74062 0.91349298 2.47738
1.76925 0.86819196 2.4740298
1.7616299 0.881989 2.47245
1.75632 0.894907 2.47139
1.7566299 0.908149 2.47276
1.72874 0.92820096 2.46858
1.76353 0.86929202 2.46595
1.77119 0.88040805 2.46737
1.77991 0.89283299 2.4700401
1.7539001 0.89002901 2.4880099
1.74131 0.90355903 2.4871798
1.73788 0.91462404 2.4854901
1.7653799 0.87045997 2.4804099
1.7614501 0.88307798 2.4807301
1.7469001 0.90034401 2.4808397
1.7313901 0.91691804 2.47788
1.7627499 0.869519 2.4735098
1.75809 0.88146299 2.4730201
1.76517 0.89328694 2.4760401
1.7444501 0.92733705 2.47458
1.7625 0.86946601 2.46648
1.76097 0.88091695 2.4670498
1.7596699 0.867154 2.45859
1.76606 0.87635696 2.45911
1.72978 0.89262301 2.4896898
1.7321601 0.91285598 2.48948
1.74921 0.88558996 2.48559
1.7327299 0.901905 2.4842801
1.7306 0.91547501 2.4826002
1.7493401 0.88362604 2.4771299
1.74552 0.89663202 2.4784
1.7413299 0.91063499 2.4783301
1.7558399 0.86832398 2.4707098
1.75341 0.88074994 2.4704099
1.75517 0.89234805 2.4716501
1.7407299 0.90917897 2.4709699
1.75817 0.87571096 2.4641502
1.75621 0.88956803 2.4641998
1.7646699 0.899396 2.4665499
1.7627699 0.87497002 2.4583499
1.76502 0.88807899 2.4598999
1.7155 0.91535401 2.47806
1.7188901 0.90325302 2.4743099
1.74084 0.90293604 2.4756501
1.7296699 0.92080396 2.47399
1.7676101 0.86335701 2.4709201
1.7550999 0.88095099 2.4696
1.7444299 0.89798105 2.46909
1.7505299 0.90695196 2.4705398
1.7593601 0.864905 2.4631901
1.76299 0.87496299 2.4640899
1.7586999 0.88868201 2.46436
1.7626899 0.87149501 2.45594
1.74655 0.93102598 2.4899797
1.75799 0.90878898 2.4881899
1.7456399 0.93197304 2.48195
1.7471299 0.91532302 2.4819
1.75932 0.90876698 2.4809699
1.74063 0.92833298 2.4737101
1.74809 0.91510499 2.4734499
1.75317 0.90582603 2.4746499
1.7295899 0.92283797 2.4681399
1.7344501 0.91051 2.4688299
1.74711 0.90394998 2.46873
1.7508501 0.93886495 2.48967
1.74378 0.93577403 2.48211
1.7647301 0.93270105 2.4814398
1.7596401 0.93085098 2.4746101
1.7401199 0.92317301 2.46948
1.75571 0.92139298 2.4899399
1.75379 0.90693605 2.4898701
1.76218 0.89559901 2.48915
1.7595 0.88284796 2.48878
1.74831 0.91765702 2.4839499
1.75498 0.90625298 2.48105
1.7598701 0.894261 2.4825799
1.76171 0.88003802 2.4808099
1.76477 0.868779 2.4809201
1.75293 0.916053 2.47526
1.74991 0.90396303 2.47365
1.75518 0.89144897 2.4744298
1.7656 0.87945002 2.4730599
1.7709301 0.86758697 2.4734201
1.7429299 0.91189599 2.4695401
1.73949 0.89994401 2.4686399
1.74787 0.89015901 2.4676001
1.7587399 0.87870795 2.46682
1.7709199 0.86920702 2.4665399
1.7259899 0.88385397 2.46419
1.74999 0.87594706 2.4610801
1.74546 0.936248 2.48684
1.7508099 0.92212898 2.4860799
1.7603101 0.90876901 2.4845099
1.7711799 0.89856601 2.4841998
1.7714 0.88702303 2.48435
1.7655499 0.87262899 2.48423
1.75141 0.93479204 2.4787698
1.75695 0.922315 2.4771399
1.76002 0.90803498 2.4770999
1.76714 0.897241 2.47825
1.76429 0.88318706 2.4778199
1.7681 0.87040102 2.4763198
1.7694 0.85877502 2.4766998
1.74568 0.93655097 2.4712698
1.7435499 0.92310899 2.4713399
1.7546 0.90830004 2.4712
1.76193 0.89456594 2.47103
1.7655901 0.88154501 2.47048
1.77069 0.87077004 2.4690101
1.74756 0.891231 2.46574
1.76683 0.88160402 2.4633498
1.74428 0.87774599 2.4598
1.77556 0.868397 2.48772
1.7475799 0.87317598 2.4853199
1.7409301 0.88687104 2.4856501
1.7307401 0.89890599 2.4866199
1.7261 0.91367102 2.4885199
1.7625 0.86261201 2.4793501
1.7484599 0.87382698 2.47823
1.73443 0.88316 2.4775801
1.7351199 0.899773 2.4788799
1.72033 0.91087198 2.4800198
1.6970301 0.91700202 2.47574
1.7465401 0.85530698 2.46876
1.74369 0.86917001 2.4686201
1.7437301 0.88629204 2.4710901
1.7453599 0.90461999 2.4726498
1.71849 0.91092002 2.47082
1.6968601 0.919442 2.4674201
1.74905 0.85639501 2.4607401
1.7477299 0.871696 2.46173
1.7580099 0.89208502 2.4654098
1.74131 0.91790801 2.4682
1.7024499 0.92142797 2.46105
1.75466 0.87303597 2.4552
1.70544 0.92617697 2.4526801
1.71047 0.93084997 2.4435599
1.71947 0.935525 2.4352398
1.70161 0.93853897 2.4346702
1.72653 0.939399 2.42858
1.7064 0.94056803 2.4266999
1.6936001 0.95107597 2.4091299
1.69995 0.91413301 2.4888401
1.7558399 0.85690904 2.4811802
1.7461301 0.87163699 2.4830499
1.74054 0.88540494 2.4837201
1.7282801 0.89517194 2.4821799
1.7307601 0.90940499 2.4845898
1.7069501 0.91604894 2.4809
1.7607499 0.85708398 2.4752898
1.7553799 0.86973703 2.4760098
1.7438099 0.88240796 2.4753501
1.7323599 0.894144 2.47579
1.72998 0.910631 2.4758201
1.7094799 0.91929102 2.4727099
1.7593499 0.85866094 2.4686201
1.7532099 0.87057799 2.46772
1.75418 0.88555801 2.4683099
1.73834 0.89584196 2.4688401
1.75386 0.92153901 2.4724898
1.72392 0.92462897 2.4681399
1.76186 0.87410402 2.4612699
1.7575001 0.88670599 2.4626498
1.74315 0.92981905 2.4658599
1.6947701 0.93109494 2.4563401
1.7691901 0.877186 2.4565399
1.69613 0.93416297 2.44768
1.69547 0.935179 2.43893
1.70313 0.93837303 2.4307401
1.6925999 0.94567102 2.4315
1.6813999 0.954449 2.43049
1.70898 0.940561 2.4230301
1.69585 0.94531798 2.4238198
1.7161 0.94420403 2.41571
1.6966901 0.946859 2.41609
1.7205499 0.94626099 2.40781
1.7321299 0.95186096 2.39204
1.74457 0.95737505 2.3850698
1.74552 0.95870501 2.3777702
1.7105099 0.90612197 2.4881799
1.74849 0.85725099 2.4807401
1.74292 0.87066704 2.48154
1.7424899 0.88624603 2.4837501
1.73234 0.89574701 2.4818299
1.72437 0.90859199 2.4820898
1.7171899 0.92108899 2.4802999
1.75192 0.858495 2.4751401
1.7424699 0.86856198 2.4733999
1.73905 0.88350999 2.4744198
1.72928 0.89668298 2.47456
1.72041 0.909217 2.4730399
1.70901 0.92182702 2.47191
1.75245 0.85691804 2.4665999
1.7425599 0.87004697 2.4664099
1.7454801 0.88357002 2.46685
1.7322501 0.89531898 2.46737
1.73164 0.91189694 2.46842
1.72121 0.924779 2.4670498
1.7568899 0.87202102 2.46033
1.7572399 0.88608903 2.46191
1.75911 0.87145597 2.4531901
1.73106 0.949292 2.4021101
1.73683 0.95259905 2.3948998
1.7544701 0.869811 2.48896
1.7475799 0.88031799 2.4893398
1.73752 0.89036298 2.4883699
1.72824 0.90363097 2.4877398
1.71102 0.91532797 2.48577
1.75455 0.855811 2.4805398
1.75207 0.86751699 2.4814599
1.7469299 0.881024 2.4824302
1.7341 0.89192301 2.48125
1.7322999 0.90506601 2.47984
1.7141401 0.91470903 2.4786999
1.75972 0.85546899 2.47452
1.7585499 0.86661398 2.4742498
1.74648 0.87757796 2.47452
1.7429299 0.89254403 2.4739802
1.7368 0.90703303 2.4727201
1.7225 0.91700202 2.4719801
1.76248 0.867046 2.46767
1.75125 0.87814003 2.4670999
1.74448 0.89101702 2.4660699
1.74049 0.90493894 2.4669502
1.73004 0.91848296 2.4659798
1.75792 0.86513197 2.45994
1.75674 0.88041705 2.46119
1.76845 0.89810699 2.46435
1.75165 0.92036402 2.4642701
1.7477601 0.88840699 2.4888299
1.74023 0.91010302 2.48825
1.72786 0.92282504 2.48753
1.7658299 0.86178899 2.4793701
1.7554801 0.87279296 2.4794199
1.75072 0.885221 2.48142
1.74459 0.89766502 2.4808798
1.73052 0.91005898 2.47861
1.72911 0.92183197 2.4801099
1.76132 0.85708803 2.4723899
1.7644401 0.87120402 2.4740798
1.75068 0.88365602 2.47434
1.7501301 0.89760697 2.47348
1.74591 0.91161299 2.4740698
1.7244501 0.92289197 2.4717898
1.76814 0.87127095 2.4677899
1.7586099 0.88333297 2.4681201
1.75946 0.898799 2.4691901
1.74821 0.91001701 2.4683797
1.74222 0.92360604 2.4684298
1.6969701 0.93672097 2.4437799
1.73715 0.92603499 2.4870801
1.74239 0.91439199 2.4866102
1.7482201 0.90324503 2.48595
1.7359101 0.92628402 2.4797599
1.7428501 0.91256404 2.4796898
1.74843 0.90305001 2.4793799
1.7263299 0.91665 2.4748199
1.73177 0.90473294 2.4757001
1.757 0.94513702 2.47983
1.74377 0.92969495 2.4886301
1.7488999 0.91246396 2.48719
1.75025 0.89781898 2.4873002
1.7685499 0.880171 2.4832001
1.7625901 0.87168902 2.4834201
1.7439799 0.92720598 2.4807501
1.75475 0.91053802 2.4786701
1.75433 0.89685702 2.47931
1.7705499 0.87965798 2.4768
1.7720599 0.86887604 2.47628
1.7375901 0.93249494 2.47402
1.7354699 0.91964501 2.4746201
1.74859 0.90159899 2.4725502
1.76434 0.88188004 2.4709299
1.72875 0.92446601 2.4685502
1.77105 0.88940901 2.46416
1.7592399 0.88251799 2.4652898
1.74851 0.93176496 2.45908
1.74823 0.90586996 2.4867301
1.75739 0.889624 2.4838102
1.77446 0.87169099 2.48125
1.7487301 0.90567899 2.4791999
1.7628 0.88590598 2.4774499
1.7311301 0.91552496 2.4735699
1.75432 0.89349997 2.47205
1.7489799 0.89738703 2.4669199
1.7524201 0.883021 2.4832501
1.74265 0.897376 2.4839699
1.73447 0.90907699 2.4835598
1.7284501 0.92361903 2.48423
1.76114 0.86985397 2.47387
1.75946 0.88532501 2.4784298
1.7451199 0.89400101 2.47294
1.739 0.90959001 2.47469
1.73663 0.92733705 2.4758899
1.7645 0.86962199 2.46281
1.7557499 0.88373595 2.46453
1.74814 0.89787203 2.46544
1.74812 0.91492403 2.4698598
1.74305 0.93310094 2.4702702
1.76735 0.88487703 2.4584
1.7591701 0.89871597 2.4607501
1.77854 0.89028001 2.4569101
1.74209 0.902152 2.48928
1.7245599 0.914904 2.4844198
1.7714599 0.87012899 2.4879599
1.75409 0.87730199 2.4799399
1.7483701 0.89075696 2.4816298
1.7368 0.90297896 2.4761701
1.73132 0.91660601 2.4775901
1.7609 0.86283797 2.4690697
1.7530999 0.87408698 2.4672899
1.7475901 0.889332 2.4690599
1.75046 0.907408 2.4729998
1.7341701 0.91837001 2.4681299
1.75476 0.879188 2.4600501
1.75397 0.89444602 2.4625399
1.75906 0.91027296 2.4677
1.75108 0.92205399 2.4680798
1.73895 0.93501699 2.46365
1.7651 0.89949799 2.4608798
1.76574 0.912242 2.4635401
1.75621 0.922912 2.4619699
1.7733001 0.90360904 2.45822
1.7265199 0.91631204 2.48719
1.7637801 0.88031405 2.4888599
1.75068 0.89317399 2.4855201
1.7422 0.90631503 2.48331
1.72627 0.917988 2.47416
1.76229 0.865367 2.4739099
1.75605 0.87969595 2.4751999
1.75028 0.89365304 2.4730999
1.74263 0.90851402 2.4714098
1.73595 0.92167503 2.4688799
1.75797 0.87849504 2.4637299
1.76078 0.89515001 2.46717
1.74746 0.905954 2.46298
1.7464 0.92192703 2.4644899
1.77009 0.88368499 2.4607999
1.76608 0.89521897 2.4589498
1.7672701 0.91167295 2.4656501
1.7576801 0.92833197 2.4626098
1.74849 0.93818098 2.45908
1.78089 0.89913499 2.4595199
1.7471499 0.94263601 2.44802
1.7991999 0.903907 2.4630799
1.7387601 0.90418297 2.48631
1.7290801 0.91629797 2.48139
1.7628399 0.87755799 2.4831698
1.74999 0.89212197 2.4798701
1.7403901 0.90499496 2.4762101
1.7308 0.91571295 2.4709601
1.77062 0.86458397 2.4769299
1.75691 0.87394303 2.46841
1.75734 0.88872397 2.4724398
1.7499601 0.90272003 2.47052
1.74175 0.91755998 2.4672101
1.734 0.93044299 2.46418
1.76133 0.877487 2.4609601
1.75809 0.89176804 2.4630599
1.7544099 0.90470296 2.46171
1.75231 0.91838402 2.4626999
1.7374001 0.93282503 2.4566801
1.7648399 0.87750196 2.45225
1.76674 0.89241499 2.4572401
1.76767 0.90627897 2.4598401
1.78697 0.897928 2.4625502
1.78397 0.90906799 2.4623001
1.74455 0.90042901 2.4862602
1.73692 0.91378504 2.4849501
1.71912 0.92364901 2.4739301
1.7653199 0.86276102 2.4863598
1.76557 0.87326503 2.4874799
1.74567 0.88578695 2.4749
1.7377601 0.90051806 2.47313
1.73246 0.91404098 2.4714801
1.72083 0.92643797 2.4649701
1.7676101 0.86259598 2.47945
1.7530099 0.87161905 2.4688599
1.7495199 0.88524902 2.4665101
1.7465401 0.89830297 2.4688101
1.74159 0.91128403 2.46631
1.73954 0.92626196 2.4660997
1.75714 0.87169099 2.45983
1.75726 0.88622397 2.45999
1.7512 0.89978302 2.4607999
1.75454 0.91625398 2.4630599
1.7363 0.92891401 2.45189
1.7675301 0.88615799 2.4560001
1.7602201 0.901559 2.4548402
1.76319 0.91838998 2.45824
1.74734 0.92808604 2.4491401
1.77116 0.91882002 2.45625
1.74857 0.92934 2.4412
