# .PCD v0.7 - Point Cloud Data file format
VERSION 0.7
FIELDS x y z
SIZE 4 4 4
TYPE F F F
COUNT 1 1 1
WIDTH 76
HEIGHT 1
VIEWPOINT 0 0 0 1 0 0 0
POINTS 76
DATA ascii
1.67602 0.90761703 2.6176701
1.6790299 0.90949303 2.6087899
1.66308 0.92211503 2.60449
1.66177 0.92922997 2.6062799
1.66679 0.91898596 2.6009901
1.6685201 0.92218596 2.6022799
1.64817 0.88962603 2.6126001
1.6447999 0.884969 2.60337
1.65407 0.904387 2.6066101
1.66065 0.89837998 2.5992701
1.6623801 0.91201299 2.59863
1.66733 0.90212196 2.5910401
1.66185 0.91343397 2.59005
1.66864 0.90190595 2.5822501
1.65748 0.911277 2.5818701
1.67321 0.88876897 2.57359
1.6768299 0.87853998 2.5661399
1.6651801 0.897609 2.61742
1.6618401 0.88571602 2.6065202
1.6635201 0.89743203 2.60776
1.6690601 0.88955903 2.5996599
1.66818 0.89976096 2.6003001
1.66565 0.91088796 2.6000299
1.6685899 0.88837796 2.5910001
1.6683 0.90034205 2.5917099
1.67978 0.892443 2.5850101
1.6727901 0.90118301 2.5831602
1.6716701 0.88856101 2.57547
1.6679801 0.89785695 2.57426
1.67382 0.89000899 2.5687399
1.6688 0.90415198 2.6191199
1.65457 0.88404799 2.60853
1.6724 0.90442902 2.6118
1.6769201 0.89416701 2.6043601
1.67299 0.90758401 2.6039999
1.67319 0.88085002 2.5938799
1.68112 0.89555496 2.59655
1.66998 0.90626198 2.5948899
1.67207 0.87 2.5866599
1.68366 0.89463699 2.5894299
1.6736599 0.90433002 2.5882199
1.6624299 0.91557997 2.57827
1.66745 0.88899904 2.6133301
1.6792799 0.90626407 2.6172101
1.66222 0.87636298 2.6045899
1.67451 0.88903999 2.60655
1.67312 0.90261805 2.6072199
1.6854601 0.88190299 2.60111
1.67933 0.892452 2.60039
1.6697301 0.90313798 2.5983999
1.68823 0.87291801 2.5950401
1.6992301 0.88530505 2.5969
1.6834199 0.89225996 2.59374
1.6704899 0.90126199 2.59203
1.66707 0.91438401 2.59076
1.67311 0.90270305 2.5851898
1.67682 0.89843696 2.6201699
1.6826601 0.89043897 2.6145301
1.67924 0.89986199 2.61342
1.68725 0.892003 2.6068201
1.67462 0.900805 2.6044199
1.6735801 0.91220099 2.60484
1.6913099 0.89209294 2.5988901
1.68241 0.90037501 2.59833
1.67133 0.91120303 2.59727
1.71952 0.89843005 2.61622
1.69519 0.89362502 2.6134
1.68616 0.90265703 2.6075399
1.6758901 0.912844 2.60113
1.69415 0.90217596 2.61759
1.6830499 0.91255999 2.6091199
1.6889501 0.903956 2.61182
1.7008901 0.89467794 2.6069698
1.6799001 0.90766698 2.61145
1.69144 0.90629995 2.61729
1.7063099 0.89874804 2.6177797
