# .PCD v0.7 - Point Cloud Data file format
VERSION 0.7
FIELDS x y z
SIZE 4 4 4
TYPE F F F
COUNT 1 1 1
WIDTH 163
HEIGHT 1
VIEWPOINT 0 0 0 1 0 0 0
POINTS 163
DATA ascii
1.7747 0.93628198 0.78555495
1.7563699 0.92789 0.78336501
1.80222 0.946859 0.784886
1.79351 0.93819702 0.78413695
1.77011 0.92987299 0.78005296
1.8130701 0.946706 0.78174394
1.80121 0.93974197 0.78017098
1.7883999 0.932078 0.77749896
1.8225701 0.94679499 0.77721697
1.8075501 0.93988502 0.77566695
1.78819 0.93244302 0.77148598
1.8338799 0.94728106 0.77258897
1.82824 0.94011706 0.773278
1.84175 0.94792098 0.76678395
1.8351101 0.94090897 0.76742494
1.87007 0.95406997 0.76824898
1.84789 0.94853801 0.76135397
1.84215 0.94120103 0.76182097
1.85367 0.95624602 0.75676501
1.8565899 0.94824302 0.75643402
1.84343 0.94139802 0.75472993
1.87451 0.956644 0.75443399
1.8658099 0.94776607 0.75233996
1.8492301 0.94107699 0.74906099
1.88422 0.95854205 0.74974
1.87254 0.949094 0.74820101
1.85464 0.94197899 0.74378896
1.8803301 0.95031095 0.74409896
1.75683 0.92823702 0.78315496
1.7710099 0.937509 0.778925
1.76482 0.92811698 0.77892196
1.79198 0.95867896 0.77539003
1.79672 0.947541 0.77770996
1.7871801 0.93742102 0.77669299
1.7756 0.92849195 0.77520293
1.7569799 0.92224294 0.77056992
1.81602 0.95518094 0.77586901
1.8077999 0.94715601 0.77426499
1.79752 0.93823403 0.77320099
1.77871 0.92881697 0.76937097
1.7553 0.92166495 0.76341403
1.81909 0.95572901 0.77004397
1.8189999 0.94704199 0.76993299
1.8092599 0.93776399 0.76978391
1.75137 0.93000394 0.75678098
1.8341 0.953376 0.766819
1.8376601 0.94461197 0.766886
1.8169501 0.93928701 0.76350999
1.84981 0.95267504 0.76259202
1.84253 0.94441396 0.76154894
1.83541 0.93766296 0.76096803
1.8633901 0.95374399 0.75876695
1.8542 0.94482595 0.75789595
1.8814701 0.961685 0.75658995
1.8666999 0.95286101 0.75311798
1.8452499 0.94766802 0.74753493
1.8810899 0.96079695 0.74961591
1.87067 0.95299101 0.747787
1.88122 0.95419997 0.74365997
1.76546 0.97093695 0.80790496
1.7675101 0.97819 0.80290896
1.7558299 0.97441202 0.79988497
1.7603101 0.98088098 0.79475099
1.76563 0.97150701 0.79472595
1.76683 0.97936094 0.787108
1.76714 0.969374 0.78647798
1.7708 0.98902202 0.77855498
1.7725101 0.97747099 0.78056002
1.76756 0.96799695 0.78000796
1.78441 0.95078695 0.78424597
1.78405 0.93700898 0.78409696
1.75885 0.93431199 0.77836198
1.76933 0.99135 0.77079695
1.77666 0.97912198 0.77365798
1.7794299 0.96466303 0.77576399
1.78985 0.94624001 0.77860296
1.78391 0.93630797 0.77874494
1.78013 0.98773497 0.76675993
1.78148 0.97660899 0.76716399
1.79616 0.95808601 0.77169603
1.80002 0.94488698 0.77331299
1.7835201 0.93900299 0.771393
1.78634 0.98470998 0.76058394
1.7895 0.97333801 0.76112497
1.80319 0.95630401 0.76566195
1.7908701 0.94898498 0.76419199
1.78714 0.98537499 0.75224996
1.80638 0.96787906 0.75771093
1.8205701 0.95157599 0.76257896
1.7958299 0.98523104 0.74500197
1.82941 0.95838797 0.75680494
1.8359399 0.94825798 0.75760698
1.82701 0.98525298 0.74410492
1.80735 0.98384202 0.73980194
1.8494099 0.95380402 0.75357389
1.84776 0.94606102 0.75265396
1.8292199 0.98459798 0.73772097
1.82972 0.97472602 0.73913795
1.8528199 0.95469397 0.74646699
1.8488699 0.94677401 0.74584794
1.83713 0.98178101 0.73363096
1.85297 0.96599698 0.73821503
1.8624099 0.95248103 0.74131095
1.86351 0.97127801 0.73483092
1.88237 0.95687503 0.738464
1.8757499 0.949507 0.73761499
1.76271 0.95349699 0.83539498
1.7598399 0.96418101 0.82621694
1.7482201 0.95966005 0.82430696
1.7550999 0.96664399 0.81659698
1.75011 0.959346 0.81660295
1.7543401 0.977162 0.80662698
1.7496001 0.96931702 0.80759794
1.74503 0.96167701 0.80761498
1.75946 0.97642797 0.79956192
1.75573 0.96820605 0.80119491
1.74366 0.96351701 0.79963094
1.7591701 0.97788203 0.79168493
1.76086 0.96710998 0.79315293
1.76762 0.97652298 0.78519303
1.7627499 0.96668601 0.78424799
1.7716 0.94807506 0.78692597
1.76245 0.93291098 0.78556597
1.7634701 0.99162298 0.77371401
1.7714101 0.97660202 0.77780592
1.79 0.95463997 0.7836569
1.79414 0.939013 0.78537995
1.7709801 0.93379998 0.78084099
1.77579 0.99910003 0.76749301
1.77385 0.98886102 0.76951295
1.77407 0.97730201 0.77039695
1.80608 0.94592798 0.78007203
1.7973 0.935745 0.77912897
1.7704201 0.93176496 0.77337098
1.75546 0.92396897 0.77013797
1.7852 0.99666804 0.76261497
1.78148 0.98759198 0.76314104
1.7992901 0.96523303 0.76859593
1.8117999 0.94381106 0.77330595
1.79553 0.93533701 0.77177995
1.77423 0.929896 0.76760894
1.7927001 0.99372596 0.75750297
1.8038901 0.97747499 0.760638
1.82595 0.95330203 0.76723599
1.81655 0.94372201 0.76705903
1.80545 0.93532205 0.76685697
1.7995399 0.99025595 0.75116998
1.8183501 0.97118402 0.75607103
1.8357401 0.95151103 0.76104492
1.82371 0.94323301 0.76187301
1.8222799 0.98044997 0.74933296
1.83876 0.96295702 0.75358796
1.84463 0.94946802 0.75552291
1.83658 0.94170403 0.75607795
1.83767 0.97474599 0.745538
1.8462501 0.96063501 0.747769
1.8501601 0.94789803 0.74962401
1.85629 0.97068 0.74213797
1.86342 0.95431197 0.74476701
1.86061 0.94490999 0.74430299
1.8702 0.96527296 0.73863393
1.8640801 0.954943 0.73793298
1.8548 0.94787598 0.73657799
