# .PCD v0.7 - Point Cloud Data file format
VERSION 0.7
FIELDS x y z
SIZE 4 4 4
TYPE F F F
COUNT 1 1 1
WIDTH 1511
HEIGHT 1
VIEWPOINT 0 0 0 1 0 0 0
POINTS 1511
DATA ascii
0.85934097 -0.43287 1.9038419
0.87690598 -0.43563598 1.898492
0.85154802 -0.431721 1.895512
0.85543501 -0.44166699 1.898942
0.959185 -0.50945801 1.8606219
0.95107001 -0.52484399 1.8699619
0.85932195 -0.423922 1.8799219
0.95081002 -0.50174701 1.8538018
0.95921898 -0.50825602 1.8537421
0.85435599 -0.41451401 1.869382
0.867778 -0.41705501 1.863212
0.935606 -0.49708402 1.8503419
0.953336 -0.49610099 1.841452
0.95349097 -0.50806201 1.846882
0.85459399 -0.40246201 1.854982
0.85139394 -0.41354501 1.859012
0.944157 -0.488518 1.8337119
0.95279294 -0.49407002 1.831592
0.84071404 -0.405054 1.851622
0.93200499 -0.48022801 1.824862
0.94760698 -0.48489299 1.821492
0.948937 -0.494084 1.8219819
0.91277999 -0.47585097 1.8225219
0.91878402 -0.48333901 1.821322
0.94379801 -0.48412299 1.8130319
0.93743896 -0.49814999 1.8191519
0.91165495 -0.47323 1.8122519
0.91683501 -0.48140898 1.8118119
0.92117399 -0.49311402 1.8155921
0.90245795 -0.46374699 1.8026119
0.90583903 -0.474971 1.8058319
0.90500998 -0.48712897 1.8091519
0.90005499 -0.459488 1.791422
0.90103799 -0.474352 1.796512
0.892582 -0.49146703 1.8051019
0.80144501 -0.40694198 1.815542
0.89506799 -0.48803902 1.7933121
0.80620104 -0.40500501 1.8012118
0.79010302 -0.40860999 1.798322
0.80976301 -0.41729698 1.7927021
1.05652 -0.52564001 1.710343
0.76519895 -0.37682301 1.7915421
0.79547697 -0.41021401 1.7865319
0.816504 -0.41793799 1.778414
1.01915 -0.53248197 1.715891
1.04731 -0.52633703 1.703987
1.05751 -0.53316599 1.7044129
0.77204901 -0.36962301 1.7764591
0.77496803 -0.38033298 1.777137
0.81243497 -0.417391 1.770905
1.0300701 -0.52502704 1.7020301
1.03883 -0.52933002 1.69935
0.76676005 -0.36983898 1.7697259
0.75798106 -0.386623 1.7777499
0.97672898 -0.52236599 1.7087579
0.98731005 -0.52767599 1.70573
1.02913 -0.52321702 1.691553
1.03207 -0.53176302 1.6913129
0.74701601 -0.375164 1.7701629
0.99118894 -0.51559699 1.693924
1.00609 -0.52054501 1.689913
1.01849 -0.52847201 1.687037
1.0257 -0.53506804 1.6855938
1.00121 -0.52096903 1.6831039
1.01055 -0.52956003 1.6810609
0.86490899 -0.436515 1.913262
0.89071798 -0.43374699 1.898562
0.863702 -0.427625 1.9040719
0.87022501 -0.43295601 1.901462
0.85791999 -0.42671201 1.8965619
0.86477697 -0.432551 1.8934219
0.85062599 -0.42688301 1.889382
0.84710604 -0.43893501 1.8938519
0.849868 -0.425666 1.878022
0.85696799 -0.42184299 1.8628321
0.856803 -0.43212602 1.8657819
0.85012496 -0.41267601 1.855672
0.90217799 -0.48448798 1.8276221
0.89195901 -0.479303 1.824342
0.91180098 -0.478847 1.8144019
0.89757895 -0.49527901 1.8253119
0.90788698 -0.46717203 1.8044519
0.90989798 -0.47834 1.806422
0.90095598 -0.470195 1.7978721
0.90860999 -0.478356 1.7966119
0.90319902 -0.479155 1.788882
0.809017 -0.412361 1.7991519
1.0424501 -0.51795202 1.71035
1.0517 -0.52480596 1.708428
0.80703199 -0.414193 1.789542
1.0422 -0.51808798 1.7034009
1.04898 -0.52601701 1.7018149
1.05906 -0.532731 1.6993148
0.759574 -0.37210301 1.790032
0.75953203 -0.386457 1.795392
0.80830598 -0.41622397 1.7786701
1.01027 -0.53290004 1.7093549
1.03848 -0.52866101 1.6976559
1.0503601 -0.53448796 1.6945709
0.75402606 -0.36997798 1.7829019
0.753824 -0.38438201 1.7883869
0.78741598 -0.42137 1.781371
0.82161903 -0.42390701 1.7648239
1.02586 -0.525424 1.693222
1.03748 -0.529706 1.6887839
1.0457 -0.53568602 1.685221
0.743029 -0.37170899 1.7804331
0.73080599 -0.38786203 1.7899519
0.793998 -0.431151 1.7730179
1.0225101 -0.52759999 1.685284
1.03588 -0.53138 1.6806839
1.03408 -0.54144901 1.6821949
0.99280196 -0.52747101 1.685361
0.93990499 -0.51725501 1.8732018
0.92988294 -0.51230997 1.870762
0.95292801 -0.51086897 1.856872
0.94929099 -0.503739 1.849162
0.95547205 -0.50857103 1.8460319
0.94390196 -0.49414799 1.8389521
0.95208299 -0.50079 1.8377719
0.95175695 -0.50870401 1.839182
0.94953299 -0.48732498 1.8234118
0.94442201 -0.50019503 1.831272
0.92914802 -0.48223901 1.823092
0.93633598 -0.490127 1.822202
0.92234004 -0.50583196 1.833582
0.91360801 -0.47712201 1.821142
0.92791998 -0.48145401 1.8147819
0.91903901 -0.494995 1.822542
0.91635597 -0.47443599 1.8094721
0.91716003 -0.48453799 1.8122519
0.91754699 -0.49322399 1.8134019
0.90141505 -0.47570202 1.805122
0.91400599 -0.48267701 1.803652
0.89444196 -0.46674901 1.797562
0.89455903 -0.476879 1.800112
0.90280801 -0.48337799 1.7973019
0.88785201 -0.48893002 1.7949219
0.79514802 -0.40833101 1.8194721
0.79956102 -0.41804698 1.7970819
0.72179604 -0.37673199 1.802492
0.76219594 -0.38504502 1.7883759
0.74409205 -0.37331101 1.7844158
0.76420599 -0.38154098 1.77859
0.74301499 -0.372394 1.775961
0.75312304 -0.38098598 1.7740201
0.732997 -0.38495201 1.7761679
0.74741501 -0.37941101 1.7984821
0.75053495 -0.38642898 1.798142
0.73910004 -0.37269002 1.775701
0.749116 -0.383881 1.7839099
0.74293101 -0.37445098 1.770925
0.75698 -0.388623 1.7845569
0.750682 -0.37895301 1.7738659
0.75057799 -0.37116501 1.77034
0.75692803 -0.36623901 1.775466
0.76196802 -0.38432702 1.781763
0.76525003 -0.37726298 1.782933
0.77145106 -0.37380001 1.788504
0.78113401 -0.42910802 1.813362
0.79501504 -0.41150397 1.8188519
0.84218901 -0.40979302 1.871882
0.78399694 -0.42210901 1.803492
0.84225702 -0.40932098 1.8629819
0.78925598 -0.43458599 1.801662
0.84960604 -0.412072 1.862792
0.85444504 -0.41420501 1.8580921
0.86059099 -0.43943501 1.863902
0.85934401 -0.43151501 1.860682
0.85851502 -0.42264301 1.8571119
0.86616498 -0.41981602 1.861792
0.87563795 -0.44632703 1.8732419
0.86879897 -0.436542 1.863302
0.87222099 -0.42980599 1.8641119
0.88054001 -0.42628202 1.869032
0.77154899 -0.517398 1.783558
0.777417 -0.51223201 1.786973
0.800475 -0.51017702 1.809172
0.88555002 -0.450883 1.875162
0.88246697 -0.44237301 1.8707819
0.88705802 -0.435938 1.871462
0.89374703 -0.43187699 1.875242
0.773799 -0.53696501 1.788619
0.77141899 -0.51828599 1.7753589
0.77983201 -0.51450998 1.78105
0.78835899 -0.50959098 1.786328
0.80196196 -0.51043898 1.802712
0.90454203 -0.46033001 1.890282
0.898534 -0.449384 1.879202
0.90101504 -0.441661 1.879182
0.90530896 -0.437089 1.8796219
0.78510499 -0.534145 1.7872769
0.78190005 -0.52390099 1.779675
0.78820097 -0.51760298 1.780761
0.79422796 -0.51135898 1.781698
0.80204695 -0.50824404 1.789772
0.908678 -0.46130502 1.8835919
0.91043097 -0.45439702 1.8825619
0.90886301 -0.44558898 1.878992
0.91816705 -0.44317502 1.8854221
0.80323195 -0.54409701 1.8003821
0.79110497 -0.52770501 1.7796619
0.79577696 -0.52014899 1.7795639
0.796709 -0.51207602 1.7758249
0.804672 -0.508237 1.781194
0.82334399 -0.51039004 1.801682
0.84597802 -0.50017202 1.8170419
0.92519897 -0.469843 1.893062
0.92450994 -0.46172798 1.8903821
0.92111701 -0.45137298 1.8838019
0.93214202 -0.44914001 1.8918021
0.79818201 -0.53991401 1.7847159
0.80918097 -0.53929299 1.7950419
0.80198306 -0.52472401 1.7786969
0.80462301 -0.51663399 1.7776179
0.81191099 -0.51144797 1.779559
0.82137603 -0.507631 1.7881119
0.83667898 -0.50648499 1.803622
0.84789002 -0.50241101 1.8134919
0.937527 -0.47590697 1.899912
0.93853498 -0.46866101 1.8971319
0.93348998 -0.45692798 1.8880719
0.94238502 -0.45228001 1.891892
0.81410402 -0.531102 1.784918
0.81402606 -0.52117801 1.7787759
0.81785798 -0.51447999 1.778107
0.82081598 -0.507541 1.777553
0.82935798 -0.50186199 1.7832669
0.84246999 -0.49932098 1.798172
0.94219297 -0.477153 1.8969321
0.95065695 -0.472785 1.901582
0.94895303 -0.46278301 1.895292
0.95456594 -0.456662 1.8976419
0.82498395 -0.52646804 1.781754
0.82247001 -0.51591098 1.774334
0.82814699 -0.50934899 1.776664
0.83168602 -0.50177896 1.774321
0.83140802 -0.52803999 1.777915
0.83321196 -0.52178001 1.7770929
0.82894403 -0.50954604 1.767496
0.83359998 -0.50240004 1.765892
0.84609705 -0.52786601 1.7823498
0.83621806 -0.51284599 1.7653431
0.83623397 -0.50330198 1.759856
0.86030406 -0.53497702 1.7899921
0.847045 -0.51922798 1.768651
0.84313905 -0.50664902 1.759191
0.85397398 -0.52240896 1.768423
0.85447901 -0.51431 1.7639951
0.85340899 -0.519283 1.7579291
0.85529298 -0.51081502 1.7535679
0.85460198 -0.48817003 1.689072
0.918809 -0.482063 1.755634
0.85918701 -0.49774501 1.6803808
0.73885298 -0.37058997 1.7884839
0.75311303 -0.382285 1.7909619
0.75939298 -0.387725 1.7916721
0.75388098 -0.37406299 1.781328
0.75760102 -0.36675498 1.7823498
0.79615599 -0.406268 1.8273219
0.78370398 -0.42510399 1.807992
0.78849101 -0.417584 1.808742
0.85363799 -0.42054299 1.8635119
0.86301804 -0.42559201 1.8659619
0.870417 -0.42279097 1.8707319
0.86177999 -0.442184 1.864562
0.86384696 -0.43441001 1.863782
0.87042898 -0.429371 1.865502
0.88179898 -0.428339 1.874332
0.88040805 -0.45204601 1.8778219
0.87660897 -0.441778 1.869682
0.88641196 -0.43817902 1.8753821
0.90046996 -0.43799302 1.8868821
0.89251196 -0.44976398 1.8779019
0.89668196 -0.44292998 1.877762
0.90624803 -0.44032502 1.883212
0.92270797 -0.44347301 1.9022919
0.76920897 -0.52073699 1.786781
0.77591002 -0.51574498 1.7897519
0.78106302 -0.51045001 1.7898819
0.90345705 -0.45548698 1.878352
0.90766096 -0.45014599 1.882182
0.914653 -0.445694 1.8842419
0.92831594 -0.44616902 1.8981919
0.77342498 -0.54600602 1.7984821
0.773175 -0.52346402 1.782406
0.78041297 -0.51887697 1.7863889
0.78647304 -0.51171899 1.7848959
0.80108702 -0.51375997 1.7996219
0.92339206 -0.46822497 1.892802
0.91662198 -0.455461 1.8821619
0.92716795 -0.45250401 1.8896719
0.93488097 -0.448432 1.893452
0.78278297 -0.54112399 1.7926019
0.78307402 -0.530402 1.7861991
0.786937 -0.52159101 1.7836959
0.79548597 -0.51800096 1.7868021
0.79965103 -0.51054299 1.786718
0.813088 -0.51100999 1.7985018
0.92840302 -0.470705 1.8888019
0.93618399 -0.467053 1.895062
0.94228601 -0.46032399 1.8979319
0.95012498 -0.45593202 1.899942
0.79870903 -0.55323702 1.8057621
0.79420197 -0.53907603 1.791832
0.79198194 -0.52500898 1.78019
0.79443097 -0.51657903 1.776
0.80370599 -0.51389498 1.7826951
0.81130403 -0.50788802 1.785179
0.82845396 -0.51056999 1.8021921
0.95195198 -0.46620098 1.8997619
0.806894 -0.536107 1.7909619
0.80703497 -0.52491599 1.7832581
0.81186503 -0.51641601 1.781476
0.81837898 -0.51125801 1.7841018
0.82252699 -0.50385898 1.783093
0.82877505 -0.49651402 1.7859089
0.81695199 -0.53142899 1.7860839
0.81576204 -0.51962 1.7766479
0.82299006 -0.513394 1.7796259
0.82646698 -0.50420898 1.776643
0.83247495 -0.49845299 1.7808549
0.83066905 -0.52995801 1.78508
0.82908899 -0.51839197 1.777087
0.832174 -0.508762 1.7746159
0.832892 -0.49794102 1.7705759
0.847363 -0.54080302 1.7952719
0.84049499 -0.526447 1.7812229
0.83857 -0.51344001 1.77228
0.83753502 -0.49995998 1.765031
0.85612506 -0.54693699 1.7988019
0.85301697 -0.53505301 1.7883561
0.84840602 -0.52040696 1.774791
0.84391898 -0.504897 1.7622448
0.854424 -0.52290899 1.7725619
0.85345101 -0.511437 1.7641629
0.85860902 -0.51341999 1.7610949
0.85408896 -0.492066 1.6947399
0.85642195 -0.49296102 1.6872048
0.85619903 -0.48373798 1.6805029
0.85970396 -0.49476799 1.68074
0.781892 -0.428166 1.812072
0.84873497 -0.41457298 1.8621719
0.85357594 -0.41683102 1.857352
0.85747302 -0.42743802 1.858952
0.86365598 -0.42326599 1.8588018
0.87311 -0.42976299 1.861452
0.88497496 -0.429681 1.8704818
0.875521 -0.43957198 1.8622119
0.88860601 -0.43932301 1.8709118
0.90070099 -0.43787497 1.8784219
0.917485 -0.44141603 1.8951621
0.89146399 -0.44827899 1.8698621
0.89943999 -0.44499502 1.8734119
0.90924895 -0.44273299 1.878382
0.91217798 -0.43640098 1.8787421
0.91258103 -0.45377102 1.8793319
0.91952002 -0.45006302 1.8822219
0.924824 -0.44453499 1.883142
0.94491994 -0.44892299 1.8994519
0.7683 -0.51398599 1.7820889
0.78161597 -0.51489604 1.792142
0.79186898 -0.51282001 1.7982221
0.93389398 -0.46847901 1.8951019
0.92872703 -0.455731 1.8841619
0.93821299 -0.451655 1.8876719
0.94992697 -0.44980898 1.894032
0.76984298 -0.52816504 1.782691
0.77630597 -0.52044898 1.7828909
0.78324097 -0.51351798 1.7821939
0.79473501 -0.51278704 1.791122
0.80858999 -0.51402402 1.8021021
0.94187897 -0.462706 1.8882818
0.94831705 -0.45677298 1.889382
0.95602697 -0.45260602 1.891752
0.77713501 -0.53343302 1.782583
0.78115404 -0.52508801 1.7794449
0.78614599 -0.51783901 1.778906
0.79556704 -0.51333201 1.7817639
0.80568802 -0.50937802 1.78767
0.82138097 -0.51136398 1.8002719
0.83442998 -0.51217604 1.8103119
0.95014501 -0.467621 1.888832
0.95706701 -0.46201697 1.8905619
0.79040396 -0.53183198 1.7821021
0.79090798 -0.52064097 1.77482
0.80230498 -0.51815897 1.779137
0.80604899 -0.50999904 1.778988
0.81434 -0.50492102 1.7820109
0.82380998 -0.49913102 1.785504
0.80145299 -0.52792901 1.7778369
0.80892301 -0.52228904 1.776767
0.81360298 -0.51504499 1.778149
0.82277 -0.50939703 1.7809368
0.82440495 -0.496023 1.772856
0.80565906 -0.52832198 1.771767
0.81752402 -0.52796501 1.7781619
0.82101703 -0.51914197 1.7754589
0.82542503 -0.50839102 1.7712768
0.83026606 -0.500103 1.7694659
0.82918 -0.52526402 1.775954
0.83334899 -0.51696897 1.7729499
0.83537596 -0.50562102 1.767314
0.84126502 -0.52376598 1.7751069
0.84521699 -0.51490802 1.771412
0.85461599 -0.52576804 1.7791029
0.85092598 -0.49790901 1.7147391
0.84751296 -0.48410499 1.7028619
0.855793 -0.44873002 1.6877991
0.85053802 -0.49594399 1.703269
0.85033399 -0.48644298 1.695477
0.85400099 -0.49897 1.697543
0.85183901 -0.48820302 1.688171
0.85343498 -0.497545 1.686604
0.85392195 -0.48818401 1.680938
0.74923301 -0.38417199 1.804912
0.74492103 -0.36982301 1.7853199
0.853477 -0.41961497 1.8717721
0.78130996 -0.42887199 1.8119119
0.86168098 -0.42408299 1.8698519
0.87183797 -0.424119 1.878662
0.86720902 -0.42860299 1.867012
0.88121396 -0.42954201 1.877892
0.86950201 -0.449485 1.8710819
0.86144698 -0.43321702 1.8571119
0.87483197 -0.43342498 1.8659118
0.89136499 -0.43518201 1.877692
0.90536499 -0.436396 1.889742
0.88220596 -0.450084 1.872862
0.88796097 -0.442534 1.8709821
0.89438105 -0.436602 1.871812
0.90984201 -0.43870699 1.8845121
0.92578298 -0.440871 1.898302
0.92880601 -0.43167001 1.8924021
0.79058295 -0.46259999 1.797352
0.89707202 -0.45033798 1.8724021
0.90338206 -0.44477502 1.874642
0.914114 -0.44198701 1.8791119
0.927993 -0.44107497 1.889722
0.94656801 -0.44578302 1.9047619
0.79470396 -0.466501 1.7922419
0.91100001 -0.46065301 1.879032
0.91081703 -0.45026502 1.8732519
0.92427301 -0.448605 1.8812119
0.93832397 -0.44727299 1.890172
0.95479894 -0.449725 1.9016519
0.78850198 -0.471232 1.7820469
0.79761297 -0.47116798 1.787825
0.92237097 -0.45796099 1.8777719
0.93860102 -0.457497 1.887762
0.94877601 -0.453848 1.892002
0.77319604 -0.51593202 1.7886679
0.77648902 -0.50934201 1.785347
0.788095 -0.50857902 1.791962
0.80585098 -0.51359499 1.8077521
0.79373395 -0.475896 1.7803339
0.80449504 -0.47600201 1.784862
0.77306002 -0.51493597 1.7790711
0.78086698 -0.51266301 1.7810849
0.79193497 -0.51145899 1.786646
0.79828501 -0.50301099 1.7862079
0.81311202 -0.50309801 1.7979519
0.81686699 -0.49080503 1.790712
0.78049302 -0.52196699 1.778785
0.789015 -0.51924801 1.780304
0.79506701 -0.51033002 1.7786679
0.80195999 -0.50440699 1.7801681
0.80998594 -0.49894902 1.782632
0.82072097 -0.494921 1.785722
0.78522301 -0.52566898 1.775197
0.793257 -0.52218497 1.7757499
0.800466 -0.516877 1.776492
0.80794197 -0.50906199 1.777349
0.81759501 -0.503052 1.7796711
0.82058996 -0.49076402 1.773533
0.80913001 -0.52465403 1.7781869
0.81127703 -0.51283002 1.7711509
0.81839401 -0.50507098 1.77108
0.82704806 -0.50022 1.774859
0.90556604 -0.490789 1.819032
0.82025099 -0.52023602 1.7724229
0.82455707 -0.51090199 1.7683178
0.82916605 -0.50016397 1.7656211
0.89025003 -0.48521098 1.7988019
0.91220397 -0.49562198 1.8188721
0.926709 -0.49951199 1.830102
0.83287501 -0.51743001 1.767601
0.83486396 -0.50634998 1.7622399
0.89846301 -0.491225 1.8000119
0.92300105 -0.50385201 1.8224421
0.93274099 -0.50306702 1.8266721
0.84738296 -0.529441 1.774353
0.84224701 -0.513345 1.761772
0.909154 -0.49828097 1.8027219
0.93060994 -0.50817603 1.8208619
0.94089502 -0.508699 1.826622
0.84328002 -0.50952703 1.749742
0.93936098 -0.51528001 1.8225819
0.93940103 -0.505741 1.816632
0.85160303 -0.51563901 1.7483789
0.83813697 -0.47353199 1.7138449
0.84589106 -0.496824 1.7238071
0.84616399 -0.493218 1.710459
0.85250396 -0.447467 1.6877991
0.85101801 -0.497545 1.7061319
0.84678495 -0.48180303 1.6939319
0.848809 -0.49459401 1.693969
0.84874099 -0.48398799 1.6863669
0.85128301 -0.472334 1.6827521
0.84945899 -0.493889 1.68457
0.84035897 -0.41952202 1.900342
0.83541 -0.41706902 1.8958319
0.84996498 -0.417606 1.8988221
0.84297097 -0.41313201 1.892662
0.83817804 -0.41622502 1.8876221
0.845474 -0.41214001 1.888582
0.85853106 -0.41295898 1.8917919
0.845348 -0.41275901 1.884122
0.85151702 -0.40903899 1.885892
0.84613901 -0.41297901 1.8795419
0.85717696 -0.41016603 1.881642
0.85923696 -0.417366 1.878022
0.868011 -0.41267201 1.8793319
0.89322698 -0.41657299 1.884272
0.85357398 -0.42379501 1.873232
0.87133002 -0.42294398 1.876492
0.87194395 -0.41487098 1.876662
0.886446 -0.41269901 1.878662
0.91777396 -0.41727799 1.8844919
0.93918902 -0.41846299 1.8885418
0.86526799 -0.430237 1.8716919
0.88438302 -0.41813901 1.875322
0.888915 -0.412478 1.8751919
0.90233999 -0.41070998 1.877172
0.92604303 -0.413378 1.8824619
0.95428103 -0.41858199 1.888432
0.89797205 -0.41468701 1.8731019
0.89442706 -0.40624401 1.8708719
0.91564697 -0.40954497 1.875672
0.89697301 -0.40660301 1.867892
0.91163003 -0.40743801 1.870242
0.90404099 -0.40892503 1.865662
0.918935 -0.40966201 1.8681821
0.86363298 -0.462612 1.8510919
0.87468904 -0.42380601 1.830502
0.887595 -0.42243302 1.8319519
0.81347901 -0.51710999 1.8193519
0.87189102 -0.41468701 1.8257419
0.79708505 -0.50754601 1.8135018
0.82188696 -0.51277101 1.816532
0.84083802 -0.51429099 1.8185719
0.86157799 -0.40905899 1.819872
0.87806702 -0.410162 1.822312
0.80823302 -0.50557399 1.8105119
0.82298303 -0.50424302 1.812542
0.84490305 -0.50739896 1.8150721
0.866611 -0.51041299 1.817222
0.83393699 -0.39440301 1.8109821
0.847853 -0.395518 1.813132
0.79966199 -0.50840402 1.8054819
0.80744696 -0.50454104 1.8059219
0.81634802 -0.50088 1.807112
0.83602995 -0.50310796 1.810432
0.84625101 -0.49952999 1.8108121
0.86497301 -0.50148302 1.8128619
0.908153 -0.494674 1.816882
0.82413501 -0.38828301 1.8049921
0.82612199 -0.38489801 1.805932
0.83828199 -0.38541999 1.807652
0.80578595 -0.526591 1.8030319
0.80221903 -0.51727402 1.8023219
0.80635697 -0.51058501 1.8022519
0.811764 -0.505512 1.8029019
0.81547302 -0.50007403 1.8025819
0.83824801 -0.50356901 1.8058419
0.84570605 -0.498602 1.806772
0.85741699 -0.49719799 1.808042
0.871696 -0.49530998 1.809342
0.88679999 -0.491642 1.8107719
0.89168298 -0.48514599 1.811232
0.90476996 -0.48542702 1.8133719
0.83201897 -0.39176998 1.802972
0.82120901 -0.38246 1.801762
0.82349402 -0.53045499 1.8020419
0.82388002 -0.52184504 1.801392
0.81751996 -0.50900698 1.800022
0.82705301 -0.50563997 1.8004719
0.83886999 -0.50361401 1.8013819
0.84951502 -0.50026202 1.802992
0.86236101 -0.49721402 1.8039219
0.87742597 -0.49498099 1.805882
0.88996297 -0.49169701 1.807402
0.89440399 -0.48524502 1.8076919
0.89678198 -0.47845402 1.8086319
0.82512999 -0.38389197 1.7993519
0.83539397 -0.51831698 1.799162
0.84292001 -0.51298696 1.799222
0.85253996 -0.50837702 1.7994919
0.85900497 -0.50271398 1.7995819
0.87076205 -0.49356097 1.8006119
0.88126999 -0.48926997 1.801532
0.88607699 -0.482429 1.802542
0.89285499 -0.475997 1.802932
0.87967598 -0.513659 1.7983719
0.87107497 -0.500682 1.796752
0.87888199 -0.496124 1.7974119
0.88642305 -0.49164903 1.7974119
0.88883001 -0.482995 1.7978419
0.89316702 -0.47593799 1.7982719
0.88423896 -0.50708002 1.794422
0.88412005 -0.49814701 1.7937019
0.88836801 -0.49054101 1.793352
0.89037496 -0.482788 1.7930719
0.90032303 -0.50720298 1.7922721
0.89742899 -0.496216 1.7908521
0.89648497 -0.48723099 1.790112
0.905752 -0.48603001 1.7716019
0.91858101 -0.45454499 1.7719018
0.91825205 -0.45393002 1.76754
0.91829699 -0.48455399 1.763345
0.91737002 -0.48231801 1.7590939
0.83311099 -0.41768003 1.901152
0.84288597 -0.41611198 1.898622
0.83080399 -0.40654901 1.890572
0.84204203 -0.41107398 1.888212
0.86123902 -0.41557097 1.8919721
0.83968198 -0.41098598 1.883612
0.84574598 -0.405177 1.883812
0.86958295 -0.412624 1.8889019
0.84236002 -0.410584 1.879612
0.84771699 -0.40560299 1.879552
0.85562301 -0.40186 1.8804818
0.84093398 -0.40987399 1.874292
0.84993398 -0.40529302 1.8758819
0.85789597 -0.40127701 1.8759019
0.87592697 -0.40338001 1.8791119
0.89025903 -0.40405601 1.881242
0.85255402 -0.41661799 1.872012
0.85222197 -0.406661 1.8720318
0.86148 -0.403476 1.872502
0.86748099 -0.39862201 1.873212
0.88846201 -0.40338001 1.8770819
0.85646796 -0.40720001 1.868652
0.86452299 -0.403319 1.8693421
0.87762904 -0.40330002 1.8713019
0.90024698 -0.409935 1.875502
0.87561095 -0.40897998 1.868382
0.884027 -0.40669701 1.869302
0.81893998 -0.39981601 1.819242
0.81759202 -0.51419199 1.8176419
0.82787299 -0.51185399 1.818392
0.81362998 -0.50179201 1.8126819
0.82325202 -0.49897999 1.813362
0.806023 -0.50505799 1.8077521
0.80898499 -0.497504 1.807892
0.8229 -0.49839002 1.8092121
0.83834898 -0.49824601 1.8107018
0.85477304 -0.49733898 1.8118219
0.87750101 -0.50214601 1.8149021
0.89494401 -0.50444502 1.8176221
0.88554496 -0.48733601 1.8159821
0.80046403 -0.50940603 1.802992
0.81137198 -0.50895 1.8042319
0.81454802 -0.50200999 1.8044019
0.82280195 -0.498117 1.8043618
0.835962 -0.49757802 1.806252
0.86638099 -0.49605802 1.809392
0.88302594 -0.49630699 1.8123819
0.87802595 -0.48173699 1.8103119
0.81325203 -0.51899397 1.8006119
0.81041902 -0.50812799 1.800192
0.82039297 -0.505225 1.800602
0.829413 -0.50039899 1.8010019
0.86722898 -0.49518397 1.804702
0.87799895 -0.49286702 1.807062
0.817922 -0.52159399 1.797542
0.827986 -0.52063596 1.798772
0.835935 -0.515194 1.7990421
0.84198999 -0.50932097 1.7991819
0.87763804 -0.49227902 1.801922
0.86654603 -0.50338101 1.7964319
0.87277496 -0.497774 1.7956419
0.89217204 -0.5108 1.7944019
0.88388395 -0.49575803 1.792402
0.89960098 -0.50650501 1.790862
0.89069504 -0.48997101 1.7886411
0.83239502 -0.40712798 1.886512
0.83792394 -0.40420699 1.8874619
0.84015197 -0.40302798 1.882862
0.84007204 -0.411468 1.8780719
0.841775 -0.40257499 1.878132
0.86447406 -0.40859401 1.8817121
0.889036 -0.41362801 1.8850219
0.90400702 -0.414451 1.8875819
0.92388803 -0.42133799 1.8915619
0.84900004 -0.40780601 1.8748219
0.85662597 -0.40345502 1.8761319
0.87249899 -0.403909 1.877692
0.90114194 -0.413708 1.8832818
0.913517 -0.41436699 1.885772
0.85263705 -0.421832 1.8708121
0.85452598 -0.41149601 1.870922
0.86023301 -0.405101 1.8720318
0.87308502 -0.404273 1.8728821
0.89238 -0.40888101 1.876662
0.91056097 -0.413544 1.880722
0.86451203 -0.41765499 1.8686219
0.86688203 -0.40877301 1.8684119
0.87783796 -0.40624002 1.8698219
0.89507794 -0.41076499 1.873232
0.86570394 -0.40828499 1.864632
0.87725997 -0.40710899 1.866352
0.81461406 -0.52004701 1.818212
0.80992299 -0.50316799 1.812892
0.82637495 -0.50446397 1.8140619
0.838162 -0.50379199 1.814672
0.79625803 -0.50296998 1.806452
0.80695897 -0.500974 1.8082319
0.81609201 -0.49729401 1.809342
0.82377899 -0.39808202 1.8058419
0.825598 -0.39222801 1.8050519
0.80386704 -0.49926603 1.8028419
0.81624496 -0.49756402 1.804332
0.82905501 -0.49652198 1.8046421
0.82766503 -0.400141 1.8021921
0.81315595 -0.38219002 1.7995318
0.79549301 -0.52272701 1.799342
0.79925203 -0.51591897 1.799212
0.80103993 -0.50647902 1.7989219
0.81068498 -0.50306499 1.7992419
0.82141703 -0.50002402 1.7998019
0.83717597 -0.50069696 1.8007019
0.829974 -0.401097 1.7990619
0.81211501 -0.51491499 1.796542
0.82625002 -0.51485902 1.797452
0.83794802 -0.51249403 1.797932
0.84088302 -0.50281602 1.796972
0.865026 -0.51259601 1.7957819
0.88106501 -0.49892503 1.7902719
0.90123004 -0.50173497 1.7820959
0.84263301 -0.41956902 1.896202
0.83484101 -0.41005799 1.889202
0.855699 -0.41801101 1.8925819
0.84588206 -0.40731603 1.885242
0.87238902 -0.41962299 1.889552
0.92358595 -0.43082002 1.897572
0.93083298 -0.42579103 1.8989921
0.93938005 -0.42316502 1.9001019
0.95866501 -0.42756802 1.904742
0.83847898 -0.40109199 1.878172
0.85323602 -0.40037602 1.879892
0.87377501 -0.40538299 1.883202
0.89708799 -0.41072398 1.8873219
0.92501903 -0.42289698 1.893522
0.932064 -0.41838402 1.8939619
0.95290899 -0.424418 1.8989719
0.84613299 -0.403983 1.8741721
0.85474604 -0.39941001 1.874552
0.86821002 -0.40016103 1.8771119
0.890127 -0.40761903 1.8816919
0.91250199 -0.41405103 1.886242
0.94012499 -0.42478999 1.8920521
0.84352797 -0.40262499 1.8685019
0.85403502 -0.40050802 1.870162
0.86404097 -0.39748201 1.870592
0.88261902 -0.40192401 1.8751019
0.853706 -0.412388 1.866152
0.856812 -0.40237099 1.865932
0.86684901 -0.39957902 1.866022
0.87747705 -0.39931402 1.8678219
0.86448699 -0.40715802 1.8631519
0.86998498 -0.40070498 1.862872
0.88857806 -0.40851897 1.8659019
0.96497101 -0.51049 1.8550119
0.97300398 -0.50770003 1.855732
0.97307605 -0.49400699 1.855862
0.95653999 -0.50149602 1.849152
0.95487195 -0.48858699 1.847572
0.97349 -0.49265099 1.851022
0.937549 -0.48291802 1.8398819
0.94666296 -0.48135799 1.8403119
0.95795304 -0.48066601 1.8417419
0.92553902 -0.473241 1.8318619
0.937289 -0.47458801 1.8340619
0.95638496 -0.48013401 1.836282
0.97156698 -0.48223999 1.837762
0.92220199 -0.47029498 1.8268421
0.92961198 -0.46839601 1.8281518
0.97443199 -0.49210602 1.8346421
0.98914003 -0.49557701 1.836272
0.87297404 -0.496721 1.816082
0.90244699 -0.45214802 1.820452
0.82094902 -0.405256 1.8039219
0.973122 -0.49719003 1.8461419
0.981318 -0.50686198 1.842952
0.79488504 -0.388836 1.930202
0.93974602 -0.40237799 1.903572
0.93883497 -0.39923501 1.8960019
0.94755697 -0.408429 1.898172
0.96159303 -0.41445202 1.898212
0.81316805 -0.38585499 1.892242
0.823282 -0.393722 1.8914719
0.89318198 -0.39067599 1.886682
0.91228598 -0.39788899 1.888302
0.92999494 -0.40309602 1.889382
0.94826102 -0.40698299 1.8911619
0.95763898 -0.41601899 1.8916221
0.80687797 -0.39113098 1.8836719
0.83296502 -0.38771999 1.8828119
0.85738599 -0.392039 1.880752
0.89195395 -0.389732 1.880322
0.90226096 -0.39919299 1.8817319
0.92570502 -0.40015301 1.8825819
0.93794501 -0.41162398 1.884632
0.82210898 -0.38316199 1.8755319
0.83936602 -0.38656798 1.8744819
0.855654 -0.392239 1.8718219
0.87843204 -0.39526001 1.8727219
0.89735395 -0.39971802 1.874642
0.84246999 -0.385804 1.866182
0.85477901 -0.39176899 1.8634119
0.86819702 -0.39897799 1.8635019
0.88066804 -0.40644699 1.865072
0.97927099 -0.472859 1.8588519
0.84746397 -0.38451698 1.856362
0.84968299 -0.397787 1.8548621
0.85188502 -0.41263101 1.854182
0.97626603 -0.47137699 1.851542
0.83932406 -0.39122799 1.845992
0.84627998 -0.40286899 1.845422
0.95194703 -0.46804199 1.842242
0.96679604 -0.47268102 1.8431119
0.98789102 -0.47472 1.844442
0.83396202 -0.39194801 1.8362919
0.84620005 -0.39884201 1.8358319
0.94246399 -0.45662299 1.8335019
0.95490897 -0.463929 1.835012
0.97152102 -0.46999198 1.835842
0.99171501 -0.47460601 1.837532
0.79546702 -0.37526599 1.824122
0.81490499 -0.37820899 1.8245521
0.83466798 -0.38736302 1.826712
0.85349298 -0.39368197 1.8274519
0.85734999 -0.408723 1.826962
0.91050202 -0.45947301 1.8244721
0.93803102 -0.45641997 1.8259119
0.95626801 -0.46212301 1.827832
0.96836001 -0.468649 1.8280619
0.980977 -0.47945201 1.8305521
0.79949206 -0.37062901 1.8173621
0.81994498 -0.37495801 1.817932
0.82537806 -0.38989899 1.818532
0.85232699 -0.39620799 1.8195621
0.86476195 -0.40783599 1.8176121
0.913822 -0.45221001 1.8170919
0.93154603 -0.45694599 1.8172519
0.95112699 -0.46040797 1.8187119
0.78064001 -0.348618 1.8063519
0.79158205 -0.35856998 1.8089819
0.802836 -0.36736697 1.809682
0.82072502 -0.372419 1.810172
0.86734599 -0.407318 1.8093219
0.87466598 -0.418888 1.809172
0.915829 -0.451581 1.808742
0.93541902 -0.45603901 1.809932
0.94608903 -0.46102798 1.8087821
0.78320003 -0.34117499 1.7986619
0.78562796 -0.35758498 1.8001819
0.81299102 -0.361361 1.8029819
0.80373496 -0.38140202 1.8031821
0.86427903 -0.41139701 1.799282
0.879219 -0.41455299 1.8008419
0.909724 -0.45407701 1.7990919
0.92728204 -0.45992401 1.801392
0.93001294 -0.47075099 1.800552
0.77542299 -0.34257999 1.791482
0.77263099 -0.36057702 1.791752
0.76731795 -0.37784699 1.7921921
0.87608302 -0.41856602 1.7914319
0.89756602 -0.42268601 1.790072
0.90130597 -0.439632 1.7919918
0.91028601 -0.45183998 1.7896218
0.92234099 -0.46061 1.792372
0.75906199 -0.35252702 1.7845911
0.88508499 -0.41619802 1.78237
0.90062696 -0.42115298 1.782424
0.90781403 -0.43399897 1.7825629
0.91973501 -0.44417399 1.781111
0.917068 -0.461144 1.7817911
0.89823502 -0.42336398 1.774739
0.90870005 -0.43574101 1.7729349
0.91394699 -0.44971198 1.7736099
0.91145301 -0.46377 1.7730279
0.90066099 -0.42382401 1.764997
0.91488296 -0.43063301 1.7646719
0.91823196 -0.44372898 1.764977
0.90046901 -0.42502299 1.7552639
0.912723 -0.43165299 1.756202
0.91545898 -0.443856 1.7554239
0.90941399 -0.43284303 1.7469901
0.92116201 -0.43851298 1.7466959
0.91395104 -0.43187001 1.737987
0.91882104 -0.42941898 1.72883
0.92127097 -0.438977 1.7295169
0.91992205 -0.429131 1.7198219
1.05302 -0.53222597 1.717774
1.0378801 -0.54107201 1.7085998
1.01718 -0.54174197 1.699476
1.02355 -0.54991102 1.700495
1.04804 -0.54228503 1.703082
1.00729 -0.54340398 1.6906769
1.0217099 -0.54812098 1.6935639
1.0438501 -0.54408801 1.696156
1.00274 -0.526577 1.682434
0.99155599 -0.55131602 1.682554
0.79449201 -0.38852501 1.9362019
0.80374497 -0.394548 1.927822
0.79869103 -0.38651699 1.9202719
0.81746298 -0.40080699 1.916832
0.81053901 -0.39329398 1.9093319
0.82655406 -0.39870098 1.9068021
0.93832701 -0.39835399 1.902402
0.95144099 -0.405274 1.903212
0.80026603 -0.38758799 1.9023319
0.81704003 -0.39189398 1.899682
0.82836896 -0.400051 1.898952
0.92540497 -0.40290901 1.8964719
0.942577 -0.40507701 1.8963418
0.95876998 -0.41157201 1.8966919
0.82660204 -0.38637698 1.890882
0.82994598 -0.39784402 1.8917019
0.836519 -0.40778199 1.8912219
0.89009804 -0.40173998 1.886812
0.92241699 -0.40062499 1.888552
0.941293 -0.40619302 1.8892419
0.96222097 -0.41016999 1.889982
0.95629996 -0.42807201 1.891202
0.82029998 -0.39024898 1.883732
0.83655196 -0.39535001 1.8829019
0.86900496 -0.39571801 1.8810419
0.89647698 -0.398451 1.8806821
0.919806 -0.40212399 1.8820219
0.94269502 -0.40630001 1.883352
0.82717001 -0.38930199 1.873582
0.84737098 -0.39375001 1.8731619
0.874942 -0.39473 1.872862
0.89437103 -0.398554 1.8735019
0.82657701 -0.39016801 1.864612
0.842852 -0.39410099 1.8638519
0.85684305 -0.40116 1.8649319
0.867724 -0.409289 1.864422
0.83515799 -0.386347 1.8564719
0.84235901 -0.39577401 1.8548321
0.848454 -0.40677202 1.855932
0.85297501 -0.417575 1.855842
0.96310401 -0.47123501 1.851712
0.980708 -0.47569999 1.852872
0.83815402 -0.397798 1.847562
0.85017997 -0.40479901 1.846122
0.94403702 -0.46723899 1.8435719
0.96444899 -0.46803501 1.844672
0.97768897 -0.47526902 1.8443218
0.82683897 -0.38919103 1.8342619
0.84501296 -0.395069 1.8372619
0.85094804 -0.405552 1.8376319
0.85705495 -0.41461 1.837572
0.95192301 -0.46089801 1.836782
0.96665901 -0.466221 1.8374319
0.974621 -0.475903 1.8358819
0.992423 -0.48087102 1.8381219
0.98718804 -0.49651 1.8374319
0.81051999 -0.37745398 1.8261819
0.81948 -0.387236 1.826762
0.83359098 -0.39712501 1.827472
0.85386395 -0.40501702 1.829072
0.86678594 -0.41365701 1.8275219
0.92012197 -0.461712 1.825472
0.94299799 -0.461283 1.8273219
0.96193802 -0.46603099 1.8289819
0.97489095 -0.47363201 1.828452
0.98073196 -0.48583698 1.830392
0.79396003 -0.36963001 1.8173219
0.80942702 -0.37610501 1.819072
0.82513499 -0.38346803 1.819852
0.83374196 -0.395625 1.8193821
0.92197603 -0.458249 1.818652
0.94379205 -0.46102199 1.820822
0.96150202 -0.46590099 1.8215719
0.96296203 -0.48255903 1.8231219
0.780155 -0.35495701 1.807492
0.80073094 -0.36241999 1.810032
0.81585002 -0.37215197 1.812392
0.82489997 -0.38383302 1.812742
0.83222902 -0.400444 1.813002
0.91342402 -0.45935699 1.8101621
0.93179703 -0.464169 1.811962
0.77675402 -0.33998001 1.7997819
0.786874 -0.35186002 1.802002
0.79764801 -0.35996497 1.8021021
0.80074096 -0.37517101 1.8039819
0.901586 -0.45028499 1.801772
0.92252403 -0.45432597 1.8035018
0.930848 -0.46081001 1.8035419
0.78496802 -0.33363998 1.792572
0.78289396 -0.351482 1.794552
0.80053598 -0.356195 1.795372
0.89743799 -0.43474901 1.7938418
0.90583098 -0.44640702 1.7923019
0.91610301 -0.45545501 1.7953519
0.78833503 -0.34466302 1.786931
0.89808899 -0.42143199 1.786606
0.903763 -0.43282199 1.784189
0.91382301 -0.44197801 1.7842841
0.90950203 -0.45717201 1.7859659
0.8969 -0.42327899 1.7761301
0.90354598 -0.43280497 1.775385
0.90838897 -0.444341 1.7762189
0.91929799 -0.45021302 1.777795
0.89445001 -0.424198 1.76653
0.90542799 -0.43038398 1.7674451
0.90905297 -0.44333899 1.767781
0.91678596 -0.451285 1.769215
0.91078204 -0.42684102 1.7592911
0.91003603 -0.42876399 1.7507291
0.91477996 -0.43829 1.7513241
0.91650099 -0.439046 1.741987
1.04444 -0.53575802 1.7036788
1.03248 -0.53009701 1.6975229
1.05601 -0.52648997 1.700071
1.0056701 -0.51742899 1.688493
1.01867 -0.52231097 1.6899271
1.03657 -0.52350402 1.6914771
1.04351 -0.53349602 1.6929239
1.05204 -0.54040903 1.6945151
1.0143399 -0.51072496 1.682904
1.02083 -0.52014703 1.684034
1.0315499 -0.52506101 1.6840619
0.93063498 -0.42230499 1.911232
0.91800398 -0.41457802 1.9036319
0.94666201 -0.41210499 1.903782
0.81506896 -0.39682302 1.9001819
0.93120402 -0.40681198 1.8967919
0.941374 -0.41264901 1.8972119
0.95512098 -0.41814801 1.897262
0.82199895 -0.39306802 1.8907819
0.83739996 -0.408447 1.890432
0.90412599 -0.399427 1.886192
0.922755 -0.40672797 1.8887421
0.94166493 -0.411567 1.890662
0.95448196 -0.41733798 1.891032
0.81725097 -0.39491901 1.882612
0.83181798 -0.399997 1.882962
0.86589998 -0.40087199 1.8808719
0.89646202 -0.40089902 1.880982
0.911017 -0.407392 1.8820519
0.922809 -0.41852599 1.8846021
0.82240099 -0.39365003 1.874302
0.839463 -0.39922002 1.873662
0.86665702 -0.40047199 1.872802
0.88280505 -0.405644 1.874892
0.83231199 -0.40058899 1.8661419
0.84751296 -0.40721199 1.864732
0.85717005 -0.41550702 1.8661121
0.83798403 -0.40004599 1.857442
0.85059404 -0.40623298 1.856672
0.96468103 -0.47302699 1.854092
0.98323995 -0.475566 1.8545419
0.84614801 -0.40869001 1.8485019
0.96903199 -0.47102699 1.8477119
0.982005 -0.476118 1.8465219
0.98413694 -0.48888901 1.8464121
0.82600701 -0.391664 1.8364921
0.83672899 -0.400626 1.8389719
0.85036695 -0.40849301 1.839142
0.86172098 -0.414711 1.838732
0.97008902 -0.470034 1.8392819
0.984869 -0.47289601 1.839272
0.98397905 -0.48587501 1.839332
0.98446405 -0.49833301 1.8402619
0.822703 -0.39078602 1.8295419
0.93940401 -0.46635601 1.8274219
0.96305901 -0.46946299 1.830422
0.97498596 -0.47767699 1.8327218
0.98073095 -0.48654598 1.8331518
0.78828597 -0.37138402 1.818622
0.80264199 -0.377994 1.8191018
0.81911302 -0.388955 1.821422
0.83665103 -0.39921299 1.8225321
0.92389899 -0.462589 1.8210019
0.93738502 -0.464948 1.821322
0.94959295 -0.47162202 1.823132
0.95919603 -0.48374099 1.8260919
0.78368104 -0.35811698 1.8114319
0.797508 -0.36543998 1.8122519
0.80815101 -0.375846 1.8129719
0.81417602 -0.38820598 1.8139819
0.82855004 -0.39926201 1.8156419
0.92840695 -0.457589 1.813992
0.93768501 -0.463462 1.815372
0.77330202 -0.34210202 1.801362
0.78636396 -0.35453999 1.804292
0.80026197 -0.36313599 1.8044721
0.81472099 -0.371198 1.806022
0.91400999 -0.46025798 1.8040619
0.93219203 -0.46346802 1.806852
0.78518599 -0.335444 1.7952719
0.78916901 -0.35010502 1.796062
0.79807299 -0.36173198 1.7968619
0.80154198 -0.37254199 1.7979019
0.88814002 -0.425199 1.7972119
0.90529704 -0.45011199 1.796682
0.91451502 -0.459894 1.796062
0.92653799 -0.46444198 1.7978821
0.77186501 -0.33951899 1.787535
0.780855 -0.35065702 1.7881861
0.79657096 -0.35994202 1.7907519
0.89806503 -0.42174199 1.788952
0.89700204 -0.43471 1.7882
0.90189004 -0.44789901 1.789312
0.91488701 -0.45686099 1.7887368
0.91926801 -0.46794602 1.7884948
0.89671797 -0.42351601 1.7809799
0.90194398 -0.432607 1.7796799
0.90595001 -0.44652697 1.7802229
0.91912901 -0.45648602 1.7810299
0.910101 -0.47292197 1.7790229
0.89598501 -0.42568401 1.7721139
0.91183096 -0.44337699 1.77148
0.91198897 -0.45912498 1.772195
0.90983003 -0.47237 1.771441
0.90682 -0.43310398 1.7641499
0.91923898 -0.452427 1.7564451
0.99545097 -0.53520101 1.693368
1.01766 -0.53265101 1.6948678
1.00353 -0.519162 1.688183
1.0124 -0.52607 1.689469
1.0259 -0.52887797 1.689829
1.01129 -0.52460498 1.682655
1.02143 -0.53168201 1.6838919
1.04468 -0.52745897 1.6854249
0.80919194 -0.39198399 1.8894019
0.82332003 -0.397798 1.8894321
0.83877999 -0.404347 1.888182
0.85666299 -0.40962502 1.886062
0.82315499 -0.39798301 1.881742
0.85509801 -0.398783 1.879612
0.86470902 -0.40719002 1.8784219
0.88708198 -0.40752998 1.878212
0.83700401 -0.39443803 1.8725919
0.85644799 -0.39955002 1.8723019
0.866512 -0.40593499 1.871182
0.83349901 -0.39736801 1.862522
0.84999901 -0.40137699 1.8644018
0.84672201 -0.41352201 1.8625119
0.85044402 -0.41148299 1.8545719
0.97185999 -0.47885799 1.851622
0.95246696 -0.47296199 1.8437719
0.96568799 -0.47845799 1.844522
0.97639197 -0.48738801 1.846282
0.95319504 -0.47280398 1.8376019
0.96829695 -0.47801101 1.838362
0.98339301 -0.48407 1.8392019
0.98418897 -0.49344599 1.8385919
0.81115603 -0.38946202 1.826332
0.82388997 -0.39834401 1.8283219
0.94603801 -0.47433299 1.8303518
0.95652604 -0.48022801 1.8303518
0.96828794 -0.48742598 1.8309119
0.79809302 -0.37770802 1.818692
0.81112701 -0.38515401 1.8192121
0.81794196 -0.39693502 1.8210418
0.89586401 -0.46651298 1.8183219
0.92695099 -0.46420601 1.8193519
0.949386 -0.470099 1.8226919
0.95709902 -0.47933498 1.8230119
0.94425398 -0.49739301 1.8229221
0.758959 -0.36026901 1.808362
0.789666 -0.36172903 1.809762
0.80035895 -0.374042 1.8124219
0.81102997 -0.38252801 1.812402
0.818169 -0.39541599 1.8136319
0.90508002 -0.459483 1.812652
0.92108399 -0.464203 1.8127021
0.93651998 -0.47330898 1.8152521
0.94743401 -0.48357701 1.8170419
0.78092903 -0.350714 1.801972
0.79486501 -0.35958999 1.803352
0.79849702 -0.37264001 1.805462
0.811575 -0.38296002 1.806332
0.81133401 -0.39922002 1.807502
0.90240896 -0.45853502 1.8054719
0.92299795 -0.46266702 1.8056519
0.771658 -0.33680698 1.7934421
0.77428496 -0.34962001 1.793692
0.783822 -0.36094397 1.795892
0.79887998 -0.370103 1.7982919
0.906757 -0.45656899 1.7970419
0.91939104 -0.46270099 1.7976221
0.77380204 -0.34815899 1.7867199
0.780011 -0.35848901 1.788174
0.78244501 -0.37178397 1.7905021
0.89082199 -0.421242 1.7888019
0.895818 -0.431436 1.7886839
0.89932704 -0.444116 1.790372
0.90971804 -0.45367801 1.7882638
0.91378403 -0.46388501 1.789722
0.77389199 -0.34557599 1.7798779
0.89757502 -0.42991599 1.7806979
0.90172094 -0.442747 1.7821021
0.91627902 -0.450158 1.7807959
0.91603398 -0.46198398 1.7808539
0.90280098 -0.429059 1.7728769
0.90820396 -0.44076499 1.773789
0.91469103 -0.452658 1.773667
0.919424 -0.461319 1.772287
0.90253901 -0.43018001 1.7666268
0.90954202 -0.43881801 1.76634
0.91481102 -0.45153302 1.765233
0.91998804 -0.460899 1.764643
0.91125798 -0.44053102 1.7589689
0.91795301 -0.44991601 1.7567191
0.92026603 -0.459618 1.7567301
0.92327601 -0.44746798 1.7411609
1.00525 -0.52316701 1.690148
0.97988504 -0.52377301 1.6827099
1.00756 -0.52073598 1.6850919
1.02874 -0.52018297 1.6870749
1.01963 -0.52465498 1.6806839
1.02748 -0.53013498 1.68088
0.821944 -0.39915198 1.888172
0.83077902 -0.40647599 1.886622
0.84977895 -0.411165 1.8848621
0.83503503 -0.39532799 1.8788919
0.84866601 -0.401838 1.8787421
0.85386902 -0.410806 1.876982
0.88030797 -0.41090402 1.8783121
0.83346003 -0.39592201 1.869812
0.85083699 -0.40056098 1.871182
0.84656 -0.413865 1.8693219
0.85339302 -0.42272899 1.8686121
0.83727998 -0.39489701 1.862352
0.843844 -0.40349498 1.862782
0.958417 -0.48617598 1.8591919
0.84529406 -0.40239897 1.8550019
0.96691704 -0.48176 1.853312
0.97602302 -0.487699 1.852222
0.95086896 -0.47278401 1.8435719
0.96451104 -0.47962502 1.8451719
0.97238296 -0.48822898 1.844872
0.98237503 -0.49485901 1.845762
0.928276 -0.46884602 1.8357419
0.951051 -0.47120997 1.8369119
0.966272 -0.47907299 1.838212
0.972036 -0.489171 1.8389521
0.97160697 -0.498207 1.8387619
0.80122596 -0.38795298 1.8266619
0.81230003 -0.39719 1.8280319
0.93881696 -0.46463799 1.8296219
0.94092399 -0.47347802 1.8301818
0.95512301 -0.47959203 1.830672
0.96406502 -0.489537 1.832142
0.80541199 -0.37265098 1.818912
0.81177002 -0.38292998 1.8198919
0.81711197 -0.39682597 1.821072
0.93688399 -0.46410197 1.8213419
0.94356 -0.47226298 1.823212
0.95541102 -0.47916803 1.824222
0.80734599 -0.36966801 1.812052
0.80307198 -0.38269299 1.812052
0.809618 -0.395008 1.8127921
0.92751998 -0.46450901 1.8127921
0.93629897 -0.47227001 1.8153821
0.93864602 -0.48194501 1.8163819
0.78246003 -0.36146501 1.8029819
0.795986 -0.371674 1.804222
0.804106 -0.384343 1.8057419
0.80696797 -0.397349 1.8055819
0.79880899 -0.41365799 1.805452
0.90376097 -0.45947498 1.8045621
0.91956401 -0.46561599 1.806392
0.92578101 -0.47391799 1.808352
0.753003 -0.35232499 1.7943519
0.78193301 -0.35894501 1.7956719
0.79241401 -0.36938801 1.796752
0.79962403 -0.38496199 1.799432
0.882478 -0.42290699 1.797052
0.88898903 -0.431804 1.798362
0.90273499 -0.45631999 1.7971219
0.91279602 -0.46579799 1.7996619
0.76056099 -0.34959802 1.7879128
0.77749395 -0.35804799 1.7885029
0.89521599 -0.42915797 1.791062
0.89927399 -0.442352 1.790602
0.91092002 -0.452319 1.790372
0.90948504 -0.46339598 1.790552
0.76966399 -0.34735802 1.782142
0.777062 -0.35683 1.78247
0.90623999 -0.45281503 1.7830648
0.90377098 -0.44240701 1.7757859
1.00103 -0.513951 1.6813071
1.0281401 -0.512797 1.684124
1.0336 -0.52003896 1.684348
0.97278804 -0.51326197 1.846512
0.96158797 -0.50778598 1.8451419
0.97727895 -0.48827401 1.8492619
0.95978701 -0.518507 1.8386319
0.95035601 -0.51294398 1.8374519
0.94060403 -0.50845599 1.836272
0.94754404 -0.489898 1.8365219
0.96152997 -0.51695901 1.8328019
0.95017403 -0.51393104 1.8321619
0.94021004 -0.509727 1.831792
0.94000602 -0.49634898 1.8311719
0.94780403 -0.47738099 1.832182
0.97226197 -0.507191 1.8279719
0.954974 -0.51008397 1.8267521
0.94547498 -0.504767 1.8269219
0.93211198 -0.50157201 1.8241519
0.93157798 -0.48937598 1.8250819
0.93162 -0.47742999 1.8249719
0.987809 -0.49525601 1.8253821
0.96586502 -0.50104803 1.8228118
0.94165701 -0.50625098 1.8202219
0.93218005 -0.50133997 1.8189319
0.92272401 -0.49708 1.818302
0.911084 -0.49319699 1.8173219
0.89802694 -0.49003801 1.8152719
0.95352203 -0.49646899 1.8162118
0.92924201 -0.50261003 1.813362
0.91654605 -0.49868301 1.8119018
0.89674002 -0.500875 1.809862
0.875184 -0.50551802 1.807402
0.86434501 -0.50176501 1.8066519
0.84391403 -0.50470197 1.8044019
0.833731 -0.49956903 1.8037019
0.93993795 -0.49405101 1.809082
0.91907096 -0.498979 1.8063519
0.90111601 -0.50042403 1.804692
0.87944901 -0.50488698 1.802752
0.86481798 -0.50382704 1.801582
0.84888101 -0.50327301 1.8003821
0.93495101 -0.49393001 1.802572
0.91075897 -0.50174898 1.799762
0.89064199 -0.50615799 1.798352
0.87467694 -0.50669599 1.796652
0.86073798 -0.50484902 1.795632
0.84849197 -0.50147498 1.794642
0.91952497 -0.49384603 1.795372
0.89030504 -0.50539798 1.792452
0.87285304 -0.50549001 1.7908419
0.859887 -0.50330502 1.7903519
0.89202601 -0.50405103 1.786371
0.88069701 -0.501463 1.7856588
0.89891899 -0.49617499 1.7805231
0.884794 -0.49916303 1.780448
0.90112096 -0.493301 1.775456
0.82465398 -0.43044999 1.942802
0.847821 -0.41332802 1.9431219
0.83441597 -0.41657397 1.941572
0.85309196 -0.409035 1.9394619
0.83297402 -0.41808301 1.935372
0.82872301 -0.42797002 1.928792
0.96082997 -0.43690801 1.8989719
0.95929497 -0.42622003 1.899212
0.95900297 -0.41713402 1.899772
0.95095599 -0.44143599 1.8920521
0.942527 -0.43588299 1.8917019
0.92390406 -0.43549901 1.887872
0.93297303 -0.418051 1.8894219
0.957021 -0.43845403 1.888042
0.94059801 -0.43713298 1.885972
0.93173301 -0.43193001 1.8854519
0.91297996 -0.43383598 1.8820621
0.90639603 -0.42681801 1.8810019
0.905761 -0.41522098 1.880972
0.89018095 -0.41749698 1.878642
0.96682298 -0.43250197 1.885402
0.944965 -0.43428397 1.8816919
0.92700994 -0.433447 1.8792419
0.91414905 -0.43022498 1.877692
0.90376097 -0.42581001 1.875922
0.88438696 -0.42807901 1.8729419
0.93974996 -0.42288503 1.876062
0.91556901 -0.42801899 1.8723121
0.89940101 -0.42660099 1.869802
0.87719101 -0.43059298 1.866842
0.93394697 -0.414426 1.870262
0.92083097 -0.413344 1.8681419
0.89044601 -0.42316601 1.8638419
0.94093698 -0.39942902 1.867412
0.91712302 -0.40757301 1.863992
0.97728103 -0.49841201 1.847892
0.96752298 -0.50415999 1.843022
0.96711898 -0.496582 1.842842
0.961281 -0.48906699 1.8413919
0.96894503 -0.50273997 1.838962
0.95685798 -0.50127101 1.8367521
0.94730699 -0.49574903 1.835072
0.95735604 -0.47869599 1.837072
0.95906097 -0.46817797 1.837742
0.96514505 -0.50405496 1.8322721
0.95088601 -0.50367802 1.8306619
0.93990701 -0.50011301 1.829182
0.93315101 -0.49417999 1.8292919
0.94604701 -0.47671601 1.8317521
0.970752 -0.50077599 1.826592
0.96087098 -0.49940899 1.8267219
0.94657701 -0.498265 1.8250118
0.93225199 -0.49586499 1.8236718
0.92369699 -0.490747 1.822782
0.81651706 -0.50165701 1.810722
0.98347801 -0.49241799 1.823302
0.96088403 -0.49808899 1.821272
0.94128001 -0.498413 1.8191119
0.92525399 -0.497879 1.817832
0.91607696 -0.494115 1.8162919
0.896438 -0.49706298 1.8139819
0.87763101 -0.49855 1.8113419
0.88034403 -0.48779401 1.8118421
0.82925498 -0.50348204 1.8072919
0.81067103 -0.50603998 1.806762
0.80549699 -0.50064099 1.8062619
0.96648902 -0.49464297 1.8176419
0.94662905 -0.495906 1.8147919
0.92482001 -0.49741101 1.8123819
0.90949094 -0.49637002 1.8110019
0.89280599 -0.49648899 1.808942
0.87064302 -0.50047201 1.806532
0.84290606 -0.506612 1.8036419
0.83111501 -0.504605 1.802912
0.82219398 -0.49964699 1.803252
0.927302 -0.495134 1.8067219
0.907583 -0.49715599 1.8053821
0.88215601 -0.50178397 1.8026419
0.86637801 -0.50068301 1.801252
0.842507 -0.50618601 1.799252
0.83213305 -0.50290298 1.799052
0.93978202 -0.48589802 1.8030419
0.91786796 -0.491144 1.8009421
0.887752 -0.50055999 1.798232
0.87236506 -0.49934399 1.7963319
0.85066903 -0.50338298 1.795242
0.92610198 -0.48728198 1.798172
0.88215303 -0.50222301 1.792222
0.870969 -0.50005102 1.7911121
0.88012099 -0.50194502 1.7863739
0.88502502 -0.49743199 1.78124
0.81772906 -0.38905603 1.889202
0.96080297 -0.43216899 1.899482
0.95795703 -0.42282102 1.898862
0.94900596 -0.41682899 1.897282
0.82427806 -0.391175 1.886682
0.95703399 -0.43216702 1.8947519
0.93952006 -0.43161702 1.8915619
0.93116701 -0.42582402 1.8899618
0.92863196 -0.41828603 1.889942
0.95616204 -0.43208399 1.8898419
0.93812102 -0.43050098 1.8865319
0.93188202 -0.42475602 1.885842
0.92732805 -0.41868699 1.885582
0.89581198 -0.426916 1.8802218
0.87705702 -0.42672798 1.8765219
0.85849404 -0.42865199 1.873382
0.96395302 -0.42850101 1.886932
0.94216299 -0.42968398 1.882962
0.93360496 -0.42375198 1.8818219
0.92761803 -0.41799399 1.881402
0.87855905 -0.432183 1.8731519
0.86347395 -0.432616 1.8701419
0.95039904 -0.41508901 1.8807019
0.93064797 -0.41793498 1.8779819
0.87416494 -0.433492 1.867502
0.86514699 -0.432062 1.8653619
0.87206703 -0.43536499 1.861272
0.86079496 -0.43371701 1.859852
0.89211303 -0.42401698 1.859322
0.88019204 -0.424402 1.857762
0.86637098 -0.43966597 1.850682
0.96992201 -0.506706 1.847052
0.963732 -0.50031102 1.8456119
0.97947198 -0.510759 1.8441321
0.96917897 -0.505512 1.842042
0.96207201 -0.49867901 1.840582
0.96423697 -0.48891103 1.841022
0.98313004 -0.50844401 1.838732
0.96479601 -0.50559402 1.8363019
0.955459 -0.50132704 1.835412
0.94768 -0.49665797 1.8345419
0.94120002 -0.489748 1.8330921
0.97528195 -0.50170898 1.8324519
0.958956 -0.49894601 1.8310418
0.94199699 -0.49673501 1.8288519
0.93320799 -0.49131697 1.827352
0.94948995 -0.47462398 1.829482
0.990839 -0.49405202 1.8299719
0.96618104 -0.49619499 1.826772
0.94305998 -0.497823 1.8243619
0.93498397 -0.49169999 1.8231419
0.92559505 -0.48648101 1.821882
0.92830104 -0.477478 1.8227119
0.82765603 -0.49765 1.8103321
0.80331498 -0.50121301 1.8085719
0.985421 -0.48846298 1.8256919
0.93843299 -0.49810502 1.818422
0.92990601 -0.49220198 1.817372
0.91777605 -0.489591 1.816282
0.90667999 -0.48748401 1.815132
0.87569898 -0.49292198 1.8107519
0.82541102 -0.49836102 1.806492
0.80536401 -0.50017798 1.805032
0.95255798 -0.489694 1.8144519
