# .PCD v0.7 - Point Cloud Data file format
VERSION 0.7
FIELDS x y z
SIZE 4 4 4
TYPE F F F
COUNT 1 1 1
WIDTH 238
HEIGHT 1
VIEWPOINT 0 0 0 1 0 0 0
POINTS 238
DATA ascii
1.03143 -0.48372701 0.59369695
1.03561 -0.477469 0.59371996
1.03651 -0.50044101 0.58818197
1.03274 -0.48579398 0.58942693
1.0280401 -0.47192401 0.589396
1.0237 -0.45807499 0.58971995
1.0253199 -0.44623101 0.59006602
1.03124 -0.439495 0.59032995
1.03503 -0.43203998 0.59057897
1.04106 -0.523175 0.58359098
1.03774 -0.512043 0.58388692
1.0323 -0.496241 0.58408999
1.02991 -0.482223 0.58481997
1.0283899 -0.47132999 0.58508396
1.02942 -0.46143201 0.58521497
1.0242801 -0.44737202 0.58626395
1.02996 -0.43886298 0.586523
1.0324199 -0.42835602 0.58658499
1.0414801 -0.521743 0.58065796
1.03658 -0.50921202 0.58038497
1.0342 -0.49662 0.57971895
1.03379 -0.48596901 0.57993996
1.02915 -0.47126901 0.58046097
1.0316 -0.461119 0.580347
1.02923 -0.44832501 0.58134097
1.03097 -0.43656501 0.58148199
1.0332 -0.42662299 0.58178794
1.0414901 -0.49113098 0.57616293
1.0502501 -0.48628899 0.57658994
1.03721 -0.46669999 0.57673097
1.03418 -0.45297199 0.57697195
1.03855 -0.44271001 0.57724398
1.03945 -0.432706 0.57741195
1.03961 -0.42243001 0.57802498
1.03897 -0.432542 0.57389295
1.0396399 -0.47824699 0.58921498
1.02502 -0.45803002 0.58935297
1.02235 -0.444065 0.58974594
1.02291 -0.43092 0.59029597
1.0287499 -0.422737 0.591335
1.02389 -0.46649799 0.584629
1.02317 -0.453969 0.58544397
1.0226001 -0.44066897 0.58588195
1.02324 -0.4303 0.58649397
1.02702 -0.42144099 0.58716196
1.03992 -0.48905799 0.58025301
1.02837 -0.47200403 0.58040094
1.02583 -0.45709702 0.58073694
1.02206 -0.441208 0.58083099
1.02696 -0.431981 0.58160698
1.0239 -0.41667098 0.58181894
1.0276799 -0.48054501 0.57635498
1.03821 -0.451646 0.57596898
1.0308 -0.43505001 0.57579798
1.03053 -0.423913 0.576594
1.03751 -0.437933 0.57082295
1.04012 -0.43022799 0.570795
1.04626 -0.43297401 0.56528693
1.0627999 -0.43659401 0.56427199
1.0509501 -0.43417001 0.55996597
1.06433 -0.43605098 0.55967993
1.05715 -0.43729901 0.55594397
1.04 -0.439262 0.58315694
1.0364499 -0.44656301 0.578107
1.03297 -0.43293598 0.57894099
1.0355899 -0.42260301 0.57944399
1.0420099 -0.451199 0.57343096
1.03537 -0.436791 0.57410395
1.03947 -0.429216 0.57412893
1.03306 -0.43306401 0.56908995
1.0474501 -0.43495098 0.56878495
1.0489601 -0.444821 0.56411797
1.04557 -0.43299702 0.56412095
1.0389 -0.42230302 0.57623994
1.01579 -0.55145502 0.61258799
1.0188301 -0.53699899 0.61218399
1.0181 -0.52702898 0.61168796
1.0104699 -0.467305 0.61064696
1.01627 -0.45174599 0.61056298
1.02195 -0.43303099 0.61155695
1.01718 -0.54768199 0.60888094
1.02161 -0.53325903 0.60820597
1.01791 -0.52668101 0.608114
1.0098701 -0.468218 0.60660499
1.01757 -0.453096 0.606094
1.01604 -0.44116297 0.60576797
1.0139099 -0.428891 0.60670996
1.01846 -0.54726499 0.60478193
1.0235 -0.532502 0.60438395
1.01685 -0.527457 0.60441297
1.01252 -0.46534801 0.60201597
1.02086 -0.44825298 0.60091895
1.02588 -0.43278599 0.60022897
1.01661 -0.426893 0.60057199
1.0249 -0.44541302 0.59675294
1.02088 -0.436115 0.59627098
1.04343 -0.489048 0.61451095
1.03512 -0.48481998 0.61449099
1.04 -0.470193 0.61453897
1.03655 -0.46057799 0.61443692
1.0207499 -0.45751703 0.61433494
1.01878 -0.44476798 0.61460197
1.0213799 -0.502235 0.61064696
1.02233 -0.492948 0.610488
1.02321 -0.48233601 0.61091298
1.0202401 -0.472305 0.61025095
1.0161099 -0.44729099 0.60992497
1.01849 -0.43413398 0.61070395
1.01389 -0.42614898 0.60943097
1.0198799 -0.50376201 0.60628998
1.01732 -0.49718103 0.60607296
1.02082 -0.483834 0.60595399
1.01941 -0.47265899 0.604756
1.01949 -0.46134898 0.60411698
1.01449 -0.45078 0.60401094
1.0161799 -0.43658298 0.60465395
1.01614 -0.42362899 0.60386693
1.0197001 -0.503277 0.60223097
1.02197 -0.49218899 0.60192299
1.01878 -0.48207501 0.60126096
1.0235 -0.466654 0.60021996
1.0171601 -0.45923999 0.59985197
1.01682 -0.44702399 0.59964597
1.01816 -0.433341 0.59950995
1.02095 -0.41951698 0.59901696
1.0320801 -0.44963402 0.59567696
1.01342 -0.43698001 0.59572697
1.02684 -0.43121299 0.61517197
1.0088 -0.551507 0.61318898
1.01598 -0.53896099 0.612912
1.01305 -0.52991796 0.61312699
1.0167099 -0.51849198 0.61273092
1.01546 -0.50751001 0.61205095
1.0213799 -0.49250498 0.61189896
1.0194499 -0.48209202 0.61181098
1.0193499 -0.47107601 0.61161298
1.0145 -0.46234101 0.61151397
1.0196199 -0.44861001 0.61140698
1.01445 -0.43963298 0.61159599
1.0151401 -0.42842799 0.61136401
1.0194 -0.53781104 0.60831296
1.01329 -0.52975398 0.60946196
1.01896 -0.516716 0.60859096
1.01661 -0.50790399 0.60798097
1.0172499 -0.49723703 0.60799295
1.0173401 -0.485964 0.60801297
1.01344 -0.47698298 0.60797799
1.01581 -0.46492401 0.60760599
1.01331 -0.454869 0.60737997
1.01457 -0.44265401 0.60727799
1.0124 -0.43205601 0.60689598
1.01027 -0.42109799 0.60685396
1.01634 -0.54835701 0.60458201
1.0209 -0.53746802 0.60372496
1.01834 -0.52777302 0.60441297
1.0202401 -0.515522 0.60387498
1.01837 -0.505597 0.60359401
1.02029 -0.493301 0.60325795
1.02116 -0.48199299 0.60357195
1.01967 -0.472381 0.60319799
1.01913 -0.461326 0.602763
1.0166301 -0.45053002 0.60219401
1.0131 -0.44137201 0.60252297
1.0096099 -0.43385899 0.60170996
1.00955 -0.42333803 0.60185897
1.03286 -0.54007196 0.600142
1.03588 -0.52879 0.59983999
1.03362 -0.51870298 0.59984297
1.0308599 -0.50887603 0.59961998
1.0320899 -0.49751499 0.599145
1.03511 -0.48627201 0.59877396
1.0268101 -0.479195 0.59917498
1.02557 -0.46760201 0.59893996
1.0215499 -0.457854 0.59829992
1.02399 -0.44571 0.59748793
1.01957 -0.43823001 0.59764999
1.0178601 -0.428424 0.59749395
1.0118901 -0.44216302 0.59421897
1.02393 -0.42945001 0.617091
1.0214 -0.54822898 0.61398095
1.0264801 -0.53797901 0.61384892
1.01728 -0.530541 0.61388594
1.0222 -0.519333 0.61389399
1.01656 -0.51205504 0.61377597
1.0253299 -0.49801499 0.61299598
1.02736 -0.48549098 0.61294597
1.02696 -0.47498903 0.61295599
1.02719 -0.46495497 0.61293393
1.02756 -0.45505002 0.61297995
1.03093 -0.44438201 0.61322695
1.02095 -0.43858799 0.61370897
1.01482 -0.43263698 0.61274797
1.02356 -0.55361599 0.61033499
1.02437 -0.545986 0.61044997
1.02336 -0.53734702 0.61048096
1.01889 -0.530729 0.60999399
1.01767 -0.52121902 0.610241
1.0218101 -0.50938702 0.60972399
1.02135 -0.50022703 0.60919696
1.02133 -0.490136 0.60902792
1.02224 -0.47874698 0.60921198
1.01939 -0.46942401 0.60942
1.02414 -0.45820701 0.60966396
1.0183101 -0.45023498 0.60966092
1.0160199 -0.440512 0.60899794
1.01317 -0.432291 0.60823196
1.0069799 -0.42573798 0.60768396
1.0289199 -0.551709 0.606215
1.01886 -0.54857302 0.60659099
1.0195 -0.53955698 0.60637695
1.01885 -0.52968299 0.60581696
1.0182199 -0.51974303 0.60571897
1.0226899 -0.50838602 0.60529101
1.02246 -0.49878398 0.60499996
1.0154901 -0.49216402 0.60478294
1.01553 -0.48278901 0.60493296
1.016 -0.47163799 0.60479093
1.0213 -0.45908901 0.60539699
1.01537 -0.45038101 0.60462898
1.01659 -0.43905398 0.60361201
1.01001 -0.431918 0.60390699
1.0106701 -0.42229199 0.60288197
1.0037 -0.41616699 0.60308492
1.0221 -0.54636902 0.60277998
1.02042 -0.53737497 0.60240901
1.01973 -0.52758002 0.60203093
1.0158499 -0.51898402 0.602018
1.02459 -0.50616801 0.60155797
1.0177701 -0.49877101 0.60149497
1.01319 -0.49081901 0.60148698
1.0207801 -0.47826698 0.60097295
1.01728 -0.47022 0.60087395
1.01484 -0.46090803 0.60100901
1.02141 -0.445941 0.59971696
1.01767 -0.43874499 0.59912091
1.0167199 -0.43012002 0.59914094
1.01844 -0.41977501 0.59859097
1.02407 -0.435442 0.59555495
