# .PCD v0.7 - Point Cloud Data file format
VERSION 0.7
FIELDS x y z
SIZE 4 4 4
TYPE F F F
COUNT 1 1 1
WIDTH 218
HEIGHT 1
VIEWPOINT 0 0 0 1 0 0 0
POINTS 218
DATA ascii
1.01191 -0.54361099 1.721671
1.01816 -0.53758001 1.71049
1.02737 -0.54319304 1.7100369
0.99595594 -0.52295703 1.7029669
1.0131199 -0.524243 1.6986979
1.01412 -0.539379 1.7058799
0.99722201 -0.52021599 1.693508
1.00889 -0.52492803 1.6907599
1.01568 -0.53411996 1.6930718
0.98267698 -0.51146799 1.6832269
0.99840498 -0.51414001 1.68118
0.99976403 -0.52823901 1.6852509
1.008 -0.53674901 1.684932
0.99096102 -0.54967099 1.6839551
1.0382199 -0.52818799 1.707636
1.0440899 -0.53397101 1.7070389
1.0233999 -0.52786201 1.7057831
1.03167 -0.53177702 1.703769
1.00455 -0.51901603 1.69786
1.0240101 -0.52184898 1.693579
1.03081 -0.53009498 1.6944251
0.99907202 -0.50973898 1.6896149
1.00402 -0.51930404 1.690603
1.022 -0.52115703 1.6842721
1.02431 -0.53311598 1.6872369
0.99823302 -0.51031703 1.680867
1.01631 -0.53835499 1.680874
1.05652 -0.52564001 1.710343
1.01915 -0.53248197 1.715891
1.04731 -0.52633703 1.703987
1.05751 -0.53316599 1.7044129
1.0300701 -0.52502704 1.7020301
1.03883 -0.52933002 1.69935
0.97672898 -0.52236599 1.7087579
0.98731005 -0.52767599 1.70573
1.02913 -0.52321702 1.691553
1.03207 -0.53176302 1.6913129
0.99118894 -0.51559699 1.693924
1.00609 -0.52054501 1.689913
1.01849 -0.52847201 1.687037
1.0257 -0.53506804 1.6855938
1.00121 -0.52096903 1.6831039
1.01055 -0.52956003 1.6810609
1.0424501 -0.51795202 1.71035
1.0517 -0.52480596 1.708428
1.0422 -0.51808798 1.7034009
1.04898 -0.52601701 1.7018149
1.05906 -0.532731 1.6993148
1.01027 -0.53290004 1.7093549
1.03848 -0.52866101 1.6976559
1.0503601 -0.53448796 1.6945709
1.02586 -0.525424 1.693222
1.03748 -0.529706 1.6887839
1.0457 -0.53568602 1.685221
1.0225101 -0.52759999 1.685284
1.03588 -0.53138 1.6806839
1.03408 -0.54144901 1.6821949
0.99280196 -0.52747101 1.685361
1.05302 -0.53222597 1.717774
1.0378801 -0.54107201 1.7085998
1.01718 -0.54174197 1.699476
1.02355 -0.54991102 1.700495
1.04804 -0.54228503 1.703082
1.00729 -0.54340398 1.6906769
1.0217099 -0.54812098 1.6935639
1.0438501 -0.54408801 1.696156
1.00274 -0.526577 1.682434
0.99155599 -0.55131602 1.682554
1.04444 -0.53575802 1.7036788
1.03248 -0.53009701 1.6975229
1.05601 -0.52648997 1.700071
1.0056701 -0.51742899 1.688493
1.01867 -0.52231097 1.6899271
1.03657 -0.52350402 1.6914771
1.04351 -0.53349602 1.6929239
1.05204 -0.54040903 1.6945151
1.0143399 -0.51072496 1.682904
1.02083 -0.52014703 1.684034
1.0315499 -0.52506101 1.6840619
0.99545097 -0.53520101 1.693368
1.01766 -0.53265101 1.6948678
1.00353 -0.519162 1.688183
1.0124 -0.52607 1.689469
1.0259 -0.52887797 1.689829
1.01129 -0.52460498 1.682655
1.02143 -0.53168201 1.6838919
1.04468 -0.52745897 1.6854249
1.00525 -0.52316701 1.690148
0.97988504 -0.52377301 1.6827099
1.00756 -0.52073598 1.6850919
1.02874 -0.52018297 1.6870749
1.01963 -0.52465498 1.6806839
1.02748 -0.53013498 1.68088
1.00103 -0.513951 1.6813071
1.0281401 -0.512797 1.684124
1.0336 -0.52003896 1.684348
0.98973501 -0.54093397 1.6828189
1.05101 -0.544644 1.696512
1.03201 -0.544478 1.696216
1.03636 -0.53628701 1.6957998
1.03475 -0.54259497 1.692475
1.02373 -0.53905898 1.6919379
1.0388401 -0.52786803 1.6916471
1.04212 -0.53908002 1.687785
1.0213799 -0.53952301 1.688008
1.01753 -0.53298599 1.6869149
1.01452 -0.53965998 1.6827508
1.0035601 -0.53523898 1.6817569
1.00488 -0.527686 1.681318
1.05923 -0.52844697 1.7077969
1.05039 -0.53541201 1.7061679
1.02233 -0.52145302 1.697518
1.04056 -0.53365499 1.7000101
1.01967 -0.536825 1.6974549
0.999722 -0.51553798 1.6886771
1.02212 -0.52986002 1.6920029
1.00579 -0.53426498 1.6894159
1.00269 -0.52525699 1.6836499
0.99963701 -0.53358603 1.6817911
1.03931 -0.51439101 1.722061
1.0433 -0.52594 1.7220551
1.0431401 -0.51711899 1.7171909
1.05099 -0.53087503 1.716848
1.0297 -0.51387101 1.710415
1.04138 -0.52906603 1.710691
1.0389199 -0.53689098 1.7105881
1.0261799 -0.52567202 1.7025878
1.03131 -0.53505099 1.7039609
1.00362 -0.51997 1.692672
1.01739 -0.53162104 1.695726
0.99045503 -0.51520801 1.6842231
0.99433297 -0.52449101 1.686434
1.00102 -0.499405 1.713709
1.01254 -0.504381 1.709249
1.00899 -0.512061 1.709543
1.0076001 -0.49307001 1.702979
1.00021 -0.49928102 1.702696
1.00752 -0.51165903 1.7041779
1.0155001 -0.52593303 1.7039469
1.00694 -0.51429904 1.697206
1.0177799 -0.53027701 1.6966269
0.99548799 -0.51151198 1.6900461
1.00227 -0.52500999 1.690051
0.994394 -0.53187299 1.688017
1.00063 -0.52564901 1.6829151
1.01385 -0.53431201 1.692348
1.0059301 -0.528108 1.6903878
1.0475299 -0.53961104 1.7004559
1.02687 -0.537597 1.6910598
1.00886 -0.53755301 1.6818869
1.06029 -0.54318404 1.699175
1.05102 -0.537211 1.6964898
1.03679 -0.53444499 1.6896271
1.0537699 -0.53550702 1.690498
1.05704 -0.53390998 1.6853509
1.04615 -0.52745897 1.682372
1.04028 -0.53248501 1.704289
1.026 -0.52916002 1.696792
1.0107499 -0.52594101 1.688617
1.00389 -0.51691401 1.687665
0.98984903 -0.5126 1.6806009
1.05645 -0.53380299 1.7068319
1.03203 -0.53584498 1.690665
1.0170799 -0.53240001 1.6839249
1.05362 -0.53359902 1.6964569
1.03737 -0.531331 1.686738
1.02273 -0.52876598 1.680827
1.06627 -0.52838099 1.6974421
1.0476999 -0.52655602 1.686904
1.06012 -0.521357 1.689306
1.05244 -0.51323003 1.6885129
1.0410399 -0.51054299 1.6827219
1.01436 -0.52126098 1.6952051
1.00945 -0.516177 1.693403
1.03611 -0.523871 1.7008951
1.0084 -0.52574402 1.682323
1.0470201 -0.528014 1.69916
1.0292 -0.52428102 1.689041
1.05932 -0.53256696 1.697697
1.04986 -0.52612704 1.6929221
1.03956 -0.52080399 1.688653
1.0583999 -0.52348596 1.691944
1.0440201 -0.52029401 1.684083
1.05593 -0.51508701 1.6872979
1.0256 -0.52238899 1.704986
1.0247799 -0.51530701 1.706424
1.00515 -0.51575899 1.690681
1.00441 -0.507972 1.6927969
1.0226899 -0.523606 1.695645
1.0068901 -0.52257997 1.6833758
1.05902 -0.52489495 1.709942
1.01886 -0.52587801 1.682349
1.05981 -0.53249002 1.7007959
1.04713 -0.52642101 1.694247
1.02763 -0.52380699 1.6801629
1.05346 -0.52534401 1.691106
1.0412 -0.52044398 1.684093
1.06499 -0.52188897 1.692654
1.05459 -0.51586497 1.687822
1.0532299 -0.50685102 1.690185
1.03169 -0.51663297 1.7109588
1.01519 -0.51482302 1.6975101
0.99622899 -0.51293397 1.6819088
0.99325997 -0.50635999 1.6810999
1.01833 -0.52207202 1.691137
1.00352 -0.51782203 1.6801449
1.04884 -0.52265501 1.706733
1.02404 -0.52019197 1.6874869
1.0579 -0.52891499 1.703392
1.04251 -0.52392 1.6929511
1.03122 -0.518062 1.6848029
1.05699 -0.52177399 1.696411
1.0425299 -0.51604098 1.686978
1.0587001 -0.513542 1.692379
1.0466 -0.50651598 1.686886
1.04049 -0.50540501 1.6923441
1.04435 -0.507074 1.683185
1.02539 -0.50668597 1.6934549
