# .PCD v0.7 - Point Cloud Data file format
VERSION 0.7
FIELDS x y z
SIZE 4 4 4
TYPE F F F
COUNT 1 1 1
WIDTH 1531
HEIGHT 1
VIEWPOINT 0 0 0 1 0 0 0
POINTS 1531
DATA ascii
1.04038 -0.401954 0.62760401
1.0142 -0.410947 0.62827396
1.0094399 -0.40209401 0.62792295
1.0054901 -0.39038101 0.62662798
0.99433196 -0.38614899 0.62675297
0.99665397 -0.373429 0.62623096
1.0383201 -0.41818902 0.61846197
1.01569 -0.409412 0.62206495
1.0107599 -0.399353 0.62099594
1.00475 -0.39113998 0.62098497
0.99633902 -0.384563 0.62088799
0.99942803 -0.36859798 0.61985093
1.00387 -0.35256401 0.619115
1.01582 -0.329822 0.61753297
1.0092701 -0.57454497 0.61591893
1.04343 -0.489048 0.61451095
1.03512 -0.48481998 0.61449099
1.04 -0.470193 0.61453897
1.03655 -0.46057799 0.61443692
1.0207499 -0.45751703 0.61433494
1.01878 -0.44476798 0.61460197
1.026 -0.428166 0.61487895
1.0190799 -0.42057097 0.61495596
1.0150399 -0.40864497 0.61555898
1.00598 -0.40313703 0.61558199
1.00252 -0.39341399 0.61530095
0.996737 -0.38492098 0.61519796
0.99610496 -0.37349701 0.61467296
1.0002301 -0.35571998 0.61368698
1.00467 -0.33828098 0.61340898
1.0166401 -0.31503201 0.61211199
1.0219101 -0.29491898 0.61126196
1.0101 -0.57333601 0.61143196
0.99892801 -0.57154703 0.61183697
1.0213799 -0.502235 0.61064696
1.02233 -0.492948 0.610488
1.02321 -0.48233601 0.61091298
1.0202401 -0.472305 0.61025095
1.0161099 -0.44729099 0.60992497
1.01849 -0.43413398 0.61070395
1.01389 -0.42614898 0.60943097
1.01572 -0.41142601 0.609047
1.0097699 -0.40145198 0.61021399
1.0061001 -0.39214697 0.60899997
1.00012 -0.38299599 0.60939199
0.99556804 -0.37149701 0.60820496
0.99934304 -0.355131 0.60769594
1.00051 -0.341997 0.607844
1.01325 -0.31881702 0.60724497
1.01651 -0.301799 0.60643995
1.01095 -0.57242799 0.606906
0.99816203 -0.57127601 0.60753196
1.0198799 -0.50376201 0.60628998
1.01732 -0.49718103 0.60607296
1.02082 -0.483834 0.60595399
1.01941 -0.47265899 0.604756
1.01949 -0.46134898 0.60411698
1.01449 -0.45078 0.60401094
1.0161799 -0.43658298 0.60465395
1.01614 -0.42362899 0.60386693
1.0135601 -0.41292098 0.60317892
1.0128 -0.399174 0.603324
1.00481 -0.39083803 0.60381198
0.99929398 -0.38199002 0.60309297
0.99821097 -0.369966 0.60180694
0.98897499 -0.364712 0.60303396
0.99224299 -0.35000899 0.60229796
1.0015 -0.32948798 0.60146296
1.01375 -0.30603799 0.60078198
1.00793 -0.572869 0.60349697
0.99522299 -0.57205701 0.60386997
1.0197001 -0.503277 0.60223097
1.02197 -0.49218899 0.60192299
1.01878 -0.48207501 0.60126096
1.0235 -0.466654 0.60021996
1.0171601 -0.45923999 0.59985197
1.01682 -0.44702399 0.59964597
1.01816 -0.433341 0.59950995
1.02095 -0.41951698 0.59901696
1.02134 -0.40399101 0.597736
1.02065 -0.39201698 0.59653097
1.0063701 -0.38929698 0.59765196
1.0056 -0.376591 0.59709799
0.99751502 -0.36998403 0.59577894
0.99131697 -0.36207801 0.59727496
0.99792296 -0.34282699 0.59554499
1.00506 -0.32246 0.59514695
1.0150399 -0.301478 0.59474796
1.0320801 -0.44963402 0.59567696
1.01342 -0.43698001 0.59572697
1.0301499 -0.38521001 0.59031999
1.02231 -0.37956601 0.59060097
1.00555 -0.377323 0.59107095
1.00186 -0.36625001 0.58969498
0.99711305 -0.35632402 0.59052497
0.99486297 -0.34540001 0.58985996
0.99725801 -0.330964 0.58889097
1.01467 -0.302017 0.58834797
1.03758 -0.37912998 0.58312601
1.0313801 -0.37358898 0.58402896
1.00985 -0.376908 0.58534998
1.0008301 -0.36947301 0.584108
0.99499601 -0.35926202 0.58432198
0.99501902 -0.34510398 0.58427596
0.98771894 -0.33826301 0.58352697
1.00195 -0.31545401 0.58214194
1.03571 -0.37992698 0.57820696
1.03992 -0.36736199 0.57731402
1.01131 -0.37507302 0.57923698
1.00624 -0.36496499 0.57726997
0.99431902 -0.36065602 0.57821196
0.98720098 -0.35293201 0.57882899
0.99029702 -0.33588001 0.57731992
0.997033 -0.317065 0.57620299
1.01678 -0.290627 0.57664096
1.04024 -0.37601897 0.57340699
1.04721 -0.36008203 0.57138199
1.02018 -0.36710998 0.57211196
1.01353 -0.358628 0.57116598
0.99609494 -0.35996899 0.57259995
0.989043 -0.35074502 0.572016
0.98613799 -0.3378 0.57087195
0.98913497 -0.32352102 0.57073492
0.99738503 -0.30676702 0.57083899
1.0423 -0.35047999 0.56526995
1.0159 -0.357216 0.56578195
0.99946404 -0.35644299 0.56670398
0.99317706 -0.34755099 0.56482399
0.98416001 -0.34116298 0.56542796
0.98504603 -0.32696801 0.56475997
0.99451303 -0.30794099 0.56371295
1.0285701 -0.34673899 0.55933493
1.00165 -0.35377601 0.56005394
0.99377 -0.34639001 0.55894995
0.98492998 -0.341892 0.55980599
0.98295504 -0.33061901 0.55919099
0.98666197 -0.31307501 0.55748999
0.994497 -0.29491898 0.55607897
1.00656 -0.349437 0.55340993
0.99532205 -0.34699401 0.55408698
0.98896104 -0.337753 0.55335999
0.98524594 -0.32583302 0.55315995
0.98664099 -0.31162798 0.55087495
0.98876703 -0.297849 0.550852
0.99344707 -0.28460801 0.55024695
1.00875 -0.345173 0.54614198
0.99634695 -0.34500998 0.54794097
0.99687201 -0.33118498 0.54567099
0.98727798 -0.32477 0.54705501
0.98433703 -0.313481 0.54494196
0.98121101 -0.30361998 0.545394
0.98432702 -0.29128501 0.54549599
1.02279 -0.33371499 0.539294
1.0041699 -0.33758998 0.54053795
0.99163598 -0.33430001 0.540039
0.98846197 -0.32358602 0.54031897
0.97728997 -0.318584 0.53980297
0.97434306 -0.30979201 0.54033798
0.971277 -0.302156 0.53988898
1.0077701 -0.33451697 0.53474498
0.99227995 -0.334986 0.53477293
0.98960602 -0.325075 0.53457296
0.98353696 -0.31661901 0.53403395
0.97081 -0.312785 0.53457999
0.94814497 -0.31980801 0.53469098
0.99291098 -0.33362597 0.52914894
0.98733002 -0.32549301 0.52828097
0.97549403 -0.32038102 0.52904493
0.96073306 -0.319576 0.52887696
0.93770301 -0.32661203 0.52927893
0.99376899 -0.32959801 0.52181298
0.99230599 -0.320934 0.52147895
0.974733 -0.32198003 0.52285993
0.95339799 -0.32423601 0.52325296
0.92900199 -0.33166599 0.52415395
0.90864402 -0.34059799 0.52736694
1.00519 -0.32152098 0.51368898
0.98642302 -0.32500401 0.51607198
0.96736002 -0.32561401 0.51695395
0.946343 -0.32811502 0.518062
0.93326205 -0.32730597 0.51837999
0.93562102 -0.31564799 0.516289
1.01272 -0.31667602 0.50707996
0.99583602 -0.32009399 0.50855297
0.97463095 -0.323805 0.51023096
0.95668 -0.32355598 0.51128197
0.94491798 -0.31883401 0.51182199
0.94537199 -0.306521 0.50985497
0.94579297 -0.29649201 0.50847894
1.01759 -0.313416 0.50038797
0.98630095 -0.32494399 0.50329095
0.96834505 -0.32489699 0.50443196
0.95261705 -0.32318297 0.50571096
0.94810504 -0.31400499 0.50574595
0.95132601 -0.30040398 0.50366896
0.955504 -0.287249 0.50135195
1.05088 -0.318322 0.48988795
1.03562 -0.319242 0.49125999
1.01649 -0.319612 0.49379393
1.00131 -0.31722501 0.49534896
0.97633201 -0.32187501 0.49713096
0.96334296 -0.317229 0.49831694
0.95244497 -0.31159499 0.49962997
0.95791298 -0.294945 0.49670196
0.96582603 -0.27738801 0.49363297
1.08092 -0.32344699 0.48200294
1.0563301 -0.33108798 0.48459199
1.03786 -0.33042198 0.48690796
1.02821 -0.32408798 0.48757896
1.01656 -0.31859502 0.48811495
0.99387002 -0.320546 0.48954597
0.972184 -0.324642 0.49188501
0.96755403 -0.31637698 0.49184394
0.96054602 -0.30673799 0.49200594
0.96537501 -0.28809899 0.48888496
0.96792299 -0.27363199 0.48684394
1.0619 -0.33699799 0.47986999
1.04802 -0.33626801 0.48081598
1.0344599 -0.33235499 0.48187798
1.0218 -0.32782799 0.48233795
1.00993 -0.32174 0.482054
0.99161303 -0.32166401 0.48359299
0.97967303 -0.31766599 0.48521194
0.96988195 -0.311499 0.48575398
0.97024804 -0.29798099 0.48393697
0.96935797 -0.286266 0.48234898
0.96713799 -0.27538902 0.48166797
0.962363 -0.26641801 0.48016593
1.06863 -0.34648299 0.47190198
1.05047 -0.34745201 0.47465193
1.04198 -0.33934298 0.47546798
1.0262899 -0.33712798 0.47708496
1.02071 -0.32794601 0.47555396
1.01463 -0.31823999 0.47506699
0.99360198 -0.321567 0.47780395
0.98420602 -0.31621599 0.47888595
0.97630399 -0.30724898 0.47836396
0.97400594 -0.29424298 0.47773498
0.97243696 -0.28292298 0.47635695
0.96711701 -0.27355 0.47539398
0.95441002 -0.27079299 0.47519293
0.937446 -0.275796 0.47767097
1.09812 -0.35386902 0.46328697
1.07792 -0.35790402 0.46556896
1.06031 -0.35599202 0.46804297
1.05445 -0.34819698 0.46792594
1.0429699 -0.34302899 0.46910995
1.03601 -0.332724 0.46937898
1.03666 -0.317469 0.46668494
1.02042 -0.31545001 0.46848094
0.99922401 -0.31746098 0.47091398
0.98770797 -0.31280899 0.47235793
0.982795 -0.30247101 0.47019395
0.97279 -0.29624501 0.47204497
0.97774398 -0.278014 0.46924996
0.96832198 -0.271065 0.468844
0.94950402 -0.27406999 0.46982896
0.94119203 -0.27167699 0.47160095
1.08369 -0.36394599 0.46089095
1.07067 -0.36244401 0.46175298
1.05846 -0.357398 0.46258396
1.0498101 -0.35026401 0.46284997
1.04618 -0.339535 0.46259296
1.05074 -0.32174999 0.46106097
1.0579699 -0.30050001 0.45839095
1.0338501 -0.30569598 0.46079198
1.00409 -0.314183 0.463985
0.98857099 -0.31125098 0.46546096
0.98509496 -0.300724 0.46433896
0.97767198 -0.29248199 0.46410495
0.97288901 -0.279989 0.46346298
0.96336901 -0.273702 0.46354997
0.95269096 -0.27135798 0.46403199
0.94700402 -0.26726699 0.46427497
1.0937101 -0.374953 0.45198295
1.07848 -0.37046298 0.45508796
1.06665 -0.36451998 0.45572296
1.05792 -0.35664901 0.45689297
1.0555301 -0.34651601 0.45607394
1.05591 -0.33407903 0.45569798
1.0466501 -0.29597101 0.45442799
1.01639 -0.304923 0.45666298
0.99010599 -0.31084499 0.45898098
0.98330003 -0.302351 0.45938298
0.976089 -0.29446501 0.45739797
0.97052103 -0.28480801 0.45784497
0.96792197 -0.273323 0.45766795
0.957147 -0.26963499 0.45811898
0.957376 -0.25961399 0.45682198
1.12958 -0.37811199 0.44265896
1.10311 -0.382707 0.44636795
1.08666 -0.37945098 0.44841698
1.07311 -0.374248 0.44941097
1.06362 -0.36785197 0.45041898
1.06248 -0.356038 0.45042995
1.06543 -0.341589 0.44949195
0.99471903 -0.30597699 0.45165595
0.98327601 -0.30247298 0.452889
0.97787803 -0.29337499 0.45077199
0.969226 -0.28756902 0.45224297
0.96671206 -0.27575099 0.45178697
0.97362298 -0.25732401 0.44949597
1.10815 -0.39237499 0.44139096
1.0942299 -0.38843101 0.44246998
1.08123 -0.38328302 0.44322196
1.07664 -0.37447 0.44276297
1.07166 -0.36411598 0.44419298
1.07923 -0.34486198 0.44320199
0.99221301 -0.30570802 0.44522494
0.98201203 -0.30269399 0.44594398
0.98080903 -0.291022 0.44497097
0.97027397 -0.286607 0.44599795
0.96651495 -0.27705899 0.44511998
1.09934 -0.39754 0.43661797
1.08847 -0.39202401 0.43696496
1.0806099 -0.38443902 0.43716699
1.08478 -0.37008801 0.43634498
0.98828298 -0.30771798 0.43935695
0.98213202 -0.30215201 0.43935296
0.97372299 -0.29662099 0.44090596
0.97249299 -0.28502399 0.43906796
0.97036004 -0.27663201 0.43808797
1.09207 -0.41123101 0.43280298
1.08915 -0.40357101 0.43169698
1.0883 -0.39221099 0.43065298
1.08876 -0.38110501 0.42965797
0.99130303 -0.30558202 0.43197295
0.98189795 -0.303808 0.43398798
0.976942 -0.29497802 0.43379796
0.980335 -0.28026301 0.43121096
1.09518 -0.39937001 0.42479798
1.09793 -0.38709301 0.42316598
1.1138901 -0.36719102 0.41960198
0.99388397 -0.30502999 0.42495295
0.985071 -0.30034301 0.42694199
0.98038203 -0.29110399 0.42662895
0.98624802 -0.27681801 0.42319798
1.11599 -0.37655398 0.41541997
1.0035601 -0.300322 0.41713098
0.99425906 -0.29633901 0.41845798
0.98506796 -0.28857201 0.41877997
1.00192 -0.26420999 0.41411197
1.0288301 -0.29067099 0.40756997
1.00423 -0.29976401 0.41141397
0.99163496 -0.29591399 0.41207996
0.98763299 -0.28523898 0.41118595
0.98501098 -0.27672899 0.41097397
1.03063 -0.28991801 0.40103194
1.0012001 -0.30102 0.40547097
0.986166 -0.29994401 0.40687597
0.98299897 -0.290773 0.40707299
0.98014504 -0.28044799 0.40545097
0.99750298 -0.25631902 0.40112096
1.0314499 -0.29048699 0.39521897
1.0082 -0.298668 0.39862698
0.99296999 -0.296866 0.39944994
0.97854894 -0.293762 0.40199098
0.98301005 -0.27685699 0.39792797
0.98654002 -0.264575 0.39738598
1.0308599 -0.29044399 0.39041096
1.00273 -0.300482 0.39346898
0.988612 -0.299169 0.39323696
0.98043799 -0.29137 0.39440396
0.97888297 -0.279203 0.39259797
0.97870797 -0.27023101 0.39273396
0.99390197 -0.30474702 0.38788396
0.98263705 -0.30391601 0.38911897
0.97842598 -0.29512799 0.38822597
0.97294801 -0.28563699 0.38831398
0.97140998 -0.27654099 0.38807297
0.99802804 -0.30201399 0.38004497
0.98618203 -0.30096501 0.38290298
0.98074698 -0.29303601 0.38096595
0.97041398 -0.28900298 0.38289496
0.96551204 -0.28211099 0.38258797
1.00405 -0.30066699 0.37172997
0.98701304 -0.30102599 0.37617496
0.982871 -0.291991 0.37443596
0.97015899 -0.28863001 0.37604699
0.96714699 -0.28042299 0.37549496
1.04616 -0.29331601 0.35802695
1.03491 -0.29139602 0.36007699
1.01395 -0.29588601 0.36389297
0.99032801 -0.29920799 0.36837098
0.97606105 -0.29554 0.37053397
0.978836 -0.28207502 0.36747295
0.97151202 -0.27754802 0.36784196
1.04805 -0.291309 0.35261795
1.02706 -0.29709601 0.35708198
1.00676 -0.30012 0.35977197
0.99331397 -0.29663 0.36040798
0.98035204 -0.29313099 0.36352694
0.97886705 -0.281362 0.36117497
0.97305298 -0.27537301 0.36040798
1.05018 -0.28920299 0.34605697
1.02607 -0.29708299 0.35087195
1.00001 -0.30331099 0.35477296
0.99643898 -0.29386601 0.35387996
0.98556298 -0.28874201 0.35493594
0.98140299 -0.27790898 0.35394096
0.98084396 -0.268727 0.35248798
1.03149 -0.29257798 0.343346
1.00586 -0.30034199 0.34750396
0.99154001 -0.297351 0.34922397
0.98527098 -0.288708 0.34826496
0.98100001 -0.28051502 0.34853995
0.97933197 -0.271395 0.346928
1.01564 -0.291738 0.33889896
0.99567801 -0.29515898 0.34186399
0.98536301 -0.29075 0.34319797
0.98106402 -0.281104 0.34205598
0.98035002 -0.27050102 0.33927998
0.99778998 -0.29208499 0.33456498
0.98485601 -0.29034999 0.33709297
0.98372704 -0.277601 0.33378598
0.97847199 -0.27138299 0.33383995
1.00375 -0.28595901 0.32615697
0.99421203 -0.28277299 0.32725999
0.98736101 -0.27578399 0.32570994
0.98007894 -0.270785 0.32757297
1.12012 -0.268879 0.29472497
1.10645 -0.26884401 0.29688299
1.10818 -0.255162 0.29451796
1.08275 -0.24952601 0.29701298
1.00583 -0.28369102 0.31926596
0.99148905 -0.284477 0.32083797
0.989182 -0.27472001 0.31895196
0.97849602 -0.27283701 0.32091096
1.11633 -0.271514 0.29065296
1.10077 -0.27345198 0.29404896
1.09997 -0.262366 0.29240999
1.0865899 -0.25783598 0.29346398
1.05888 -0.265845 0.29854396
1.0016 -0.28786001 0.31297398
0.99074399 -0.28422898 0.31498498
0.97804606 -0.28277999 0.31589097
0.977171 -0.27340201 0.31481895
1.11176 -0.27509099 0.28479996
1.1019599 -0.271413 0.28758895
1.08472 -0.270428 0.29071698
1.0751799 -0.26381299 0.29006398
1.03695 -0.27661198 0.29862797
1.00863 -0.28471398 0.30448899
0.99360496 -0.28332001 0.30815598
0.97343904 -0.28799498 0.31083798
0.97323 -0.27699602 0.30933198
1.11725 -0.272282 0.27607396
1.10299 -0.27166098 0.27985898
1.09012 -0.267717 0.28277397
1.08737 -0.25972798 0.28026497
1.0376201 -0.27705699 0.29283595
1.01894 -0.279318 0.29579794
0.98954004 -0.28791001 0.30247596
1.12299 -0.268224 0.26888496
1.11703 -0.262198 0.26879898
1.09815 -0.26374099 0.27374995
1.11184 -0.243439 0.26729897
1.03189 -0.27770901 0.28663498
1.00805 -0.284502 0.29193297
0.98717397 -0.28683701 0.29570398
1.13731 -0.25705498 0.25924698
1.13349 -0.24934798 0.25825995
1.10541 -0.259709 0.26562297
1.03738 -0.27223101 0.27781096
1.00986 -0.283831 0.28485996
0.99317098 -0.28532401 0.28854996
1.10745 -0.258782 0.26003897
1.00938 -0.28316098 0.27789697
0.99032998 -0.286403 0.28248197
1.0137 -0.278799 0.26866195
0.99187696 -0.28529599 0.27502495
1.01484 -0.27721301 0.26142997
1.00035 -0.27966201 0.26531899
1.0225 -0.27075398 0.25262097
1.00103 -0.278707 0.25855497
0.97090501 -0.29077101 0.26749694
0.99860299 -0.28178599 0.25226596
0.98747998 -0.28062499 0.25560996
1.02424 -0.27304301 0.23830196
1.0027699 -0.279939 0.24398498
0.99091905 -0.27894101 0.24705097
1.03166 -0.27757901 0.23162998
1.01926 -0.27754 0.23412198
1.0018699 -0.27917001 0.23776695
0.981727 -0.28554899 0.24372998
1.03197 -0.27811101 0.22504398
1.01436 -0.280552 0.22905198
1.00341 -0.27752 0.23037796
0.99043798 -0.27849901 0.23454696
1.03733 -0.27569401 0.21600997
1.01785 -0.280837 0.22221397
1.00763 -0.27637899 0.22254696
0.99482697 -0.275428 0.22628598
1.04152 -0.27283299 0.20833698
1.01673 -0.28193501 0.21558098
1.00947 -0.273745 0.21392497
1.00388 -0.26694098 0.21496499
1.0333999 -0.27837601 0.20493096
1.01046 -0.28506902 0.20979698
1.01283 -0.269633 0.20573398
1.00016 -0.268195 0.20915695
0.97942197 -0.27574199 0.21560696
1.0265 -0.28315201 0.19971997
1.00834 -0.28781998 0.20462997
1.01219 -0.27237099 0.19995998
1.00324 -0.265623 0.20133297
0.99017698 -0.26637 0.20535095
1.02601 -0.28460398 0.19259396
1.0097001 -0.28699601 0.19805996
1.01591 -0.269297 0.19106697
1.0044301 -0.265073 0.19396298
0.99012899 -0.26628 0.19869298
1.02642 -0.284565 0.18663898
1.0207801 -0.278595 0.18671498
1.02736 -0.259958 0.17947796
1.0090699 -0.26154399 0.18504399
0.99544799 -0.26213801 0.18975097
1.0231099 -0.285849 0.18280396
1.0285701 -0.26964799 0.17697696
1.0269899 -0.25960299 0.17410496
1.01151 -0.26037002 0.17777798
0.99726403 -0.26141798 0.18249798
1.01106 -0.270942 0.17580399
1.01349 -0.25828698 0.17218795
0.99949098 -0.26011601 0.17605095
0.77396101 -0.39446399 1.9213319
0.775361 -0.38669601 1.9284619
0.78270501 -0.39745799 1.918992
0.78229105 -0.388879 1.9264619
0.78230399 -0.382467 1.9306419
0.78452301 -0.407729 1.903622
0.78085798 -0.40187401 1.9046119
0.78476697 -0.38965699 1.918022
0.79021102 -0.41454202 1.8946719
0.786538 -0.40828097 1.896032
0.78930998 -0.39639702 1.9063721
0.78786695 -0.38916501 1.9082221
0.79505503 -0.42067701 1.8859019
0.79536599 -0.412761 1.891032
0.79392999 -0.40327203 1.8956119
0.796157 -0.39134398 1.904852
0.794554 -0.38489398 1.9061121
0.80441499 -0.41632098 1.8866321
0.80197197 -0.408373 1.888442
0.79983002 -0.39818901 1.893782
0.80083501 -0.38804099 1.901482
0.80179399 -0.38075101 1.9060419
0.81287694 -0.42027599 1.881512
0.80796701 -0.41518903 1.878772
0.80152398 -0.40900299 1.8767819
0.79696101 -0.40279999 1.8782519
0.80336499 -0.389007 1.892602
0.81890601 -0.418607 1.876832
0.812011 -0.414143 1.871582
0.80818003 -0.40562999 1.8749619
0.80267602 -0.39914799 1.8756821
0.80719399 -0.38796502 1.8838919
0.81941104 -0.48201698 1.8306619
0.82166296 -0.42763901 1.862092
0.81873 -0.41979697 1.865842
0.81563699 -0.41258299 1.865212
0.812231 -0.403882 1.868782
0.80816495 -0.39591599 1.871582
0.81585604 -0.38289601 1.883492
0.81344706 -0.48578399 1.8149921
0.83625394 -0.42842901 1.865662
0.83178401 -0.42428002 1.8633319
0.82248396 -0.41898301 1.858532
0.81052804 -0.416269 1.849352
0.81393701 -0.40407199 1.859642
0.81488401 -0.392252 1.8683718
0.81952596 -0.38087699 1.8784519
0.81387901 -0.48703301 1.803822
0.81121302 -0.48099098 1.8037019
0.80643404 -0.46671799 1.807932
0.84070098 -0.42730001 1.860762
0.83074898 -0.425087 1.8523419
0.82268095 -0.41950199 1.846642
0.822092 -0.40829602 1.8546319
0.82086301 -0.39736199 1.859642
0.818887 -0.38951698 1.863392
0.83166903 -0.48513699 1.8110119
0.82106799 -0.48383999 1.8015021
0.80970299 -0.48103499 1.794032
0.81362897 -0.47106302 1.8021021
0.84803396 -0.43033901 1.8563319
0.84365195 -0.425751 1.8550119
0.83292097 -0.423271 1.8444819
0.82459098 -0.41866001 1.8394619
0.82158399 -0.410862 1.8414921
0.81926501 -0.40116701 1.8452621
0.82508105 -0.38743401 1.8580319
0.83202302 -0.48736599 1.7995219
0.82671094 -0.48200297 1.7982719
0.82464403 -0.47400102 1.801122
0.82662004 -0.46444303 1.8057818
0.84139001 -0.42762297 1.8418618
0.83902097 -0.42075002 1.8406619
0.82665098 -0.41715598 1.8320121
0.825216 -0.40561101 1.837702
0.82470202 -0.39568099 1.843382
0.824853 -0.38603002 1.8458719
0.85762399 -0.49133599 1.809082
0.85814697 -0.483246 1.8155119
0.84004098 -0.48543599 1.797912
0.83507502 -0.47792 1.7986619
0.83635002 -0.466988 1.8046319
0.84880096 -0.449175 1.823532
0.85609001 -0.43241298 1.8376819
0.843045 -0.42850798 1.829672
0.83390504 -0.42246601 1.825302
0.828125 -0.41622397 1.823562
0.82241899 -0.40952998 1.821802
0.82256299 -0.39736998 1.830272
0.81336403 -0.392804 1.8214319
0.819166 -0.37742099 1.8346319
0.81265801 -0.370491 1.8316919
0.86200798 -0.48981702 1.805932
0.854038 -0.48655102 1.801122
0.84541202 -0.48106 1.796142
0.83956099 -0.47416699 1.795122
0.845649 -0.46275797 1.8052119
0.86290097 -0.43588799 1.8346921
0.85227501 -0.432688 1.826052
0.84202904 -0.429959 1.818422
0.84195399 -0.420151 1.823562
0.83123702 -0.414534 1.8170121
0.82365501 -0.40858102 1.8134019
0.82182997 -0.39814898 1.8175519
0.81725305 -0.39001 1.8177218
0.80974799 -0.38457599 1.8134919
0.80766404 -0.37408 1.817872
0.81000298 -0.36205399 1.8259619
0.80319899 -0.35499901 1.821632
0.86290705 -0.48295799 1.8008319
0.85384697 -0.47926998 1.7946719
0.84937799 -0.47105399 1.7952521
0.86165702 -0.45624402 1.813272
0.88825697 -0.42413503 1.847882
0.85566497 -0.432601 1.819442
0.84803098 -0.42641899 1.8154221
0.843256 -0.41713297 1.8163919
0.83502406 -0.41213903 1.811632
0.83260596 -0.40283 1.8143821
0.82505 -0.39504501 1.8112118
0.81806803 -0.38866797 1.8099021
0.81035006 -0.383535 1.8054719
0.807558 -0.37482601 1.807222
0.79890501 -0.36842799 1.8041321
0.79211402 -0.36131501 1.800632
0.78472501 -0.35592499 1.796832
0.79045898 -0.338723 1.8113519
0.78947997 -0.32826197 1.8161719
0.78031301 -0.324002 1.8103119
0.87255204 -0.48469898 1.797712
0.86207998 -0.48269099 1.7911019
0.86081904 -0.47462001 1.793512
0.86344099 -0.46434298 1.801482
0.89422798 -0.42721099 1.845152
0.879471 -0.42823502 1.8324618
0.85710096 -0.43144101 1.8102119
0.845263 -0.428049 1.801422
0.84465402 -0.418708 1.8074219
0.84516299 -0.40703201 1.8138019
0.845402 -0.395818 1.8193519
0.83428901 -0.39010298 1.8134118
0.82779098 -0.38252601 1.8112919
0.81848097 -0.37715697 1.806622
0.81247199 -0.37074798 1.804202
0.80461305 -0.36533201 1.8000519
0.79590303 -0.36030301 1.796882
0.79002297 -0.352916 1.794722
0.78358805 -0.34628502 1.7941018
0.77921599 -0.33719599 1.795202
0.89770895 -0.479902 1.8103321
0.87839895 -0.48274699 1.7935419
0.86904997 -0.47941503 1.789542
0.87175202 -0.46983299 1.7954221
0.87325799 -0.43108299 1.8167219
0.86076105 -0.43020099 1.802912
0.84937102 -0.42722699 1.796402
0.84661001 -0.41859001 1.799202
0.86265296 -0.39545602 1.8238721
0.87231302 -0.38293701 1.836782
0.83924794 -0.374143 1.8173419
0.82753301 -0.37174302 1.807732
0.81688398 -0.36725 1.8010319
0.80815101 -0.361366 1.7954819
0.800632 -0.35542098 1.7934421
0.78965896 -0.352312 1.785468
0.78677696 -0.34276298 1.788705
0.77721494 -0.33716401 1.7843961
0.88400805 -0.480243 1.790382
0.877886 -0.47577399 1.788942
0.88124102 -0.46573102 1.7938919
0.86689299 -0.436526 1.796122
0.86397904 -0.42942199 1.7961121
0.855802 -0.42300901 1.7935519
0.85444701 -0.41142398 1.7998719
0.86700898 -0.39506501 1.818562
0.83442003 -0.36738801 1.808962
0.82787204 -0.36188 1.8060019
0.82121599 -0.35451499 1.8036121
0.80990499 -0.349287 1.7960418
0.79894799 -0.344901 1.7888319
0.79225504 -0.33778599 1.7856909
0.95960999 -0.45790499 1.851492
0.89336801 -0.475265 1.7910119
0.88403898 -0.472233 1.7842419
0.886733 -0.46090499 1.7903519
0.88425696 -0.436829 1.799942
0.86933798 -0.43588001 1.788649
0.859299 -0.43169498 1.7820621
0.85670996 -0.42322201 1.78321
0.85913903 -0.411302 1.7932019
0.816064 -0.33348501 1.802332
0.80376297 -0.33145902 1.792202
0.79476196 -0.32520598 1.787048
0.98266798 -0.48707101 1.850472
0.97587699 -0.48118699 1.847742
0.95896602 -0.47869098 1.834142
0.95137399 -0.47093898 1.8314319
0.94505 -0.465069 1.8284421
0.89938402 -0.473147 1.786595
0.88652498 -0.47122398 1.7770979
0.88574898 -0.46230301 1.780249
0.879695 -0.45258 1.7786969
0.87363899 -0.44338402 1.7791001
0.86283994 -0.43931702 1.772763
0.86094302 -0.43065399 1.7742
0.86367399 -0.418266 1.781716
0.86967695 -0.40595299 1.7938418
0.98585296 -0.49472699 1.8417319
0.97823405 -0.4885 1.839682
0.96728104 -0.48394001 1.831772
0.96284699 -0.47463101 1.831792
0.94735903 -0.47156897 1.819742
0.93314004 -0.46776402 1.8088119
0.91043502 -0.46927503 1.787825
0.89519 -0.46669102 1.777145
0.88171202 -0.46219003 1.7662729
0.87550199 -0.454568 1.764529
0.878115 -0.44351003 1.773953
0.86982805 -0.43713 1.77
0.86863101 -0.42631 1.7727829
0.87019098 -0.415508 1.778573
0.87007105 -0.40694499 1.783965
0.99944001 -0.49014801 1.8458019
0.97971398 -0.48777598 1.8316321
0.97157997 -0.47990599 1.8277119
0.95871699 -0.47530997 1.8184619
0.94653296 -0.47042599 1.8102119
0.92970496 -0.46810299 1.7964619
0.91106004 -0.46722302 1.7804401
0.89337301 -0.46581298 1.7658659
0.88674003 -0.45994702 1.7625431
0.882204 -0.45226201 1.761636
0.87662297 -0.44398102 1.7632239
0.87251401 -0.434957 1.7629019
0.87515199 -0.42249501 1.7705609
0.88279098 -0.407888 1.7851501
0.88577199 -0.397284 1.7944919
1.00017 -0.49035197 1.837182
0.99142802 -0.483852 1.8332319
0.98086405 -0.47771999 1.827412
0.97254503 -0.471405 1.823452
0.95418799 -0.470727 1.8084019
0.94104797 -0.46535197 1.799932
0.91887003 -0.46509999 1.77953
0.90186799 -0.46376202 1.764547
0.89339799 -0.45722198 1.7602249
0.8829 -0.451805 1.751772
0.87976301 -0.44169497 1.7562439
0.88120198 -0.42918599 1.76371
0.880983 -0.42074299 1.7667999
1.00288 -0.48027402 1.836922
0.99057502 -0.474877 1.829442
0.97647905 -0.471017 1.8197219
0.91066706 -0.466151 1.761238
0.90035599 -0.46265498 1.7546279
0.89195096 -0.45673302 1.748364
0.88534498 -0.45028499 1.746035
0.882954 -0.44199002 1.7484641
0.88574302 -0.42906398 1.757763
0.88611799 -0.42085701 1.7613189
0.91431803 -0.46383098 1.7556211
0.90664297 -0.45994702 1.7509259
0.893327 -0.45700601 1.738844
0.88966101 -0.44732398 1.7423569
0.88654703 -0.438151 1.7447799
0.89178705 -0.42654401 1.7545609
0.91913801 -0.461225 1.75209
0.90597099 -0.460298 1.7398629
0.89396894 -0.457104 1.7294809
0.88650399 -0.45093799 1.7283719
0.88579595 -0.440328 1.7324899
0.92130798 -0.45975199 1.744946
0.90688002 -0.45997298 1.731151
0.89257503 -0.45875198 1.7187049
0.89132202 -0.44756803 1.7234559
0.88775098 -0.438936 1.724231
0.89852202 -0.425459 1.739624
0.91420001 -0.463741 1.727829
0.903561 -0.46193698 1.7183599
0.89587194 -0.45607498 1.713966
0.891056 -0.44787601 1.7126819
0.88999701 -0.438858 1.718201
0.89495498 -0.42810699 1.727551
0.91255999 -0.464762 1.716575
0.90112704 -0.463218 1.706596
0.89534897 -0.456321 1.7039639
0.88957703 -0.44943002 1.7011459
0.89044499 -0.439639 1.7094431
0.909136 -0.46675 1.703586
0.89999902 -0.46397498 1.696052
0.89076304 -0.45908901 1.689823
0.88796502 -0.450822 1.690264
0.892829 -0.43936002 1.700308
0.909253 -0.46705601 1.693767
0.89814699 -0.46497199 1.684646
0.893305 -0.45682701 1.683358
0.89285201 -0.44668099 1.6879129
0.89420801 -0.43838 1.692633
0.90855902 -0.46895599 1.6814029
0.899589 -0.46375 1.6773529
0.89741796 -0.45541599 1.6774421
0.89130098 -0.44915199 1.677074
0.900581 -0.43490201 1.6898279
0.92611295 -0.47979501 1.6795028
0.920605 -0.47385898 1.679317
0.91234899 -0.470164 1.6744009
0.90563303 -0.46193501 1.673124
0.90274501 -0.452649 1.674953
0.895513 -0.44618499 1.6718179
0.90611804 -0.42942798 1.6861359
0.92183602 -0.482685 1.6679269
0.92155296 -0.475068 1.6716901
0.90921897 -0.471486 1.6631629
0.89713204 -0.46699002 1.6544909
0.89781499 -0.45554799 1.66216
0.89599299 -0.44569698 1.6624711
0.89596999 -0.43473202 1.6678391
0.89323896 -0.42643601 1.668421
0.88707805 -0.41832697 1.6647459
0.92310405 -0.482095 1.661341
0.913598 -0.47863498 1.6560379
0.90852094 -0.47167999 1.6533499
0.89719903 -0.46708599 1.645335
0.89595002 -0.456871 1.6508288
0.88714701 -0.45105597 1.644406
0.88562799 -0.441614 1.6489859
0.87891901 -0.43369099 1.6462259
0.86818606 -0.41664901 1.644276
0.92939496 -0.47928199 1.658406
0.91511297 -0.47879001 1.6478878
0.90053201 -0.47553599 1.6362979
0.89961195 -0.46565899 1.640134
0.89475304 -0.45806599 1.6401191
0.885831 -0.45190299 1.6341721
0.88643801 -0.44047999 1.641577
0.87519896 -0.424512 1.638576
1.0256 -0.52238899 1.704986
1.0247799 -0.51530701 1.706424
1.00515 -0.51575899 1.690681
1.00441 -0.507972 1.6927969
0.927203 -0.48111001 1.6477579
0.91290396 -0.480111 1.6358399
0.90356302 -0.47470102 1.6294169
0.89916396 -0.46564901 1.6318269
0.89343905 -0.457697 1.630811
0.89082998 -0.45010102 1.630353
0.88666999 -0.44129503 1.6317199
0.88314795 -0.43255699 1.6315061
0.88113803 -0.421904 1.6350461
0.87388396 -0.41362098 1.634401
1.0226899 -0.523606 1.695645
1.0068901 -0.52257997 1.6833758
0.99215502 -0.51963001 1.6724601
0.97476602 -0.51610202 1.658251
0.95759004 -0.51313096 1.64608
0.94843501 -0.506742 1.6410888
0.94889098 -0.495628 1.645631
0.94133204 -0.48905799 1.6430179
0.92181396 -0.48649701 1.6314011
0.91435301 -0.479146 1.6277119
0.90644097 -0.47337699 1.624537
0.902601 -0.465958 1.6250999
0.89953202 -0.45589501 1.6273569
0.89927399 -0.444612 1.630993
0.89690804 -0.43465 1.6337799
0.90220594 -0.420257 1.6442679
0.89713097 -0.411724 1.644447
0.88855004 -0.40505299 1.6410229
1.01886 -0.52587801 1.682349
1.0076001 -0.52119201 1.6766009
0.99025899 -0.51917499 1.6627319
0.97858596 -0.51451099 1.654413
0.95989901 -0.512411 1.6416401
0.94930494 -0.50653601 1.6349679
0.94032305 -0.49923599 1.6312439
0.92884803 -0.493431 1.626081
0.92160004 -0.48650101 1.6225228
0.91227895 -0.48097801 1.616243
0.91388494 -0.46895999 1.6239569
0.91155195 -0.45901299 1.626729
0.91117799 -0.44898999 1.629777
0.91653901 -0.434641 1.6403729
0.915353 -0.42365101 1.6456931
1.02763 -0.52380699 1.6801629
1.01169 -0.51991004 1.670913
0.99144995 -0.51727402 1.656045
0.97549003 -0.513372 1.6448951
0.96107101 -0.50940698 1.6353809
0.94891196 -0.50464201 1.6276459
0.94468004 -0.49656799 1.626726
0.92941302 -0.49325198 1.6178269
0.92188001 -0.485248 1.6144558
0.91289705 -0.48080501 1.6093549
0.91566706 -0.469926 1.6157418
0.91377699 -0.45919102 1.6194919
0.92145699 -0.44459203 1.6313181
1.02801 -0.516469 1.6754669
1.0096 -0.51209903 1.6645709
0.99297798 -0.506917 1.6531171
0.96742499 -0.50780797 1.6327851
0.95543599 -0.50373197 1.625378
0.94864196 -0.49724701 1.6218491
0.940054 -0.49068999 1.61743
0.92498398 -0.48611 1.607302
0.91739601 -0.47776902 1.6059189
0.917463 -0.46629298 1.6100751
0.91989899 -0.45556098 1.617016
0.98006701 -0.50209701 1.6379889
0.96479696 -0.49810201 1.6269079
0.95807505 -0.49136698 1.62359
0.923868 -0.49649101 1.59477
0.91806102 -0.48983699 1.5912961
0.91742599 -0.47940299 1.596025
0.91582298 -0.46882901 1.598947
0.92506599 -0.45365602 1.6111341
0.945382 -0.40293702 1.639657
0.94066399 -0.49772203 1.6005679
0.92292804 -0.49721199 1.585483
0.912839 -0.493512 1.578135
0.91186404 -0.48372298 1.5817059
0.92022496 -0.46815601 1.593873
0.92327601 -0.45512402 1.599938
0.93933702 -0.43541801 1.618001
0.94747001 -0.40189201 1.635484
0.95632005 -0.38878101 1.646758
0.935507 -0.49876201 1.58724
0.91746104 -0.49973801 1.572149
0.91563696 -0.49011502 1.573404
0.91763496 -0.47764701 1.5803469
0.92662901 -0.462441 1.592636
0.931813 -0.450378 1.599234
0.93196797 -0.438903 1.603085
0.93882203 -0.42245799 1.6140189
0.93996698 -0.40821999 1.620387
0.944924 -0.39510602 1.6294709
0.94236898 -0.38681301 1.6300229
0.93188399 -0.50048196 1.575002
0.92300302 -0.496833 1.5679889
0.92013097 -0.487937 1.5690179
0.916372 -0.48030499 1.570621
0.92973703 -0.46223998 1.5865369
0.93643099 -0.446897 1.595506
0.937181 -0.43497002 1.599133
0.93253797 -0.426458 1.6003709
0.93402398 -0.413899 1.6064509
0.93487394 -0.40186101 1.6116489
0.93940902 -0.38777801 1.620042
0.94272596 -0.37491402 1.626122
0.95050502 -0.360742 1.635928
0.93665904 -0.49945301 1.5690891
0.926929 -0.496813 1.562325
0.92167604 -0.48941898 1.561831
0.921381 -0.47796699 1.5665689
0.93497902 -0.45852298 1.582391
0.942321 -0.44254699 1.592604
0.93671697 -0.43497002 1.59163
0.93688101 -0.42433202 1.5955679
0.93027395 -0.417602 1.5949811
0.931849 -0.40567502 1.599831
0.93260103 -0.39342603 1.6048028
0.93221098 -0.38206699 1.6087948
0.93870497 -0.36830002 1.6179481
0.95885104 -0.49777198 1.5759979
0.938757 -0.49904001 1.562835
0.929138 -0.49413699 1.5569088
0.92834604 -0.48346502 1.561332
0.92769897 -0.47272202 1.5637031
0.941836 -0.454173 1.5810291
0.95514601 -0.437442 1.596073
0.94904101 -0.42745 1.5961709
0.94512498 -0.41765597 1.595945
0.93838203 -0.41145 1.5946618
0.93807501 -0.39903399 1.597651
0.93337405 -0.39006001 1.59881
0.936584 -0.37770301 1.604406
0.94674402 -0.362683 1.617285
0.98248595 -0.49820501 1.583033
0.97019202 -0.49583998 1.5759259
0.94175005 -0.49898201 1.555916
0.92661303 -0.49505502 1.5462948
0.92926198 -0.48280799 1.5535071
0.92906797 -0.473084 1.5561639
0.94286799 -0.456292 1.5733899
0.95580298 -0.41196099 1.5997589
0.94504797 -0.406014 1.593381
0.94358706 -0.394894 1.5947409
0.93732804 -0.38790199 1.5940619
0.94016504 -0.37620899 1.598841
0.94078398 -0.36692601 1.6027161
0.97701204 -0.50130796 1.572081
0.96908998 -0.49722803 1.5676529
0.94507402 -0.498153 1.550253
0.93091202 -0.494133 1.5422449
0.93027395 -0.48407298 1.5454719
0.92851996 -0.47554401 1.547932
0.94319397 -0.45953301 1.563956
0.95289904 -0.39013302 1.5972019
0.94700599 -0.38133597 1.595585
0.94495904 -0.371914 1.5966431
0.95228302 -0.35941899 1.605318
0.97293299 -0.51340097 1.555233
0.96659398 -0.508609 1.554247
0.95942003 -0.503775 1.551564
0.93067598 -0.49299598 1.535466
0.92882204 -0.48538503 1.5368179
0.93145502 -0.475088 1.542008
0.95960802 -0.362587 1.603804
0.96648806 -0.35037899 1.6120801
0.96656305 -0.51678002 1.544858
0.949503 -0.51810396 1.533569
0.93523002 -0.48031798 1.534497
0.93535799 -0.473194 1.5363128
0.96011299 -0.52019602 1.534565
0.93474901 -0.47924599 1.5255319
0.93989801 -0.47061598 1.5317199
0.94080806 -0.476832 1.5220679
0.94943398 -0.46625099 1.5315399
0.94139099 -0.47734299 1.513245
0.94950205 -0.46657503 1.5237809
0.94367301 -0.476226 1.5077189
0.94508797 -0.47534901 1.500982
0.98949403 -0.50504202 1.3542939
1.1847301 -0.590976 1.321404
1.1763901 -0.58720601 1.3180671
1.17501 -0.593934 1.311204
1.1800901 -0.58616102 1.3147409
1.20333 -0.59287 1.316003
1.1768399 -0.59451199 1.3050721
1.16678 -0.59147799 1.3012061
1.1820099 -0.593934 1.3000479
1.17311 -0.58946496 1.297055
1.1863301 -0.59201002 1.2952939
1.1705201 -0.58947897 1.288536
1.1962301 -0.58927298 1.292749
1.17378 -0.58674997 1.283121
1.12148 -0.588099 1.256683
1.09833 -0.58733398 1.246745
1.07743 -0.58650702 1.237716
1.0328801 -0.59117699 1.2162559
1.21162 -0.58550799 1.2934179
1.18594 -0.58231497 1.282648
1.14403 -0.58460599 1.2634399
1.1116 -0.58440703 1.248883
1.08504 -0.58416599 1.237389
1.05295 -0.58602101 1.2222099
1.02292 -0.58837199 1.207937
1.0000499 -0.59055597 1.197554
1.2142401 -0.576213 1.2908111
1.15079 -0.58329999 1.262234
1.13562 -0.57975399 1.2561439
1.0765799 -0.58531201 1.22824
1.04221 -0.58864099 1.211486
1.01162 -0.59267801 1.1974549
1.0523601 -0.59169698 1.209727
1.03956 -0.58893603 1.202979
1.0489 -0.593005 1.200835
1.0353 -0.59091902 1.193437
1.01876 -0.58861804 1.18686
1.18795 -0.47271198 1.2733639
1.09443 -0.59882498 1.2092739
1.10083 -0.58985001 1.2133349
1.0484101 -0.59559298 1.192986
1.03836 -0.59089804 1.1886239
1.03608 -0.58159602 1.189209
1.0221499 -0.57819098 1.184198
1.0097799 -0.57555401 1.1786979
1.20775 -0.47164902 1.277293
1.0839801 -0.601735 1.199855
1.0775 -0.59664297 1.198473
1.04626 -0.597601 1.185463
1.04248 -0.58868802 1.184773
1.03766 -0.580446 1.183789
1.03251 -0.57303399 1.183266
1.04423 -0.560202 1.188219
1.0659699 -0.60778099 1.185825
1.05853 -0.602323 1.184222
1.04846 -0.59652901 1.180177
1.0437 -0.58710998 1.1789459
1.04067 -0.57740802 1.180357
1.04417 -0.56739801 1.182567
1.06074 -0.55361801 1.190686
1.07119 -0.66287696 1.17011
1.05518 -0.61205298 1.173604
1.05497 -0.60416102 1.176174
1.0489601 -0.59667301 1.173679
1.0427899 -0.58842397 1.171389
1.0448899 -0.576635 1.1759909
1.04663 -0.56781 1.177317
1.0629799 -0.67125803 1.161273
1.06523 -0.66459602 1.1634719
1.08452 -0.65263295 1.173028
1.07085 -0.60698396 1.174688
1.05371 -0.60541403 1.1685109
1.0460299 -0.598095 1.165651
1.04599 -0.58813703 1.166415
1.0452501 -0.578031 1.1688781
1.0570999 -0.56523103 1.17548
1.07472 -0.66805804 1.1617459
1.0609601 -0.66584897 1.156446
1.07023 -0.65682197 1.1618249
1.06024 -0.61032599 1.1642929
1.0506301 -0.60565603 1.1604359
1.0523601 -0.59491199 1.162215
1.04972 -0.58513802 1.162397
1.05204 -0.57552797 1.1660509
1.05523 -0.66708803 1.148396
1.06028 -0.65838701 1.15042
1.05548 -0.61181301 1.154809
1.0568299 -0.60209399 1.156662
1.05205 -0.59337002 1.156001
1.04706 -0.58652598 1.154645
1.0591301 -0.574287 1.16224
1.06699 -0.66115403 1.146505
1.0636799 -0.65482301 1.1454589
1.08013 -0.64346498 1.1536109
1.0557901 -0.61473799 1.14713
1.0498999 -0.60743999 1.1462219
1.05453 -0.59452599 1.150614
1.05266 -0.58575499 1.1516939
1.05448 -0.57741296 1.1535289
1.08242 -0.65566903 1.146188
1.0668399 -0.65330201 1.141046
1.0766001 -0.641909 1.146294
1.08077 -0.61592001 1.1504359
1.0556301 -0.61553699 1.1413131
1.05625 -0.60586399 1.142457
1.05082 -0.597588 1.141822
1.05352 -0.58614999 1.1462179
1.074 -0.56985003 1.1569829
1.08807 -0.65385801 1.142966
1.07051 -0.65223998 1.136415
1.07173 -0.64231902 1.138083
1.07002 -0.63099098 1.139048
1.06893 -0.620152 1.14043
1.0570301 -0.61451799 1.13577
1.05522 -0.60459399 1.1368649
1.05118 -0.59744596 1.135626
1.05314 -0.58842897 1.1380049
1.08532 -0.64698303 1.137023
1.06541 -0.64441299 1.1287709
1.06138 -0.63498998 1.129118
1.06025 -0.62452596 1.1308639
1.05572 -0.61650503 1.128629
1.05445 -0.60520303 1.129928
1.0557599 -0.594652 1.132395
1.05774 -0.586712 1.1330459
1.0819 -0.64600301 1.128711
1.06979 -0.641873 1.124223
1.06171 -0.63530302 1.122697
1.0580001 -0.62576199 1.1235429
1.05443 -0.61571401 1.121878
1.0596299 -0.60265601 1.12552
1.05495 -0.59518397 1.1259379
1.06499 -0.583911 1.1295559
1.09252 -0.64214599 1.1260359
1.07883 -0.63980699 1.122491
1.0693001 -0.63390303 1.119431
1.05734 -0.62633699 1.11632
1.0611399 -0.61417902 1.117844
1.05574 -0.60595697 1.118071
1.06037 -0.59366298 1.121066
1.0735 -0.58048803 1.1274339
1.10917 -0.63647199 1.126127
1.0866101 -0.63604999 1.119277
1.0674 -0.63141704 1.11304
1.06042 -0.62374598 1.1116099
1.06442 -0.61375499 1.1132489
1.06186 -0.603993 1.1141049
1.05967 -0.59435797 1.1138989
1.0689499 -0.58269197 1.120214
1.13703 -0.62850499 1.132205
1.1075801 -0.62971002 1.121271
1.0833 -0.62720197 1.1128969
1.06627 -0.62252998 1.108219
1.06617 -0.61248404 1.10849
1.06231 -0.603365 1.1079719
1.05471 -0.59737998 1.1064689
1.06218 -0.586182 1.112029
1.1338201 -0.62297201 1.127551
1.09302 -0.622967 1.110502
1.07664 -0.61931801 1.1061779
1.06057 -0.61416 1.100793
1.05007 -0.60824901 1.098392
1.11587 -0.61418897 1.11405
1.09245 -0.61460501 1.106555
1.03478 -0.62125999 1.087382
1.11085 -0.60903096 1.108794
1.02903 -0.58304101 0.9793179
1.0282199 -0.57348299 0.98006797
1.04171 -0.557446 0.98289198
1.02926 -0.55299699 0.979918
1.0563301 -0.51199299 0.99143195
1.0490201 -0.50848299 0.98979294
1.0410399 -0.59381503 0.97551501
1.04891 -0.58358198 0.97874999
1.03813 -0.57883 0.97706795
1.04195 -0.56760103 0.97815496
1.0433201 -0.55637199 0.97850096
1.04331 -0.54703999 0.98011202
1.05114 -0.53627604 0.98340499
1.06741 -0.499542 0.99156493
1.06586 -0.49273801 0.99111295
1.06589 -0.48235101 0.99064696
1.06015 -0.57972199 0.97606295
1.05047 -0.57432002 0.974617
1.04609 -0.56460899 0.97364593
1.04422 -0.55530298 0.97365099
1.04377 -0.54683399 0.97497195
1.04712 -0.53792703 0.97742796
1.1026599 -0.47992402 0.99484199
1.07556 -0.48557499 0.98890495
1.07415 -0.47665402 0.98851699
1.08435 -0.46445599 0.99210495
1.0763099 -0.573663 0.97414398
1.05216 -0.57551897 0.96904695
1.05441 -0.56444097 0.96978295
1.04344 -0.55715299 0.96806794
1.04206 -0.54827499 0.96911699
1.03695 -0.54259199 0.96805799
1.0858001 -0.479637 0.98567599
1.07849 -0.47510502 0.98510796
1.07603 -0.466755 0.98424602
1.0818801 -0.57101297 0.97013694
1.06318 -0.57063997 0.96601194
1.05364 -0.56473601 0.96338594
1.0495501 -0.55622 0.96375793
1.04207 -0.54842097 0.96309799
1.03592 -0.54234904 0.96103096
1.1026599 -0.47066399 0.98388499
1.08527 -0.47029799 0.98080993
1.08833 -0.45886698 0.98182696
1.0976599 -0.44710898 0.98535699
1.0806199 -0.57069403 0.96392393
1.06162 -0.56910801 0.95958596
1.05422 -0.56168097 0.95866799
1.0489399 -0.55365503 0.95874596
1.04188 -0.546987 0.95662093
1.0420201 -0.53916597 0.95749998
1.11273 -0.465271 0.98089796
1.08942 -0.46815899 0.97567093
1.08436 -0.461532 0.97572601
1.0835 -0.453215 0.97551894
1.08843 -0.568187 0.95925993
1.06893 -0.56784302 0.95550096
1.0536699 -0.563595 0.95257097
1.0507599 -0.55355901 0.95344299
1.03873 -0.54902601 0.94941401
1.0374401 -0.54144502 0.95108092
1.10138 -0.46105301 0.97297591
1.08912 -0.45852903 0.97113395
1.08215 -0.452007 0.96808195
1.0896801 -0.56764102 0.95422196
1.0766701 -0.56588 0.95203698
1.05732 -0.56405902 0.947604
1.0504299 -0.55485404 0.94684196
1.03766 -0.54948801 0.94300401
1.0398999 -0.54062903 0.94561601
1.11137 -0.45441201 0.96944696
1.08611 -0.45767501 0.96380597
1.07792 -0.452481 0.96171701
1.0813301 -0.442509 0.96254998
1.09943 -0.56346804 0.95253599
1.07314 -0.56528002 0.94607794
1.0560399 -0.56101799 0.94186193
1.04318 -0.55613303 0.93944597
1.04081 -0.54856604 0.93844193
1.03978 -0.53962004 0.93864095
1.09293 -0.45390701 0.95917398
1.0816101 -0.449563 0.957232
1.0801001 -0.440752 0.95645994
1.06567 -0.55678099 0.93830699
1.0499901 -0.553873 0.93581098
1.0463099 -0.54543298 0.93471301
1.04449 -0.53612596 0.93420196
1.06835 -0.51428902 0.94051498
1.09394 -0.48950601 0.94782591
1.1079201 -0.47117299 0.95220596
1.11127 -0.457607 0.95420897
1.10849 -0.44727901 0.95602798
1.08576 -0.44839802 0.95233893
1.08123 -0.44002998 0.95122498
1.09319 -0.42566398 0.95507294
1.07386 -0.55204302 0.93375295
1.0530601 -0.55207402 0.93042892
1.0459599 -0.544227 0.929425
1.05277 -0.53093702 0.93071198
1.06416 -0.514606 0.93439299
1.08356 -0.49554798 0.94066191
1.09597 -0.479076 0.94495499
1.09907 -0.46607199 0.94603801
1.11388 -0.44644699 0.95125693
1.08759 -0.446444 0.94661093
1.0826 -0.43846297 0.94608992
1.07997 -0.43171701 0.94576293
1.08381 -0.54717302 0.93092299
1.06138 -0.54939997 0.926606
1.0503299 -0.54371703 0.92460096
1.03677 -0.53877604 0.92091697
1.05115 -0.52161598 0.92552894
1.07233 -0.50176501 0.93270898
1.09504 -0.47879902 0.93910295
1.10308 -0.46409303 0.94179296
1.11023 -0.45031798 0.94426191
1.10666 -0.438541 0.94426894
1.08805 -0.43542999 0.9419679
1.0779901 -0.430426 0.93835199
1.05818 -0.54841304 0.91999596
1.04228 -0.54496402 0.91660094
1.03697 -0.53669602 0.915851
1.05101 -0.52127898 0.91986102
1.0588 -0.508636 0.92403197
1.12275 -0.461557 0.94041795
1.11217 -0.458354 0.938945
1.12391 -0.44081798 0.94126594
1.12639 -0.42847699 0.94220996
1.08722 -0.433651 0.93533897
1.0875 -0.424007 0.93550497
1.0852101 -0.41699001 0.93476492
1.06352 -0.545322 0.91448593
1.0488 -0.54368502 0.91230994
1.04345 -0.53641897 0.91223001
1.0409 -0.52820498 0.91201502
1.04877 -0.51605099 0.91532296
1.12966 -0.44729802 0.93736297
1.12249 -0.44059399 0.93492699
1.12795 -0.42780101 0.93706399
1.10453 -0.42672002 0.93274796
1.08794 -0.422658 0.93007797
1.08829 -0.412806 0.92986298
1.0657099 -0.54409099 0.90989596
1.0525299 -0.54269797 0.90782493
1.04577 -0.53630197 0.90707797
1.02937 -0.53402901 0.90421599
1.12221 -0.44056401 0.93065995
1.12701 -0.42914799 0.93193895
1.1197699 -0.42061502 0.93057597
1.09174 -0.421379 0.92463499
1.08708 -0.41291499 0.92432195
1.08864 -0.40383598 0.92509794
1.03213 -0.55546302 0.89607596
1.04738 -0.54351801 0.90134794
1.041 -0.53809398 0.90009898
1.10791 -0.437767 0.92361796
1.10016 -0.41544899 0.92057002
1.0847 -0.414408 0.918221
1.08108 -0.40714002 0.91749299
1.04571 -0.54348803 0.89581198
1.04162 -0.53879499 0.89507699
1.11255 -0.40591598 0.91733599
1.08928 -0.40949601 0.91301399
1.09082 -0.39931801 0.91304892
1.01648 -0.54966098 0.88602901
1.0885 -0.40826902 0.906317
1.08534 -0.401079 0.90632194
1.09724 -0.386435 0.90943396
1.0917801 -0.40665999 0.89995694
1.08719 -0.39961898 0.90045798
1.08708 -0.389631 0.90132993
1.12424 -0.35095 0.90988898
1.08189 -0.41234502 0.89165097
1.08181 -0.40365899 0.89302695
1.08313 -0.391195 0.89430892
1.1002899 -0.36891103 0.89963198
1.11752 -0.347608 0.9049809
1.0902101 -0.41583401 0.88806373
1.0831701 -0.41138101 0.88747627
1.0828199 -0.40162101 0.88843048
1.07505 -0.39616099 0.88755387
1.08517 -0.37938899 0.89147496
1.08957 -0.366445 0.89406997
1.07655 -0.41527402 0.88209033
1.07543 -0.407065 0.88266081
1.03628 -0.46314499 0.83134902
1.03093 -0.47174701 0.82615829
1.03607 -0.463415 0.82756424
1.01797 -0.47692502 0.81986624
1.02512 -0.46780998 0.82116616
1.0219001 -0.46861199 0.81557101
1.0362201 -0.454761 0.81707054
0.97603601 -0.55467498 0.79872704
0.97939402 -0.54410195 0.79885602
1.02349 -0.46733898 0.80912817
1.03407 -0.45499501 0.8115356
0.97247499 -0.548011 0.79381007
0.987427 -0.531757 0.79523444
1.00665 -0.48545799 0.79999238
1.0184799 -0.47116199 0.80218178
1.02613 -0.459077 0.8051638
0.97405404 -0.556027 0.78867865
0.97705197 -0.544321 0.78929621
0.988787 -0.52978301 0.79084325
0.99937403 -0.51533902 0.79249632
1.00771 -0.49799901 0.79434085
1.01682 -0.48232499 0.79640996
1.01749 -0.472312 0.79663801
1.01952 -0.46260202 0.79785883
0.97870201 -0.55247802 0.78482437
0.98037004 -0.54137796 0.78572541
0.99040705 -0.52779901 0.78733462
1.0115499 -0.50617099 0.78956419
1.01735 -0.49265599 0.79075462
1.0231199 -0.47823602 0.79165095
1.02004 -0.46859902 0.79201198
1.0235801 -0.45756999 0.79247087
1.00181 -0.53227502 0.78507775
1.0462201 -0.496158 0.78816515
1.0336499 -0.49384603 0.78697586
1.02465 -0.48773399 0.78627729
1.02525 -0.47734299 0.78624099
1.0221499 -0.468391 0.78666461
1.01684 -0.46005797 0.78661537
1.0327101 -0.44304198 0.78857064
1.02573 -0.43763599 0.78683734
1.0558 -0.485414 0.78344369
1.03617 -0.484442 0.78218412
1.02442 -0.47974899 0.78140402
1.02516 -0.46814498 0.78109258
1.02272 -0.457394 0.78176028
1.02553 -0.445216 0.78279114
1.02663 -0.43645698 0.78277606
1.12304 -0.47618499 0.78359067
1.0913 -0.48083401 0.78058565
1.06738 -0.480461 0.77899379
1.04092 -0.48326999 0.77739495
1.03292 -0.47507399 0.77645063
1.02317 -0.46780398 0.77521157
1.02069 -0.45876598 0.77570754
1.0224 -0.44693002 0.77659553
1.02423 -0.43729499 0.7778551
1.1361001 -0.48211601 0.77915037
1.1116101 -0.483511 0.77741647
1.09653 -0.48076198 0.77585435
1.0755 -0.47817001 0.77404356
1.0424401 -0.48119801 0.77185708
1.0346299 -0.473627 0.77064407
1.02891 -0.465922 0.77064496
1.0219799 -0.458994 0.77068788
1.02143 -0.447981 0.77034539
1.0213799 -0.438696 0.77118701
1.1279399 -0.48728803 0.77314794
1.10811 -0.48563099 0.77159739
1.09364 -0.47998902 0.76993638
1.07014 -0.47924998 0.76774949
1.0518399 -0.477523 0.76699555
1.03286 -0.47634399 0.76582259
1.03091 -0.46663502 0.76533097
1.02245 -0.45785701 0.76458985
1.0225101 -0.44584399 0.76488197
1.0183899 -0.43973598 0.76561618
1.02837 -0.42717499 0.76696187
1.1701 -0.50674701 0.76790464
1.15907 -0.50043702 0.76777101
1.13307 -0.49789101 0.76679283
1.1217999 -0.49062902 0.76647568
1.10473 -0.48599997 0.76533729
1.09433 -0.47953302 0.76429594
1.07952 -0.47557399 0.76349401
1.0538501 -0.476318 0.76146728
1.03468 -0.47465098 0.76070523
1.02985 -0.46466401 0.7592659
1.01651 -0.46012002 0.75798255
1.0168 -0.45005101 0.7588743
1.01843 -0.44007802 0.76048487
1.15926 -0.51033998 0.76247275
1.1361799 -0.5072 0.76145446
1.12835 -0.49871898 0.76134253
1.11757 -0.49376202 0.76054782
1.1179 -0.483904 0.76084918
1.1056501 -0.478196 0.75995439
1.084 -0.47397098 0.75887811
1.0569999 -0.475032 0.7563073
1.0385 -0.47185397 0.75485289
1.02843 -0.465177 0.7534216
1.0274199 -0.456305 0.7543956
1.01796 -0.45116401 0.75339609
1.01397 -0.44375899 0.75334662
1.1624 -0.50989103 0.75668961
1.1444401 -0.50552398 0.75652593
1.13353 -0.49918598 0.75665724
1.12702 -0.49070498 0.75610387
1.1249601 -0.48057899 0.75573575
1.13519 -0.467565 0.75698256
1.06645 -0.46920502 0.75226092
1.04741 -0.46891898 0.75038046
1.02802 -0.466667 0.7478866
1.0241899 -0.45727298 0.74887502
1.01835 -0.44929901 0.74754876
1.0153099 -0.442799 0.74757379
1.15087 -0.50315899 0.75101352
1.1379 -0.49714902 0.75148958
1.14039 -0.48459399 0.75131857
1.14882 -0.47122601 0.75259918
1.03836 -0.470844 0.74364251
1.0286 -0.46532798 0.74194807
1.02136 -0.45772499 0.74255586
1.01292 -0.45199099 0.74187636
1.01595 -0.44249198 0.74200356
1.1619999 -0.49912301 0.74589711
1.1526999 -0.49116501 0.74676818
1.1621701 -0.47693902 0.74774122
1.0446 -0.467738 0.73801214
1.03065 -0.466097 0.73685056
1.02157 -0.459189 0.7362622
1.01955 -0.449099 0.73741251
1.01372 -0.442606 0.73526871
1.16216 -0.48893502 0.74086785
