# .PCD v0.7 - Point Cloud Data file format
VERSION 0.7
FIELDS x y z
SIZE 4 4 4
TYPE F F F
COUNT 1 1 1
WIDTH 1018
HEIGHT 1
VIEWPOINT 0 0 0 1 0 0 0
POINTS 1018
DATA ascii
0.848786 -0.79788101 1.103307
0.84068102 -0.79275805 1.0946339
0.83288103 -0.77576202 1.0893281
0.84069604 -0.77060699 1.0569921
0.85197699 -0.76734596 1.052145
0.84893698 -0.77447897 1.0472389
0.87183601 -0.80642599 1.040028
0.85515296 -0.76800102 1.031073
0.87506896 -0.80996001 1.0363131
0.85597998 -0.77923399 1.00951
0.86851799 -0.79646105 1.009207
0.85651499 -0.77911299 1.004753
0.860273 -0.77257597 1.003628
0.86846298 -0.75926203 1.003925
0.85708201 -0.77860701 0.99931699
0.86101097 -0.77257001 0.994313
0.86378098 -0.77431196 0.98361802
0.86998802 -0.77955002 0.979285
0.87227702 -0.770886 0.97770798
0.86893302 -0.78703904 0.97432691
0.86997598 -0.77849001 0.97371995
0.87199098 -0.769162 0.97198701
0.87303102 -0.79037803 0.96965599
0.87127501 -0.78010595 0.96835899
0.81270403 -0.74133795 1.104176
0.82157999 -0.76698303 1.1050119
0.82366401 -0.76017702 1.102854
0.82134104 -0.76582801 1.0981749
0.82862502 -0.77395403 1.0945101
0.82282203 -0.75007498 1.089839
0.82460803 -0.76336199 1.068518
0.83206904 -0.76664102 1.059122
0.83713204 -0.77100801 1.055374
0.84007102 -0.761033 1.046822
0.83152395 -0.74537498 1.0436721
0.84898204 -0.770338 1.0440739
0.83961195 -0.75244302 1.040674
0.85224998 -0.77300102 1.039095
0.85394096 -0.76567 1.032697
0.85554498 -0.77639902 1.028458
0.86956298 -0.79747599 1.015867
0.872069 -0.79953903 1.010287
0.87976897 -0.80601197 1.0071781
0.86625898 -0.77143699 0.98804301
0.86147797 -0.77560306 0.98198199
0.86389804 -0.74841398 0.972601
0.86402297 -0.74729699 0.96722502
0.87774301 -0.76546305 1.099839
0.885544 -0.760189 1.0901101
0.876275 -0.77537698 1.0705791
0.90172601 -0.74089402 1.053744
0.90325701 -0.75059199 1.054125
0.887541 -0.76970202 1.060575
0.90890503 -0.76028001 1.03852
0.89980799 -0.78034896 1.042516
0.90760201 -0.77498001 1.03333
0.90304899 -0.79267097 1.037192
0.91141099 -0.77130204 1.024675
0.90975797 -0.786048 1.0281169
0.91803396 -0.76579303 1.0148669
0.91177201 -0.781187 1.0194
0.912754 -0.77924299 1.011167
0.92211801 -0.77294803 1.000668
0.91669601 -0.76578695 0.99524796
0.92440397 -0.771429 0.99234998
0.91777605 -0.75152802 0.98596299
0.92010802 -0.76309997 0.98628998
0.91677499 -0.77607298 0.98788595
0.91198802 -0.73971099 0.97941399
0.91468596 -0.75243598 0.98012102
0.92728502 -0.76865196 0.97858095
0.93363404 -0.75443101 0.96862102
0.93151802 -0.76477206 0.96968001
0.89321196 -0.73492503 1.09902
0.89095998 -0.74807096 1.1011059
0.894153 -0.745417 1.0925701
0.884866 -0.75989801 1.0975569
0.90160203 -0.74056798 1.082617
0.88989997 -0.75740099 1.087575
0.89631897 -0.75681299 1.0776199
0.90051299 -0.74339503 1.0692849
0.90050697 -0.75498098 1.070092
0.880395 -0.77370501 1.0772901
0.90265501 -0.75313205 1.062534
0.89769399 -0.764938 1.065654
0.90403098 -0.73879999 1.054859
0.90736002 -0.74938303 1.053558
0.91123903 -0.75757897 1.054161
0.90518403 -0.75075603 1.047124
0.90829903 -0.75850302 1.04676
0.91561896 -0.75782502 1.0364521
0.918369 -0.75509399 0.988024
0.91553497 -0.74315 0.98274004
0.92053598 -0.75331706 0.98180002
0.92096198 -0.77901495 0.98302996
0.90821505 -0.80694503 0.98530799
0.88064694 -0.72614199 0.98406899
0.91949201 -0.75364602 0.97617602
0.93127406 -0.76034796 0.97201401
0.92880303 -0.77454203 0.97420502
0.91274697 -0.80442297 0.97837996
0.93541396 -0.75787699 0.96500397
0.93066299 -0.771415 0.96690905
0.89633203 -0.75256801 1.1078149
0.89195603 -0.74292701 1.102906
0.89462197 -0.75300699 1.102348
0.90032202 -0.76036 1.1014991
0.89893401 -0.73936099 1.092801
0.89796799 -0.75129998 1.0948349
0.89970702 -0.75967199 1.0947289
0.89746803 -0.75008202 1.087469
0.90009904 -0.758313 1.087956
0.90247399 -0.74730301 1.0793769
0.90366697 -0.755458 1.07906
0.901335 -0.74788499 1.07286
0.90651602 -0.75424796 1.070099
0.90179604 -0.74872202 1.065556
0.90801102 -0.75439399 1.062555
0.90528601 -0.74825996 1.058174
0.91205198 -0.75492203 1.0543511
0.91126096 -0.74698699 1.0500729
0.90941596 -0.75720805 1.048736
0.90251899 -0.76997596 1.0511509
0.90068102 -0.78020501 1.0517141
0.91126299 -0.74781305 1.042369
0.91828698 -0.75335902 1.040308
0.91271299 -0.76480597 1.042446
0.91070002 -0.77540606 1.043156
0.91339105 -0.76588899 1.035859
0.92274398 -0.77098799 1.032529
0.92219704 -0.76350403 1.0270649
0.92281199 -0.77072698 1.0258811
0.91942 -0.76348197 1.021643
0.92221904 -0.77153802 1.0194249
0.91845804 -0.76421499 1.01473
0.92563498 -0.77102399 1.00677
0.93272698 -0.75717795 0.99608094
0.91488898 -0.74266601 0.99310797
0.923015 -0.75035596 0.99274796
0.92766196 -0.75802201 0.99127799
0.93726999 -0.77503604 0.9889729
0.922221 -0.74904096 0.98634005
0.93121499 -0.75800794 0.98496401
0.935498 -0.76718497 0.98322296
0.93612099 -0.775711 0.98363495
0.920057 -0.74928099 0.98065996
0.92878801 -0.757613 0.97883898
0.93770796 -0.76546204 0.97555697
0.94087899 -0.77291495 0.976421
0.92572999 -0.74767601 0.97334296
0.93205398 -0.75808096 0.97130096
0.945261 -0.76245397 0.96806598
0.94271696 -0.77112198 0.96900296
0.935175 -0.75560701 0.96440399
0.93775398 -0.764929 0.964544
0.94690496 -0.76961499 0.96106398
0.90130502 -0.74857694 1.109378
0.90152395 -0.748716 1.102036
0.89367503 -0.74329495 1.099514
0.89981794 -0.750754 1.095233
0.90171206 -0.751221 1.088452
0.90524399 -0.74900597 1.0817399
0.90059304 -0.75018203 1.076176
0.89762604 -0.75149399 1.07029
0.90529299 -0.750404 1.062089
0.90846395 -0.75029701 1.0549901
0.90736198 -0.75070298 1.0477021
0.92355102 -0.75230199 1.0425689
0.92069298 -0.75330597 1.0386029
0.93101501 -0.70283204 1.085117
0.91757101 -0.714661 1.0724491
0.89718902 -0.73837501 1.076382
0.83304703 -0.70502299 1.0983
0.853311 -0.71507597 1.0846829
0.83479303 -0.706222 1.089479
0.82959199 -0.70217901 1.086651
0.84845704 -0.71089 1.075977
0.82569003 -0.69876999 1.084916
0.847018 -0.71016699 1.0717579
0.88984001 -0.73489702 1.0912529
0.89472997 -0.71208 1.091594
0.89949304 -0.73996902 1.0865409
0.90052497 -0.74032205 1.0794979
0.90613401 -0.75031996 1.059788
0.91126603 -0.74804395 1.0549459
0.90996695 -0.74906301 1.047236
0.91966403 -0.71881598 1.0498149
0.923217 -0.72010398 1.024981
0.92842597 -0.72709501 1.023298
0.92207199 -0.75152498 1.015381
0.92243695 -0.71880698 1.0151919
0.923356 -0.75096494 1.007794
0.92539704 -0.71516502 1.0087399
0.92888099 -0.72573096 1.008975
0.92565 -0.74897403 1.000995
0.93188202 -0.72296095 1.001235
0.93177396 -0.74509805 0.99517703
0.928563 -0.71063101 0.99502593
0.93638301 -0.72018796 0.99411601
0.93253303 -0.74447501 0.98718202
0.93035007 -0.71138299 0.98693895
0.90454596 -0.74149901 1.085305
0.928545 -0.71963096 1.044732
0.92688006 -0.71767998 1.009988
0.93388903 -0.717058 1.0055119
0.93186206 -0.71533304 0.99612099
0.93277299 -0.716344 0.98767
0.91559702 -0.71935797 1.032584
0.92935097 -0.72109103 1.040327
0.91564202 -0.71935701 1.024273
0.92644399 -0.721407 1.022403
0.92278999 -0.72137904 1.011737
0.92863405 -0.71948504 1.007201
0.92837501 -0.71877295 0.99986494
0.836092 -0.78955001 1.0942559
0.85685503 -0.78231597 1.07718
0.83538198 -0.79178298 1.089098
0.837731 -0.79179901 1.081441
0.83490896 -0.79452002 1.076398
0.86093199 -0.80088896 1.0244319
0.86361098 -0.79893601 1.015861
0.894301 -0.79920405 0.98484397
0.88145202 -0.79852098 0.99170393
0.86471605 -0.79967499 1.0002919
0.88054705 -0.80846804 0.98848295
0.87708998 -0.80138606 0.98826998
0.88308603 -0.80608702 0.97996092
0.87756503 -0.80103105 0.98156798
0.88250601 -0.80610299 0.97361201
0.87510198 -0.80155998 0.97628206
0.81727898 -0.75994796 1.095508
0.82294601 -0.757909 1.0867779
0.89019096 -0.80240798 1.042028
0.90994501 -0.80374801 1.024541
0.82880598 -0.78733599 1.069997
0.85025805 -0.780653 1.0497299
0.84811997 -0.78146797 1.0395379
0.85241401 -0.785851 1.0325921
0.83956599 -0.76726401 1.0177979
0.84712499 -0.76389199 1.0051559
0.84347606 -0.77202696 1.002827
0.84787399 -0.76441103 0.99796098
0.85550797 -0.75534105 0.99170899
0.85268599 -0.76228303 0.98821098
0.85404199 -0.75570196 0.98561293
0.85511202 -0.761168 0.97976702
0.86230499 -0.75278801 0.97331399
0.85113096 -0.76314199 0.97602201
0.85222101 -0.76973099 0.96998101
0.85599798 -0.76210701 0.96477294
0.82228303 -0.74793506 1.0789829
0.82539499 -0.74804604 1.070011
0.826873 -0.74775201 1.062686
0.82653201 -0.75159502 1.058652
0.83489197 -0.74581802 1.0512109
0.82917702 -0.75094104 1.05143
0.84134597 -0.743967 1.0420899
0.83212095 -0.75027102 1.045113
0.87850302 -0.77094299 1.103667
0.88206595 -0.77206904 1.097895
0.85764605 -0.77787697 1.0887359
0.88273299 -0.763336 1.0922379
0.88090795 -0.77313906 1.09052
0.86268997 -0.77921301 1.084386
0.88476199 -0.77221799 1.084851
0.87107301 -0.78072095 1.079914
0.88914198 -0.76263803 1.07955
0.89284104 -0.77369004 1.0805659
0.87993699 -0.78191 1.076126
0.86064696 -0.78840899 1.068578
0.90026003 -0.772183 1.0770069
0.88640505 -0.78233904 1.071015
0.902098 -0.76423103 1.070902
0.89738703 -0.77445799 1.068848
0.89417195 -0.78384501 1.066708
0.89971602 -0.76287001 1.06278
0.90437698 -0.77262199 1.065574
0.89896601 -0.78194398 1.062387
0.90686697 -0.77297997 1.059618
0.90449697 -0.77314001 1.050167
0.899176 -0.78398806 1.0471669
0.89428902 -0.79410398 1.046604
0.90734297 -0.77304804 1.0440559
0.90473396 -0.78185797 1.042822
0.898 -0.79287004 1.0402141
0.91029 -0.77372199 1.03808
0.90617502 -0.783737 1.036936
0.89813697 -0.79283798 1.0326641
0.91061699 -0.77356601 1.031045
0.91086304 -0.78275001 1.0314411
0.91149694 -0.77385801 1.024667
0.89930397 -0.79104304 1.017763
0.91410005 -0.77327901 1.017135
0.90634102 -0.79115194 1.013248
0.92255098 -0.77333999 1.0139979
0.915842 -0.78173697 1.010669
0.90930903 -0.79119498 1.0073069
0.88616502 -0.79882002 0.99547106
0.92128998 -0.77346605 1.006375
0.916044 -0.78406197 1.003406
0.92134303 -0.78153098 0.99868798
0.90908897 -0.79157305 0.99247301
0.90753603 -0.80128998 0.99121702
0.90323502 -0.80914903 0.988267
0.89767599 -0.76064199 0.97987503
0.92115802 -0.77239305 0.99098802
0.91747999 -0.78319603 0.98971295
0.91264802 -0.79309404 0.98610795
0.90883499 -0.80282599 0.98455
0.91135806 -0.80975699 0.98577601
0.92365503 -0.77250099 0.98486406
0.92248595 -0.78228104 0.98448801
0.923805 -0.79181099 0.98369002
0.91182798 -0.80072898 0.97858399
0.850142 -0.78524101 1.105505
0.88908499 -0.76549798 1.1052949
0.89025098 -0.77292997 1.104684
0.86682701 -0.777183 1.09613
0.89086998 -0.76618797 1.098714
0.88702601 -0.77278799 1.0964839
0.86943704 -0.77780896 1.089106
0.88455498 -0.76445198 1.0876551
0.88365 -0.77300596 1.08795
0.87140703 -0.77836096 1.083125
0.88394403 -0.77116996 1.081272
0.87898999 -0.77871001 1.0791949
0.87555605 -0.77853698 1.070033
0.89299893 -0.77252001 1.0687909
0.88112295 -0.78017598 1.064184
0.88059801 -0.78244501 1.0565
0.89914703 -0.77451301 1.057467
0.89499396 -0.78339404 1.055343
0.90203905 -0.77537203 1.0518579
0.90298599 -0.78592402 1.0516831
0.90451503 -0.77517599 1.045382
0.90170401 -0.784325 1.0451961
0.89294702 -0.79317397 1.0411259
0.903593 -0.78513199 1.0390229
0.865237 -0.799954 1.022563
0.86749703 -0.80929297 1.025878
0.88353598 -0.79261899 1.0229419
0.88948095 -0.79085296 1.017597
0.89406306 -0.79058999 1.011174
0.913854 -0.78601402 1.01331
0.89390504 -0.79086095 1.0026211
0.898561 -0.75404799 0.98800695
0.90997398 -0.78707606 0.99490297
0.91269499 -0.77693498 0.98896599
0.92528802 -0.78898597 0.99480599
0.91451895 -0.79552805 0.99116898
0.91050696 -0.80168098 0.98944503
0.92547899 -0.78706598 0.98727298
0.92546403 -0.79576403 0.98953903
0.923397 -0.77836996 0.97859693
0.92739302 -0.78765798 0.98099196
0.930767 -0.79493403 0.98332703
0.92880702 -0.78679603 0.97479093
0.93417704 -0.79446 0.97755206
0.87268996 -0.77554703 1.1065509
0.87867796 -0.76993895 1.1016569
0.87456596 -0.77652299 1.0992301
0.88090795 -0.77048796 1.093887
0.87686896 -0.77698702 1.092597
0.88187701 -0.76926398 1.0866619
0.881657 -0.77667296 1.086861
0.86724198 -0.78112799 1.083329
0.889332 -0.76910895 1.081758
0.88644898 -0.77702403 1.080886
0.87650704 -0.78304803 1.0784709
0.88926399 -0.76862901 1.0744159
0.88762701 -0.778332 1.07432
0.87259299 -0.78285199 1.069427
0.89125395 -0.76995903 1.068796
0.88960701 -0.778162 1.0676609
0.88136899 -0.78511298 1.065123
0.89356798 -0.769867 1.062716
0.888542 -0.77961999 1.059932
0.87958395 -0.78638601 1.056443
0.89209998 -0.77126199 1.054082
0.895549 -0.78061301 1.049044
0.89270502 -0.789024 1.0486979
0.90373498 -0.79155296 1.046598
0.911066 -0.78442103 1.0409371
0.91247499 -0.78346604 1.034961
0.87816805 -0.76874804 1.1026191
0.89031303 -0.75533205 1.0588601
0.90039599 -0.76685798 1.0578389
0.90737605 -0.79497999 1.019506
0.91155404 -0.79574096 1.015717
0.91019994 -0.79514199 1.008092
0.92066199 -0.78377604 1.003268
0.91515297 -0.79002297 1.003062
0.90537202 -0.79544604 0.99782503
0.913203 -0.77910894 0.99182099
0.91329598 -0.788625 0.99370301
0.906955 -0.79749298 0.991629
0.89336097 -0.80186301 0.98608595
0.92457801 -0.78252798 0.98966295
0.92013097 -0.78996104 0.98945999
0.91376197 -0.79772496 0.98794097
0.89681798 -0.80303496 0.98130697
0.88031 -0.80661905 0.97464502
0.915263 -0.787799 0.97977602
0.89668703 -0.80403298 0.974819
0.90086901 -0.77902299 1.0515269
0.85965401 -0.78106099 1.038136
0.86957198 -0.81208301 1.041718
0.89814401 -0.78418702 1.037594
0.90783697 -0.77771002 0.99888396
0.90291399 -0.78617799 0.99936795
0.91205704 -0.779383 0.99264097
0.909527 -0.79003698 0.99443102
0.920551 -0.78306901 0.98990601
0.90117204 -0.79638898 0.98485297
0.80562502 -0.78542101 1.098617
0.79188001 -0.77477598 1.073609
0.826388 -0.76144701 1.052137
0.82790899 -0.75995302 1.0489349
0.876993 -0.78755796 1.0054669
0.83300698 -0.79723501 0.99493599
0.86016601 -0.75190699 0.98500097
0.85463798 -0.75738198 0.97684097
0.86033899 -0.739999 0.98114395
0.84886003 -0.77095002 0.96733302
0.860888 -0.74932897 0.97340697
0.86179703 -0.737773 0.97615701
0.85125399 -0.768062 0.96264493
0.81544405 -0.76345301 1.1031779
0.825324 -0.76745003 1.0992479
0.82143098 -0.75979698 1.100053
0.81221396 -0.74759203 1.1013299
0.82012606 -0.75967699 1.094267
0.83496302 -0.77203596 1.088634
0.84291101 -0.77389002 1.0803189
0.84887099 -0.77266699 1.0688879
0.83538198 -0.77170599 1.065982
0.82573199 -0.76631898 1.0651
0.82378405 -0.765221 1.05919
0.83078301 -0.751481 1.063725
0.85768402 -0.77476799 1.060684
0.83651495 -0.76880401 1.055377
0.82794297 -0.76359701 1.054507
0.85186404 -0.778153 1.05233
0.83551103 -0.76871902 1.0498179
0.831155 -0.76196802 1.050131
0.83520299 -0.75201201 1.0532429
0.89679605 -0.79233199 1.053864
0.83862704 -0.76763499 1.0448329
0.83472502 -0.75997806 1.046373
0.83963603 -0.74963701 1.048353
0.893565 -0.792539 1.048611
0.84771103 -0.78242201 1.037464
0.84123594 -0.775271 1.037334
0.835334 -0.75967795 1.040432
0.89011198 -0.79080302 1.0430729
0.85648805 -0.78765702 1.034111
0.84874499 -0.78332901 1.0321441
0.84369397 -0.77536905 1.032227
0.83836603 -0.766298 1.034061
0.83679497 -0.75704902 1.0356899
0.85764003 -0.78740501 1.029536
0.84806997 -0.78282094 1.0268821
0.84162199 -0.77655196 1.0256469
0.84172201 -0.76540899 1.028455
0.83800596 -0.757083 1.0307339
0.84817201 -0.78139603 1.021479
0.845801 -0.77191496 1.022046
0.84231102 -0.755615 1.026371
0.84737396 -0.78075403 1.015221
0.84920603 -0.76979202 1.017736
0.84376997 -0.76408201 1.018459
0.84412003 -0.75594401 1.020021
0.84499705 -0.77391505 1.0105979
0.84931701 -0.76102501 1.014722
0.84825897 -0.77945703 1.004519
0.84535104 -0.77120799 1.006466
0.85101801 -0.77723002 0.99970901
0.84660798 -0.770262 1.001465
0.85450304 -0.77679199 0.99478799
0.84951699 -0.76848197 0.99636596
0.87727201 -0.78143305 0.99337095
0.86288595 -0.78122902 0.98998296
0.86105597 -0.77208 0.99144
0.85374999 -0.76728106 0.99178296
0.86097503 -0.773305 0.985659
0.873685 -0.78662401 0.98034698
0.85877401 -0.774064 0.97893298
0.85531801 -0.76608396 0.98097998
0.857436 -0.754381 0.98337495
0.859424 -0.74235296 0.98570997
0.85594398 -0.76449895 0.97531402
0.86205298 -0.74942899 0.98004603
0.87359399 -0.79277903 0.96943998
0.870857 -0.78641802 0.96914792
0.85307699 -0.76614404 0.96849704
0.86439699 -0.73639506 0.97643095
0.85620302 -0.76287401 0.96452898
0.81928802 -0.76489699 1.107525
0.82128602 -0.76375604 1.1031411
0.81810498 -0.76490504 1.0965229
0.82189798 -0.76267701 1.0922199
0.81991696 -0.75641501 1.093493
0.81979799 -0.75658798 1.087947
0.81985497 -0.76444703 1.074155
0.828982 -0.76228303 1.0720669
0.82715303 -0.76207197 1.0656509
0.82987601 -0.76164597 1.060894
0.83386302 -0.76751798 1.056093
0.82766801 -0.76053804 1.05514
0.82568496 -0.75237101 1.0570459
0.83252001 -0.76693803 1.049858
0.83476698 -0.75717598 1.0523089
0.83307803 -0.74863899 1.054216
0.870718 -0.81026602 1.0477539
0.83511901 -0.76589894 1.04536
0.83264297 -0.75946802 1.046507
0.83506203 -0.74944502 1.0489479
0.83618701 -0.757061 1.0423751
0.83980799 -0.74518204 1.045673
0.85311097 -0.73141402 1.052904
0.84401804 -0.77100098 1.03539
0.83644301 -0.76525903 1.035676
0.83483297 -0.75752401 1.036497
0.83931702 -0.74738294 1.0395399
0.84756601 -0.770504 1.0312669
0.838476 -0.76553202 1.030772
0.83625197 -0.75693202 1.032006
0.84915602 -0.76924598 1.026371
0.84082901 -0.76287699 1.0264701
0.83960098 -0.75351197 1.0282229
0.84421301 -0.74427104 1.0305949
0.84452599 -0.77050596 1.019667
0.84322304 -0.75262499 1.02364
0.84949499 -0.76917297 1.016292
0.84217399 -0.76362902 1.015964
0.84344399 -0.754278 1.0177209
0.849235 -0.767901 1.0104229
0.84643799 -0.760809 1.012403
0.85188597 -0.74910104 1.0152221
0.85358101 -0.772677 1.0060589
0.848014 -0.76835996 1.005178
0.84708399 -0.76007497 1.006539
0.85159498 -0.76666999 1.001408
0.84383696 -0.76189005 0.99957198
0.84496599 -0.75374705 1.0015919
0.85091001 -0.76551199 0.99583197
0.84357697 -0.76067704 0.99504995
0.84938103 -0.75197899 0.99698198
0.86349404 -0.77059996 0.99172598
0.856224 -0.76544702 0.99151003
0.850739 -0.75819504 0.99176192
0.85283202 -0.74940699 0.99260598
0.859339 -0.77235198 0.985596
0.85418403 -0.76450402 0.98557299
0.84909499 -0.75706804 0.98608994
0.85294503 -0.76481402 0.980057
0.85244906 -0.75558603 0.98153299
0.86202699 -0.742136 0.98577499
0.87243199 -0.775572 0.97794199
0.85619599 -0.76307899 0.97612703
0.84753603 -0.75781196 0.97492999
0.86285204 -0.74205804 0.98101592
0.87553102 -0.79066706 0.969881
0.871934 -0.77789801 0.97200894
0.85341597 -0.76585603 0.96950305
0.85521799 -0.754839 0.97209704
0.861839 -0.74167198 0.975025
0.85721397 -0.73474604 0.974581
0.87607002 -0.78288901 0.96691698
0.85877299 -0.76118201 0.96675903
0.856785 -0.75287497 0.96705198
0.81927902 -0.76038599 1.106089
0.80967903 -0.747311 1.104304
0.80840403 -0.738994 1.106132
0.82415497 -0.76030898 1.102849
0.81532097 -0.75493205 1.100307
0.82241797 -0.759247 1.084852
0.84999603 -0.77349401 1.07581
0.84657896 -0.77371299 1.070926
0.82338601 -0.75878406 1.0639679
0.82981497 -0.76412201 1.061131
0.82688004 -0.75765502 1.06006
0.82213205 -0.75230002 1.0604429
0.83268702 -0.763762 1.051407
0.829588 -0.75657099 1.051782
0.82644796 -0.74904299 1.050892
0.89682406 -0.78595001 1.0641639
0.85407603 -0.77168298 1.052218
0.83503604 -0.76221603 1.0473861
0.83032 -0.754673 1.047073
0.83159602 -0.74701697 1.0475219
0.85146695 -0.77396399 1.045328
0.83422601 -0.75375503 1.0432049
0.831204 -0.74702597 1.0428599
0.873151 -0.80268896 1.043015
0.85234499 -0.78310305 1.0390229
0.84283096 -0.77647203 1.037297
0.83156997 -0.76382005 1.035244
0.83549798 -0.75500602 1.0379291
0.83096999 -0.74742299 1.037865
0.85199898 -0.78469002 1.033574
0.83690298 -0.76153803 1.032815
0.83502603 -0.75320798 1.032644
0.89093 -0.79711306 1.04021
0.85111099 -0.78223199 1.02843
0.84471494 -0.776362 1.027192
0.83300799 -0.75449097 1.026377
0.83310401 -0.746378 1.028245
0.84969103 -0.77497399 1.024421
0.84188199 -0.76938903 1.0217121
0.83970904 -0.76044703 1.022583
0.83284599 -0.75348002 1.022048
0.83903503 -0.745529 1.024177
0.84671301 -0.77554804 1.018461
0.84422898 -0.76762497 1.017692
0.84033304 -0.76002902 1.016873
0.84004098 -0.75182605 1.019369
0.84209603 -0.74505597 1.019639
0.85215104 -0.77300298 1.0147229
0.84769994 -0.76610804 1.013598
0.83923894 -0.76069504 1.011492
0.84208196 -0.75160497 1.0142469
0.85083097 -0.74203598 1.0171911
0.85056299 -0.77257204 1.008257
0.84297097 -0.76651901 1.007442
0.84351701 -0.75820899 1.008484
0.847534 -0.748716 1.01085
0.859523 -0.73865896 1.0149601
0.84956801 -0.76499999 1.003935
0.84874606 -0.75513101 1.0052429
0.86193603 -0.73766297 1.0110099
0.85107398 -0.77216905 0.99800003
0.844886 -0.76662999 0.99729997
0.84302497 -0.75932503 0.99783897
0.84904802 -0.748106 1.0010581
0.87082702 -0.73487002 1.009948
0.86247301 -0.77516198 0.99595296
0.84942001 -0.76525599 0.99390298
0.84834599 -0.75599295 0.99446195
0.85197502 -0.74656504 0.99598098
0.84585196 -0.74286699 0.99558502
0.850196 -0.76285499 0.98904496
0.84695101 -0.75467104 0.98896104
0.85788202 -0.74386805 0.99308395
0.85597396 -0.73901802 0.99420798
0.85333705 -0.76337194 0.98425996
0.84716499 -0.75657099 0.98436499
0.854307 -0.74595803 0.98695898
0.86096603 -0.77715403 0.97954595
0.85614097 -0.76971 0.97911805
0.85296094 -0.76210403 0.97907096
0.85091799 -0.754848 0.98049104
0.86183298 -0.74299204 0.983675
0.85653394 -0.73855299 0.98420697
0.86965299 -0.77682197 0.97677094
0.85605502 -0.76257402 0.97500396
0.85359198 -0.75350702 0.97549301
0.865762 -0.74121201 0.979801
0.87055606 -0.78423697 0.97081602
0.86511099 -0.77581805 0.97054595
0.85536003 -0.76035398 0.97013903
0.85244697 -0.75365305 0.97017199
0.862975 -0.74310094 0.97420096
0.86146104 -0.73662001 0.97480398
0.869425 -0.77626604 0.96648192
0.85608202 -0.76168406 0.96538103
0.85648298 -0.75236899 0.96639997
0.86351603 -0.74190903 0.96991193
0.85475403 -0.75282598 0.96071303
0.86270303 -0.74316901 0.96428698
0.82459605 -0.76398903 1.10638
0.81552005 -0.752675 1.102496
0.81144798 -0.74582899 1.096867
0.81346297 -0.73761803 1.093775
0.82016295 -0.73452103 1.086442
0.85304397 -0.77414203 1.071172
0.82864797 -0.75820804 1.059615
0.82992697 -0.75818497 1.0553529
0.85741097 -0.77430701 1.0594471
0.83466601 -0.76384401 1.051507
0.82726401 -0.75672895 1.049371
0.85732299 -0.77459198 1.053358
0.85043997 -0.76808095 1.0513049
0.83337998 -0.76282001 1.046487
0.83303595 -0.75611901 1.046325
0.87400597 -0.78048897 1.052855
0.85169297 -0.77537698 1.045956
0.84019798 -0.76199096 1.043815
0.83045 -0.75515997 1.0409579
0.83954597 -0.756428 1.039075
0.85862899 -0.78293401 1.03716
0.85309404 -0.77668405 1.036876
0.84692496 -0.769198 1.0342779
0.83343905 -0.75533503 1.031966
0.89504898 -0.79547 1.044371
0.841887 -0.76173204 1.028881
0.85612798 -0.77589697 1.02722
0.84904802 -0.76810503 1.025892
0.84497905 -0.76147902 1.024911
0.84123003 -0.75608397 1.024075
0.84573996 -0.76177597 1.020262
0.84479696 -0.75572199 1.0194581
0.84564102 -0.76792002 1.0148469
0.84764802 -0.76051903 1.015541
0.84285796 -0.75538695 1.01368
0.84170502 -0.76090401 1.0088789
0.84307599 -0.755301 1.008797
0.85298896 -0.77262902 1.006587
0.84763497 -0.76070601 1.005505
0.84352994 -0.754906 1.0038761
0.84615898 -0.75976503 0.99957395
0.84849 -0.75363898 1.0009331
0.85133201 -0.76509005 0.99603105
0.85624498 -0.75790495 0.99826401
0.84858203 -0.75379097 0.99621201
0.86023104 -0.77078301 0.99298596
0.85840899 -0.765136 0.99288595
0.85239798 -0.758964 0.99259698
0.85600096 -0.75260299 0.99303299
0.86165297 -0.77068299 0.98835802
0.858253 -0.75832295 0.98885298
0.85040498 -0.75292897 0.98604602
0.85820603 -0.77270502 0.98177201
0.85383797 -0.75770897 0.98198897
0.85560501 -0.75147796 0.98332506
0.87064099 -0.779028 0.97976303
0.85301101 -0.75724 0.97677594
0.849805 -0.752321 0.97728503
0.87465501 -0.77837896 0.97643697
0.85625702 -0.75730401 0.97293097
0.852121 -0.75205499 0.97320801
0.87422401 -0.777659 0.97154695
0.85534304 -0.764691 0.96697998
0.85571897 -0.75159401 0.96928602
0.89597505 -0.75187498 1.108768
0.89115196 -0.75106299 1.104314
0.89467102 -0.76159501 1.101325
0.89013898 -0.74149203 1.098874
0.89440101 -0.75249499 1.095683
0.89144301 -0.76208001 1.0966181
0.88630098 -0.76928705 1.098542
0.88924599 -0.74040604 1.0924569
0.89520597 -0.75186205 1.0882109
0.890733 -0.76202202 1.090834
0.88327003 -0.76955396 1.0933659
0.89545405 -0.741947 1.083014
0.89789802 -0.75161099 1.081515
0.89850098 -0.76087797 1.080846
0.88074899 -0.76906997 1.088238
0.89974296 -0.75072801 1.07514
0.90111101 -0.76119798 1.072808
0.89001703 -0.76871401 1.078228
0.89984 -0.75142199 1.068078
0.90423304 -0.76159894 1.065156
0.89948702 -0.76898301 1.0682731
0.90569502 -0.75254798 1.0597811
0.90616995 -0.76198405 1.05795
0.89757001 -0.76921797 1.062193
0.91003901 -0.75164002 1.0516299
0.90765405 -0.76252502 1.051167
0.905047 -0.77024102 1.052779
0.90632004 -0.75097501 1.046904
0.91019499 -0.76038301 1.0449409
0.90545404 -0.77065599 1.0457519
0.87975198 -0.77685899 1.055729
0.91099501 -0.75130099 1.0399179
0.91132402 -0.76140898 1.038331
0.91712898 -0.77158999 1.0351501
0.91797096 -0.78296602 1.034958
0.91538399 -0.76192498 1.030652
0.91770697 -0.77304101 1.028764
0.91445601 -0.78427696 1.03013
0.914756 -0.76173598 1.0243421
0.91859198 -0.77169198 1.022151
0.91359597 -0.781308 1.024014
0.87544298 -0.74227899 1.0309089
0.91824603 -0.76267797 1.016645
0.91966403 -0.77297598 1.016842
0.92666298 -0.76274103 1.0078059
0.920802 -0.77142197 1.010941
0.92462999 -0.769261 1.003099
0.92220998 -0.75973505 0.99680102
0.924496 -0.76975995 0.99539596
0.92885101 -0.761742 0.98813701
0.93031198 -0.77264297 0.98707002
0.91514295 -0.78010803 0.99120694
0.91378999 -0.74075502 0.98818398
0.91974503 -0.75087601 0.98567992
0.92917395 -0.76078695 0.98190302
0.93073899 -0.77168196 0.98105699
0.92261201 -0.78128403 0.98371994
0.92751998 -0.751912 0.977745
0.93545699 -0.762344 0.97412497
0.93521798 -0.77272904 0.97371
0.92992598 -0.781241 0.97587204
0.92478997 -0.75131696 0.97230399
0.93776399 -0.76149905 0.96799302
0.93804395 -0.770823 0.96718299
0.938393 -0.780339 0.96791399
0.93579102 -0.76028395 0.96291
0.94119698 -0.77021599 0.96021104
0.89427495 -0.75020403 1.108716
0.88911402 -0.742275 1.105594
0.89358902 -0.75072199 1.1017709
0.88965106 -0.75738901 1.102988
0.89490098 -0.74365401 1.096096
0.89283097 -0.75013196 1.094842
0.89077598 -0.75703698 1.096493
0.89447701 -0.74287802 1.088714
0.89974195 -0.75093198 1.086327
0.89723295 -0.75745302 1.087023
0.900877 -0.75079501 1.079415
0.90350699 -0.75918502 1.078161
0.90620005 -0.75205398 1.070053
0.89890701 -0.75959396 1.072847
0.90480202 -0.75236297 1.064196
0.90389395 -0.76151198 1.0643129
0.90491503 -0.75054002 1.0591919
0.90506303 -0.76159698 1.057278
0.907107 -0.751504 1.052153
0.909778 -0.76328498 1.0485801
0.89219499 -0.77089304 1.054759
0.87882203 -0.77725101 1.059166
0.91749299 -0.75377798 1.0415829
0.91309196 -0.76456296 1.041106
0.90173894 -0.77329099 1.045067
0.89765406 -0.78313202 1.046826
0.91688001 -0.76333398 1.0340531
0.91080099 -0.77376503 1.035712
0.90438199 -0.78450894 1.0378389
0.90273303 -0.79431999 1.037847
0.91628897 -0.764458 1.0276771
0.91654098 -0.77333903 1.028144
0.90718001 -0.78233498 1.0303619
0.902937 -0.79193097 1.03143
0.91376901 -0.76293296 1.0223809
0.91473997 -0.77388704 1.0226799
0.92419297 -0.76455396 1.01248
0.918369 -0.75344801 0.99568999
0.92717004 -0.76488703 0.99174601
0.9138 -0.74204099 0.99108094
0.92760497 -0.75509804 0.98736495
0.925511 -0.76462197 0.986036
0.91169703 -0.73987603 0.98545897
0.92351502 -0.75292999 0.98223495
0.92824697 -0.76489997 0.97900301
0.91712195 -0.74266899 0.97804505
0.92856199 -0.75508696 0.974792
0.93555903 -0.76548404 0.97092599
0.93409801 -0.775756 0.971681
0.92695099 -0.78435206 0.97409302
0.92957801 -0.75439 0.96867502
0.93915498 -0.76477098 0.96432197
0.89705801 -0.76405996 1.106755
0.88750702 -0.770064 1.1093659
0.89552099 -0.75527495 1.102221
0.89528704 -0.765531 1.101331
0.88347399 -0.77036399 1.1052229
0.89204299 -0.75132203 1.097352
0.89444804 -0.76367104 1.0948379
0.88474 -0.77049601 1.0988539
0.892932 -0.75367898 1.090247
0.89620501 -0.76392305 1.086719
0.88436204 -0.76951402 1.09192
0.89160699 -0.75237298 1.083815
0.89693606 -0.76353699 1.079806
0.89636397 -0.77275002 1.079706
0.90386599 -0.76705199 1.070526
0.88822001 -0.77376199 1.074916
0.90442395 -0.75665396 1.06533
0.90637201 -0.76681799 1.0629261
0.89408201 -0.775047 1.066469
0.89881104 -0.78664702 1.0644259
0.90718001 -0.75648499 1.057882
0.90429997 -0.76789999 1.057146
0.89456803 -0.78553498 1.060086
0.90055901 -0.74328303 1.055558
0.91126001 -0.75830102 1.049212
0.91257399 -0.77028501 1.047834
0.899993 -0.77754205 1.052937
0.90825403 -0.74626195 1.045911
0.91018999 -0.75712502 1.0436349
0.91462499 -0.76899397 1.040783
0.90344703 -0.778593 1.0450239
0.91317296 -0.758183 1.0370259
0.91534203 -0.76956099 1.0335259
0.90767998 -0.77962899 1.036325
0.910375 -0.79089499 1.034515
0.91921896 -0.76168996 1.0279551
0.91812402 -0.77020103 1.027043
0.90978998 -0.77778196 1.0289999
0.901223 -0.78718001 1.0314599
0.92648399 -0.76506501 1.017799
0.91387802 -0.76982099 1.022784
0.93086195 -0.76561999 1.009601
0.91838801 -0.77107501 1.014818
0.929663 -0.76480699 1.003605
0.92891002 -0.77117699 1.0048909
0.92786497 -0.76507497 0.99759793
0.92932802 -0.77103502 0.99794096
0.93443495 -0.76648903 0.98898894
0.92855299 -0.771703 0.991548
0.93357903 -0.76410699 0.98275602
0.93225402 -0.77251196 0.98373199
0.91345298 -0.77544999 0.98910201
0.92032504 -0.74932402 0.98225492
0.933869 -0.76273501 0.97752702
0.93285006 -0.77152705 0.97731596
0.92834997 -0.77914703 0.97822601
0.91551101 -0.74602503 0.97837698
0.93499297 -0.76278901 0.97139198
0.92767197 -0.77243203 0.97258806
0.927908 -0.780523 0.97189105
0.92560899 -0.75039101 0.96940005
0.935202 -0.76323098 0.964185
0.93710703 -0.77330297 0.96426499
0.89485902 -0.76126099 1.106971
0.893062 -0.74916804 1.1017799
0.88811994 -0.76779097 1.1021719
0.8901 -0.739411 1.098103
0.89685601 -0.75101095 1.093482
0.89860702 -0.76264 1.090858
0.88840699 -0.767865 1.0955299
0.89238501 -0.73966599 1.089775
0.89862996 -0.75194097 1.085107
0.89690298 -0.76278299 1.084687
0.88957 -0.76833606 1.08811
0.90318102 -0.75181997 1.076774
0.89711601 -0.76181501 1.077705
0.888955 -0.768417 1.08123
0.90249902 -0.75309199 1.070104
0.897156 -0.76351303 1.070526
0.88759595 -0.76880997 1.073912
0.90780997 -0.75354499 1.061752
0.89967203 -0.76320398 1.063054
0.891801 -0.77100897 1.0659219
0.88293803 -0.77621806 1.0679979
0.91671699 -0.74642998 1.053761
0.90792298 -0.75558698 1.055468
0.90980399 -0.76784205 1.052213
0.89355397 -0.77406996 1.057879
0.92020202 -0.74688005 1.0454509
0.91483003 -0.75808996 1.046205
0.90766996 -0.767744 1.0464129
0.90463305 -0.789051 1.046317
0.91774297 -0.75696295 1.0379989
0.911838 -0.76788801 1.039133
0.90429199 -0.78676498 1.039928
0.91773802 -0.75768203 1.0316299
0.91500604 -0.76814902 1.03106
0.91020203 -0.77895302 1.03304
0.91704202 -0.75773299 1.025926
0.91960502 -0.77022398 1.0223169
0.92329597 -0.77117401 1.01411
0.91207397 -0.77810401 1.01904
0.92861801 -0.77312303 1.006465
0.915317 -0.777156 1.0102429
0.90342003 -0.74528199 1.010487
0.92362702 -0.76044601 1.00217
0.922288 -0.770832 1.001971
0.92403197 -0.76128799 0.99515593
0.92136598 -0.77179497 0.99499297
0.91711307 -0.77853203 0.99690902
0.92045599 -0.74764001 0.99091399
0.93261701 -0.76274103 0.98612595
0.93259102 -0.77451897 0.98507601
0.92249495 -0.78130698 0.987894
0.92841601 -0.75165099 0.98219299
0.93552202 -0.76553595 0.979491
0.937186 -0.77710295 0.97671998
0.93092698 -0.78512901 0.978733
0.92690104 -0.79181999 0.97963393
0.92582101 -0.74771303 0.97645795
0.93467402 -0.76462996 0.97287399
0.94317704 -0.77945602 0.96890295
0.93928802 -0.755674 0.96599501
0.94160199 -0.76772302 0.96409196
0.93494904 -0.77503604 0.96617204
0.89178497 -0.75029403 1.109913
0.89385104 -0.75912005 1.1086141
0.89560997 -0.75049204 1.0937649
0.88615304 -0.75460899 1.0979609
0.89543504 -0.75016701 1.0864379
0.89288801 -0.75766999 1.088238
0.89696401 -0.75035501 1.0783889
0.89263999 -0.75794703 1.0806481
0.89891195 -0.75067198 1.070863
0.89668405 -0.76119596 1.0704941
0.89991701 -0.7403 1.058668
0.904504 -0.75515401 1.054104
0.88940299 -0.77555197 1.057825
0.90998298 -0.75776297 1.045159
0.902834 -0.76752698 1.0471629
0.88383502 -0.77236003 1.052815
0.895114 -0.78920996 1.048493
0.91436797 -0.75944602 1.037001
0.90571296 -0.76816499 1.039209
0.85662597 -0.77991796 1.0511811
0.91278803 -0.76967597 1.030157
0.91552103 -0.76188004 1.023273
0.92544502 -0.76494402 1.005713
0.91546702 -0.76942706 1.009643
0.91915298 -0.77016801 1.001382
0.926705 -0.76427001 0.99189806
0.92650002 -0.77347398 0.99131799
0.91848099 -0.73984098 0.98847795
0.92215699 -0.75180298 0.98786193
0.93182802 -0.767012 0.983899
0.92735898 -0.77609599 0.98287094
0.92912 -0.75477701 0.979366
0.93183196 -0.76835603 0.97691298
0.92651802 -0.77716005 0.976457
0.91181803 -0.77890605 0.98065203
0.93805605 -0.76026607 0.97043997
0.93343699 -0.76995599 0.96956497
0.93289703 -0.78010398 0.96910596
0.93794996 -0.75961095 0.96368104
0.94279504 -0.773206 0.96110201
