# .PCD v0.7 - Point Cloud Data file format
VERSION 0.7
FIELDS x y z
SIZE 4 4 4
TYPE F F F
COUNT 1 1 1
WIDTH 1057
HEIGHT 1
VIEWPOINT 0 0 0 1 0 0 0
POINTS 1057
DATA ascii
0.89866698 -0.59574598 0.70901918
0.91295099 -0.62272298 0.70474714
0.89617896 -0.59362704 0.70350295
0.89882898 -0.59696996 0.6989277
0.893682 -0.59206796 0.69382942
0.89383596 -0.58341599 0.69422066
0.89117402 -0.59867597 0.68947542
0.89308405 -0.59216398 0.68834198
0.89718002 -0.58471602 0.68975526
0.89122099 -0.60188597 0.68389136
0.88876802 -0.59043199 0.68325579
0.89463896 -0.58262902 0.684367
0.88904899 -0.600425 0.67893672
0.88226599 -0.58669996 0.67868972
0.89204806 -0.58307701 0.67955214
0.88294899 -0.59546697 0.67424697
0.88857496 -0.58083701 0.67481041
0.88427496 -0.57660198 0.67044181
0.888861 -0.59129602 0.66412783
0.88789296 -0.57954001 0.66546965
0.89032698 -0.57189703 0.66436034
0.88809097 -0.58053797 0.65982765
0.88567495 -0.58822203 0.65466601
0.88806897 -0.57833803 0.6543873
0.89093 -0.570391 0.65479219
0.88519096 -0.58633 0.64961183
0.88330495 -0.57560301 0.64967537
0.893664 -0.57137197 0.64986551
0.88665396 -0.607669 0.64452988
0.88252699 -0.57722598 0.64544356
0.88928705 -0.57049102 0.64468843
0.88407499 -0.587479 0.63938582
0.88279402 -0.57676703 0.64005381
0.88916099 -0.56940699 0.63961911
0.88190699 -0.58430201 0.63503951
0.877083 -0.57315999 0.63592678
0.88060099 -0.56624597 0.63561398
0.88114703 -0.58519602 0.62994832
0.886145 -0.569538 0.63026834
0.88706899 -0.55985403 0.6309672
0.87722296 -0.58266699 0.62491137
0.88262802 -0.566194 0.62608057
0.87621999 -0.581698 0.61982054
0.88525397 -0.56660801 0.62129474
0.87387902 -0.58029902 0.61537701
0.87872499 -0.57416302 0.61604887
0.88430601 -0.56714499 0.61677587
0.93640798 -0.55407602 0.6119234
0.87585402 -0.57364601 0.61164957
0.88555801 -0.56862998 0.61141169
0.96012998 -0.56626999 0.6061399
0.88015401 -0.57556802 0.60598516
0.882761 -0.56715304 0.60691279
0.87898904 -0.57498002 0.60123086
0.86951399 -0.57739401 0.59665018
0.87877196 -0.57483399 0.59687161
0.87473899 -0.56573397 0.59664428
0.86992896 -0.58579499 0.59061795
0.87132698 -0.57902801 0.59163493
0.87344098 -0.57178396 0.5926491
0.87132102 -0.586959 0.58603817
0.87120301 -0.57955199 0.58633238
0.87479597 -0.572667 0.5874545
0.87353796 -0.57175398 0.58215708
0.86951202 -0.58710599 0.57576185
0.87464303 -0.57344699 0.57668149
0.87138903 -0.590321 0.57021409
0.87355697 -0.57109904 0.57216448
0.86716002 -0.58640301 0.56653953
0.87108999 -0.57087004 0.56789368
0.87460297 -0.56543201 0.5674423
0.87144095 -0.59171301 0.56067336
0.87048697 -0.570894 0.56287462
0.87807703 -0.567478 0.56117797
0.868276 -0.58772802 0.55623049
0.87246203 -0.570858 0.55726677
0.879637 -0.56694299 0.55578631
0.86977202 -0.57888901 0.55208158
0.87360704 -0.57007098 0.55200201
0.882366 -0.56637502 0.55038947
0.86947405 -0.58949602 0.54645461
0.89726305 -0.60392201 0.71172768
0.89969903 -0.61506498 0.70687371
0.91961306 -0.62736899 0.70092845
0.91112 -0.61235404 0.69629157
0.89656198 -0.592453 0.69630885
0.89648002 -0.58054399 0.69576126
0.89758903 -0.570692 0.69516259
0.88985604 -0.58585703 0.69041353
0.89480102 -0.57784301 0.690916
0.88892096 -0.59788001 0.68521011
0.88784105 -0.585904 0.68436986
0.89191598 -0.57598501 0.6857627
0.88586599 -0.59580398 0.67995244
0.88336504 -0.583242 0.67951703
0.88941497 -0.57609999 0.67982018
0.883452 -0.59212399 0.67481214
0.88411903 -0.58127099 0.67506242
0.88488799 -0.57242501 0.67537141
0.88548303 -0.58363402 0.66993475
0.88761199 -0.57435501 0.6656484
0.887492 -0.58621198 0.65868044
0.89193702 -0.57758898 0.65950227
0.883515 -0.59319597 0.65395689
0.88320506 -0.58076102 0.65432298
0.88759804 -0.57250601 0.65453982
0.892362 -0.56551802 0.65335649
0.88205397 -0.59371001 0.64831406
0.88580102 -0.58506501 0.64928353
0.88664299 -0.57313204 0.64909309
0.88947099 -0.56409001 0.64904815
0.87788099 -0.59946996 0.64352953
0.88325101 -0.58277303 0.64424753
0.88618398 -0.57318199 0.6432116
0.89065301 -0.56481397 0.64448375
0.88143206 -0.593256 0.63806051
0.881006 -0.58157003 0.63861889
0.88272697 -0.57078803 0.63795316
0.889328 -0.56391001 0.63917822
0.87936699 -0.57917702 0.63309318
0.87791097 -0.567527 0.63381958
0.88554704 -0.56212801 0.6339047
0.87592906 -0.57851499 0.62817144
0.88096398 -0.57027 0.62865835
0.88387799 -0.560004 0.62854981
0.89359099 -0.60774398 0.62078327
0.87849998 -0.57870203 0.6230666
0.88073999 -0.56821704 0.62309659
0.87920797 -0.58779401 0.61765701
0.87457901 -0.574009 0.61834627
0.88410896 -0.571064 0.61790144
0.88573503 -0.56196499 0.61846638
0.87500101 -0.57540601 0.61303037
0.88035005 -0.56862497 0.61382413
0.88188201 -0.56916803 0.60795832
0.89610398 -0.61012101 0.59902132
0.88289803 -0.58345801 0.60104519
0.878681 -0.569004 0.60225946
0.89482397 -0.60976297 0.5957858
0.872118 -0.582762 0.59688723
0.87065804 -0.572501 0.59818763
0.88017797 -0.56999803 0.59677809
0.904208 -0.56681705 0.5944553
0.87138295 -0.58290797 0.59081864
0.87219703 -0.573865 0.59305686
0.88506204 -0.601753 0.58352602
0.87278998 -0.58553904 0.58530807
0.87397796 -0.57568502 0.58738381
0.88031197 -0.59921598 0.5796833
0.87600702 -0.57803398 0.58126837
0.87185699 -0.584333 0.57544291
0.87161499 -0.57291502 0.57167399
0.88247705 -0.56311297 0.56527388
0.867351 -0.57114202 0.5614056
0.88388604 -0.56358796 0.55932587
0.86624998 -0.59217703 0.55404848
0.86877406 -0.571257 0.55648756
0.87527198 -0.56509399 0.55615789
0.886935 -0.56380796 0.55321079
0.86472398 -0.59150201 0.5493874
0.87212598 -0.57552797 0.55047011
0.87760496 -0.56745499 0.55031598
0.86468399 -0.59156603 0.54455209
0.91263199 -0.64292395 0.77905798
0.89924896 -0.60175401 0.73307604
0.91282403 -0.62644601 0.70681161
0.89322001 -0.58076596 0.70526421
0.89664298 -0.57145196 0.70439494
0.89361602 -0.59462297 0.6980049
0.89067 -0.58005697 0.69929755
0.87808198 -0.59500402 0.68191057
0.88432097 -0.57477903 0.6816439
0.87695903 -0.59255999 0.67635554
0.882783 -0.58771902 0.670748
0.88406098 -0.57539499 0.67094278
0.87885696 -0.58147901 0.66542029
0.88459504 -0.58931303 0.65954649
0.88091695 -0.57264197 0.66000551
0.88543898 -0.56209499 0.66019547
0.88310999 -0.57135099 0.65446317
0.890935 -0.566764 0.65443683
0.89153898 -0.55609399 0.65454292
0.87873495 -0.58475 0.64868999
0.88093102 -0.57206297 0.64853567
0.88883299 -0.56505197 0.64955467
0.88206804 -0.60795897 0.6413027
0.87638497 -0.593606 0.64345175
0.87760198 -0.58143502 0.64272797
0.87775904 -0.568717 0.64344752
0.88427198 -0.61002499 0.63586289
0.87469399 -0.57894796 0.63685012
0.879336 -0.56952202 0.63820857
0.870336 -0.57428801 0.63210851
0.87680399 -0.56920797 0.63303328
0.87989998 -0.55894101 0.63331079
0.870022 -0.575315 0.62717474
0.87385803 -0.56603402 0.62822443
0.87912905 -0.55716205 0.62726355
0.87248397 -0.57903999 0.6217652
0.87445199 -0.56720799 0.62206048
0.87361097 -0.57832599 0.61589599
0.87396103 -0.56452298 0.61581749
0.86920601 -0.572182 0.61037886
0.87675005 -0.56619799 0.6098128
0.880871 -0.55841398 0.6113081
0.86670303 -0.57256198 0.60544705
0.87575698 -0.56842703 0.6042639
0.86973399 -0.57538301 0.59935141
0.87938499 -0.56014502 0.59926677
0.87228996 -0.58583599 0.59331346
0.86820102 -0.57232898 0.5935936
0.89826399 -0.56476998 0.5910458
0.869394 -0.58341002 0.58726996
0.89883304 -0.564762 0.58529788
0.87308002 -0.58905602 0.5802176
0.90228599 -0.56777698 0.57922459
0.86967903 -0.58921003 0.5691973
0.88921303 -0.56700599 0.5701701
0.87106401 -0.56369001 0.56720686
0.88788104 -0.56690198 0.56442446
0.864299 -0.58616102 0.55928087
0.86566496 -0.574036 0.56026888
0.87015897 -0.56393701 0.56091249
0.87303901 -0.564134 0.55412507
0.86354101 -0.56869298 0.54914945
0.87184405 -0.562886 0.54888231
0.89600301 -0.58642501 0.71858847
0.89284104 -0.58160502 0.71315926
0.89682198 -0.57251799 0.705558
0.89008498 -0.59580898 0.70081657
0.88875997 -0.58102697 0.70104438
0.89513397 -0.57161802 0.69943774
0.88811994 -0.57963103 0.69478488
0.89967698 -0.56316799 0.6943531
0.922535 -0.56797999 0.68094206
0.96378195 -0.570364 0.67936254
0.92239195 -0.56743598 0.6753639
0.87684196 -0.58195996 0.66974771
0.87850499 -0.58407801 0.66431624
0.88049698 -0.57260901 0.66439444
0.88779604 -0.565265 0.66541487
0.88212699 -0.57262003 0.65811241
0.889045 -0.56443602 0.65899903
0.877783 -0.58529598 0.65252352
0.88311797 -0.57706797 0.65252215
0.88465601 -0.56250703 0.65230256
0.87704104 -0.58268702 0.64723849
0.881859 -0.57422298 0.64663315
0.87467694 -0.580751 0.64125252
0.87952304 -0.57104999 0.64072442
0.87018502 -0.575405 0.63484681
0.87383002 -0.56320202 0.63541901
0.87269402 -0.56636798 0.62919199
0.87872297 -0.55532598 0.62968916
0.87119401 -0.56251502 0.62407637
0.87800002 -0.55651796 0.62318897
0.86751604 -0.57334501 0.61148977
0.872513 -0.56348997 0.61228609
0.87117201 -0.57751203 0.6049549
0.87351 -0.56619 0.60592127
0.86447901 -0.57069498 0.59985685
0.87544197 -0.56636697 0.59995687
0.89077103 -0.56849599 0.59821612
0.87305701 -0.56593901 0.59372789
0.89082199 -0.57006198 0.59195578
0.87106103 -0.56728399 0.56347632
0.85964799 -0.56629801 0.5574283
0.86373299 -0.57044101 0.550587
0.86707199 -0.56052703 0.55163461
0.97111702 -0.60693699 0.70680642
0.963094 -0.61008 0.70201731
0.965662 -0.60196096 0.69810545
0.97050202 -0.59139401 0.70297045
0.96970904 -0.582349 0.69761795
0.96336997 -0.594154 0.69706297
0.97247595 -0.57964599 0.69167119
0.955625 -0.59641498 0.69143295
0.96607399 -0.58211303 0.68568879
0.95763499 -0.563824 0.67462516
0.93059099 -0.61271304 0.66816133
0.93910497 -0.60966802 0.66255486
0.97232199 -0.56721997 0.65605569
0.97322702 -0.56684798 0.65079951
0.97189003 -0.57727903 0.64508414
0.94611603 -0.56342399 0.63287479
0.95933801 -0.57033801 0.63305557
0.96165198 -0.58914798 0.63089156
0.93423796 -0.54713202 0.62823701
0.94303703 -0.5553 0.62764227
0.94889605 -0.56372899 0.62694967
0.95470202 -0.57063299 0.62757224
0.959041 -0.580513 0.62690926
0.953435 -0.59259999 0.62530512
0.92958903 -0.54689997 0.6222713
0.94012702 -0.55458498 0.62199396
0.94740599 -0.56314099 0.62158197
0.95232004 -0.57278901 0.6215443
0.94912601 -0.58563501 0.62049592
0.95489305 -0.59195304 0.62054121
0.93450499 -0.55558896 0.61596942
0.941688 -0.56436199 0.6156714
0.94708902 -0.57266998 0.61581242
0.95272696 -0.58136004 0.61479324
0.95097703 -0.59175998 0.61414927
0.94528002 -0.57428801 0.60948706
0.94520205 -0.585545 0.60842776
0.94229203 -0.57294101 0.60339475
0.947882 -0.58210701 0.60272819
0.941396 -0.59378099 0.60170817
0.94342303 -0.574898 0.59772563
0.94372296 -0.584759 0.59642357
0.93755895 -0.58823001 0.59015608
0.94176698 -0.58448797 0.58446008
0.937639 -0.59489799 0.58437693
0.87469399 -0.56770802 0.57775229
0.894979 -0.56951499 0.57826269
0.94261199 -0.57324797 0.57891959
0.93838698 -0.58414298 0.57818431
0.94111902 -0.59313703 0.57776207
0.87213302 -0.56870604 0.57218337
0.93090498 -0.57776999 0.57236838
0.93378699 -0.58907902 0.57167906
0.89573306 -0.56963998 0.56727052
0.936472 -0.57632303 0.56615317
0.93851602 -0.58592099 0.56598848
0.88471705 -0.57275301 0.55603689
0.94057101 -0.583583 0.56084079
0.93378305 -0.58627599 0.55463606
0.94052398 -0.59494597 0.552459
0.93872905 -0.60720998 0.55239737
0.93864799 -0.58359903 0.5483672
0.94615698 -0.59154999 0.5470944
0.93892503 -0.60530698 0.54632497
0.94207495 -0.58295399 0.54246479
0.93747497 -0.595752 0.54097557
0.96811098 -0.60573101 0.7210905
0.96906304 -0.61500704 0.71578074
0.96995199 -0.60450697 0.71041703
0.95839399 -0.61660898 0.71028817
0.97322303 -0.58223897 0.70403427
0.96929801 -0.59236097 0.7040959
0.966874 -0.603966 0.7043587
0.97432703 -0.58146 0.69843102
0.96986604 -0.59397298 0.69910437
0.95796603 -0.60630399 0.69879258
0.96787202 -0.58297402 0.69214749
0.96497899 -0.59439802 0.69371766
0.96491504 -0.58370996 0.68718886
0.958722 -0.59534097 0.68782777
0.96184099 -0.584692 0.6820336
0.93320501 -0.60874903 0.67042643
0.97600502 -0.56861299 0.65295291
0.979877 -0.57651401 0.6532498
0.96940905 -0.569323 0.64780879
0.974819 -0.57865202 0.64733648
0.94853896 -0.562958 0.6358785
0.95903504 -0.571055 0.63563359
0.94920194 -0.55382997 0.63080192
0.95601302 -0.56239104 0.63101667
0.95492697 -0.57163602 0.62974977
0.95978498 -0.58141601 0.62949878
0.94003195 -0.54625803 0.6257056
0.94345593 -0.55472201 0.62545663
0.95197701 -0.56248999 0.62535083
0.95737505 -0.57260102 0.62390631
0.95676804 -0.58347899 0.62367374
0.961496 -0.59082299 0.62482226
0.929052 -0.54720402 0.61992502
0.94729304 -0.55408198 0.62003618
0.95169401 -0.56451601 0.61926234
0.96095902 -0.57139599 0.61872488
0.95541298 -0.58232498 0.61792409
0.95680296 -0.59134799 0.61908746
0.94325101 -0.56469798 0.61352068
0.956209 -0.57240397 0.61335731
0.950427 -0.58408296 0.61185819
0.95467794 -0.59115702 0.61201251
0.940337 -0.56514901 0.6077112
0.95044798 -0.57186002 0.60794777
0.95631701 -0.580594 0.60698217
0.95169502 -0.591932 0.60604018
0.94673103 -0.57427502 0.60182428
0.94578004 -0.58583599 0.60084099
0.94449306 -0.59580004 0.60004818
0.94312501 -0.57446301 0.5954662
0.94902003 -0.58248502 0.59580588
0.94781405 -0.59259897 0.59470439
0.94365901 -0.58368498 0.58964729
0.94384497 -0.59421396 0.58857965
0.94109702 -0.57611597 0.58387297
0.94510806 -0.58522302 0.58392918
0.93822998 -0.59599096 0.58229846
0.93199098 -0.576168 0.5780865
0.93891096 -0.58529001 0.57767069
0.94027001 -0.59629601 0.57596809
0.89008695 -0.56770498 0.5716216
0.90001899 -0.57285601 0.57150781
0.93682802 -0.57462198 0.57199818
0.943959 -0.58562398 0.57142258
0.946033 -0.59469199 0.5708952
0.93367994 -0.57540298 0.5653019
0.93987602 -0.58418298 0.56498641
0.94450998 -0.59490001 0.56545198
0.94294405 -0.59354401 0.55905539
0.95680898 -0.61558402 0.71587962
0.96012801 -0.61204797 0.71029282
0.95806003 -0.62214804 0.71003079
0.96303397 -0.59223801 0.69941497
0.95806003 -0.60342699 0.70035851
0.96532202 -0.58092099 0.69296378
0.96425903 -0.59116101 0.69357198
0.96239197 -0.60222799 0.69439691
0.96142095 -0.58161098 0.68804711
0.965666 -0.58960998 0.68789649
0.96178496 -0.60011601 0.68824351
0.96449995 -0.58171499 0.68264121
0.96247 -0.59173602 0.68276429
0.94133002 -0.60694498 0.67676604
0.92548895 -0.61504102 0.66330057
0.96756798 -0.57059503 0.65472382
0.97205496 -0.57815599 0.64922738
0.96662802 -0.579997 0.64348418
0.94204497 -0.56248301 0.63160932
0.9479 -0.57261902 0.63129759
0.957865 -0.58105898 0.63217616
0.93315005 -0.55317503 0.62711483
0.94054103 -0.56178796 0.62595272
0.947954 -0.57091898 0.62570101
0.95225698 -0.581137 0.62619215
0.96293402 -0.589535 0.62697351
0.93764001 -0.55402899 0.62168103
0.94528502 -0.56304801 0.62102938
0.95344597 -0.57053399 0.62075526
0.95084399 -0.58011603 0.62011123
0.956725 -0.58976901 0.62097734
0.94280899 -0.56235999 0.61646181
0.94628501 -0.57144499 0.61590695
0.94813204 -0.580625 0.61427075
0.95049798 -0.59033602 0.61423773
0.950939 -0.597893 0.61382687
0.94312596 -0.57329601 0.6094873
0.94924104 -0.582757 0.6089294
0.95346606 -0.590442 0.60876566
0.94770795 -0.598212 0.6083895
0.942298 -0.58234197 0.60332948
0.94465303 -0.59152001 0.60328615
0.95222801 -0.59735197 0.60283279
0.94099599 -0.58211499 0.59742051
0.94428706 -0.59017199 0.59795976
0.94577795 -0.59774399 0.59710139
0.939183 -0.58187902 0.59117907
0.94380206 -0.59018499 0.59230787
0.94685799 -0.59715998 0.59062362
0.94202006 -0.58111596 0.58590877
0.94307196 -0.58973801 0.58597559
0.94661498 -0.59710497 0.58447778
0.93027997 -0.58244002 0.58014899
0.93666899 -0.59129101 0.57961559
0.954216 -0.59581298 0.5789538
0.930951 -0.58361101 0.5746882
0.94125098 -0.59048301 0.57398599
0.93046999 -0.58264101 0.56886888
0.94473296 -0.58972698 0.56841838
0.93630797 -0.58269197 0.56339699
0.94533402 -0.58912998 0.56284732
0.97078598 -0.60927504 0.70576304
0.96665496 -0.59182096 0.69515204
0.967035 -0.58291 0.6895622
0.97127199 -0.59191102 0.6896131
0.96563905 -0.58201402 0.68440443
0.96875101 -0.59053302 0.68383145
0.96618599 -0.58125401 0.67962629
0.96360201 -0.58909398 0.67830622
0.96717298 -0.58085901 0.67406714
0.97994101 -0.57155496 0.66669935
0.98257005 -0.57168698 0.6562382
0.97261298 -0.57091498 0.65073377
0.98303598 -0.58042997 0.65120661
0.97091204 -0.57921904 0.64509153
0.94827497 -0.56150699 0.63418108
0.95688903 -0.57143098 0.6338557
0.936149 -0.55160403 0.63010919
0.94562697 -0.56026602 0.62862724
0.94996101 -0.56993699 0.62855363
0.96013606 -0.579557 0.62870443
0.93799698 -0.55177099 0.62394035
0.94326502 -0.56257099 0.62327236
0.95552498 -0.57214701 0.62335521
0.95645499 -0.57986802 0.62345618
0.93458605 -0.552387 0.61824274
0.93950599 -0.56148201 0.61779124
0.94771898 -0.57075697 0.61782426
0.95645899 -0.57862002 0.61883402
0.945719 -0.569803 0.61221075
0.94850898 -0.57719499 0.61273348
0.95247597 -0.57716 0.60648978
0.95068198 -0.57742101 0.60075974
0.95197898 -0.57781798 0.59634799
0.94904405 -0.60211301 0.54868728
0.94750506 -0.611148 0.54882342
0.93808097 -0.62874401 0.5478828
0.89770502 -0.591515 0.77118093
0.89625704 -0.57833201 0.759579
0.89811403 -0.572918 0.760337
0.90319997 -0.57403803 0.74780703
0.89100599 -0.53871 0.71305579
0.92663199 -0.63121301 0.78023398
0.91697502 -0.60983396 0.76993501
0.91509801 -0.58791399 0.73686796
0.99453795 -0.54391801 0.67868859
0.93463701 -0.59314501 0.75072199
0.98730904 -0.54255599 0.67033541
0.945557 -0.57485598 0.62418741
0.951913 -0.568901 0.61831355
0.83484805 -0.60407001 0.59834677
0.84462094 -0.60289299 0.59270829
0.839378 -0.598153 0.59272403
0.84717202 -0.60129601 0.58639616
0.83863401 -0.59727198 0.58657205
0.84779704 -0.60919702 0.58024907
0.84235799 -0.60298097 0.58104539
0.83750099 -0.59588599 0.58019781
0.82496297 -0.59790999 0.58152777
0.84276497 -0.60289401 0.57463765
0.83659101 -0.59594798 0.5751093
0.832838 -0.58980298 0.57532656
0.84606695 -0.61297601 0.5688197
0.83857399 -0.60739702 0.56863189
0.83708102 -0.59558302 0.5695498
0.84830999 -0.61218601 0.56243581
0.84112501 -0.60235 0.56301951
0.84155899 -0.60471702 0.55681533
0.84636098 -0.61065602 0.55050486
0.84029198 -0.601601 0.55106449
0.84303004 -0.58646798 0.5507192
0.84295601 -0.61531699 0.54485959
0.84032899 -0.60402304 0.54548389
0.834167 -0.595819 0.54528981
0.85528702 -0.611516 0.57516909
0.85387802 -0.61156797 0.56955791
0.845043 -0.609124 0.57016009
0.85061997 -0.61337698 0.55979848
0.84470499 -0.60662001 0.5587284
0.83570504 -0.60533202 0.55986047
0.84880602 -0.61331701 0.553913
0.84713 -0.60355598 0.55363905
0.83824801 -0.60185301 0.55439955
0.84767604 -0.61550099 0.5478183
0.84064597 -0.60785198 0.54911798
0.83824801 -0.60076898 0.54925519
0.84991896 -0.61316603 0.54171652
0.84549499 -0.60534698 0.54212767
0.83783501 -0.60121 0.54401898
0.88935399 -0.63859004 0.77684802
0.90197098 -0.601785 0.75065398
0.870125 -0.58249301 0.70388746
0.87449998 -0.570476 0.70538408
0.86491698 -0.58743101 0.69895202
0.87008798 -0.57330298 0.69942302
0.86779702 -0.58349603 0.69415551
0.86660898 -0.57477599 0.69345617
0.89848197 -0.60091597 0.69021016
0.860277 -0.57814902 0.68803686
0.86358202 -0.56787699 0.68909472
0.86250299 -0.57508099 0.68335652
0.85941005 -0.56942201 0.68378711
0.85586703 -0.581083 0.67782187
0.85711306 -0.57128298 0.6781885
0.859173 -0.578004 0.67245597
0.85516095 -0.57214904 0.67208618
0.85493898 -0.57111901 0.66676897
0.88503098 -0.59375304 0.6596126
0.85874802 -0.57592398 0.66174811
0.85737199 -0.56914598 0.66204208
0.85712796 -0.578471 0.65633363
0.85647696 -0.56942201 0.65675879
0.85861605 -0.57451499 0.65106302
0.85727096 -0.56552702 0.65083414
0.882954 -0.59305501 0.64469945
0.85297203 -0.57942098 0.64543778
0.85418296 -0.56699902 0.64597976
0.852274 -0.57912999 0.64047301
0.84968001 -0.57087797 0.64090806
0.86000395 -0.55221099 0.64070463
0.85174799 -0.578318 0.6354171
0.85385102 -0.56466401 0.63549596
0.85670602 -0.55199003 0.63545048
0.84621596 -0.58357501 0.62995088
0.84998494 -0.569157 0.62991995
0.85785896 -0.55237502 0.63047349
0.85566199 -0.54308397 0.63138723
0.84514999 -0.57144403 0.62515318
0.85751402 -0.55416799 0.62516254
0.84866697 -0.56884497 0.62041211
0.84431505 -0.57166898 0.61484504
0.84811205 -0.56890202 0.60983622
0.84827906 -0.59772497 0.6036514
0.85215896 -0.59554297 0.597417
0.84229302 -0.59140402 0.59288079
0.83984703 -0.58359301 0.58799887
0.84047699 -0.600568 0.58195627
0.84081399 -0.59239399 0.58282411
0.83588898 -0.60224497 0.57778662
0.838579 -0.59413201 0.5780198
0.83646101 -0.58619201 0.57777309
0.83923602 -0.59186399 0.57330561
0.831756 -0.58556902 0.56216019
0.83087504 -0.58506197 0.55117053
0.83432198 -0.57410002 0.55123317
0.82959801 -0.57682097 0.54617399
0.82868797 -0.584961 0.54243308
0.831065 -0.574624 0.54072708
0.86629206 -0.57577997 0.71584183
0.871903 -0.57949901 0.71089345
0.872895 -0.569507 0.7112326
0.86520898 -0.58402902 0.70541322
0.86737394 -0.57297301 0.70641738
0.87824404 -0.55927896 0.70788759
0.881558 -0.55085397 0.7086944
0.86288804 -0.61335599 0.69972122
0.87043297 -0.58060598 0.70039916
0.86602098 -0.57436299 0.70154905
0.87446702 -0.56186402 0.70261461
0.86593401 -0.58410096 0.69556284
0.869223 -0.572285 0.69621086
0.86750704 -0.58097696 0.6910733
0.86255598 -0.57503897 0.6905694
0.86038399 -0.58380902 0.68569565
0.864721 -0.57240796 0.68602461
0.85622597 -0.58647704 0.68007779
0.85765505 -0.57633203 0.68098336
0.85754603 -0.58645803 0.67475599
0.85494006 -0.57810503 0.67572671
0.857054 -0.57740599 0.6708129
0.86432701 -0.57253301 0.66538018
0.86317396 -0.56393504 0.66531861
0.85995102 -0.57399201 0.65967888
0.86260599 -0.56370199 0.66064078
0.85382795 -0.57661098 0.65522218
0.856139 -0.56710398 0.65569681
0.881625 -0.59185702 0.65035403
0.85865897 -0.57385099 0.65021759
0.85780406 -0.56366402 0.6508404
0.88131797 -0.59000999 0.64485115
0.85232002 -0.57633501 0.64460206
0.855241 -0.56494999 0.64565969
0.86303002 -0.55210704 0.64587355
0.85106003 -0.57683599 0.63965458
0.85128194 -0.567258 0.64052844
0.86264801 -0.55172598 0.64079428
0.84923899 -0.577546 0.63548106
0.84949797 -0.56886899 0.6357016
0.85544801 -0.55596602 0.6359359
0.86311096 -0.54172599 0.63591051
0.87799102 -0.58464199 0.62876326
0.852305 -0.57517505 0.63072091
0.85275805 -0.56411302 0.63087106
0.85878897 -0.551099 0.63091981
0.85118699 -0.57674301 0.62502515
0.84896797 -0.56720799 0.62599474
0.855147 -0.55472696 0.62638468
0.84726197 -0.56854898 0.62125552
0.85336304 -0.55566198 0.6215108
0.84876996 -0.56665599 0.61622626
0.84814 -0.56805003 0.6110574
0.84410596 -0.56938899 0.60591406
0.872513 -0.59175801 0.59898591
0.84134805 -0.570122 0.60121465
0.84161103 -0.56979901 0.59662211
0.84178102 -0.56864399 0.5910998
0.83831102 -0.570032 0.58596361
0.83298105 -0.54636103 0.57684493
0.83203799 -0.55411601 0.57265615
0.83698702 -0.54374599 0.57294059
0.84771401 -0.602552 0.55991948
0.85631102 -0.617585 0.55394018
0.84957999 -0.60456598 0.55475438
0.84117597 -0.59816897 0.55562776
0.82905096 -0.58263403 0.55706829
0.83208001 -0.57231599 0.5569241
0.85006201 -0.612481 0.55007631
0.84552693 -0.60448301 0.5501821
0.838085 -0.597781 0.55091387
0.83564299 -0.58894402 0.5504272
0.83447897 -0.57912397 0.55168498
0.83472705 -0.569363 0.55149359
0.84616303 -0.61168098 0.54523337
0.83949995 -0.604909 0.54597425
0.837246 -0.596771 0.54623926
0.83472705 -0.58905703 0.54539269
0.83196402 -0.58076197 0.54645461
0.83210999 -0.57109797 0.54680037
0.84442902 -0.60455298 0.54079247
0.837008 -0.59738302 0.54104459
0.831626 -0.58089602 0.54151291
0.83055097 -0.57183498 0.54182386
0.87377703 -0.566782 0.71149522
0.86845803 -0.585513 0.70553553
0.87160003 -0.57465696 0.70618147
0.87431902 -0.565274 0.70669472
0.86878097 -0.58540404 0.70064926
0.868128 -0.57719398 0.70115554
0.87178802 -0.56657797 0.70171988
0.87999701 -0.555094 0.70201921
0.86927199 -0.58319598 0.69659179
0.87324405 -0.57288301 0.69639093
0.87799203 -0.55356604 0.69716156
0.86504 -0.57584304 0.69151771
0.86775804 -0.56606901 0.69172722
0.87339801 -0.55555201 0.69299203
0.86373198 -0.57634401 0.68679929
0.86648297 -0.56559598 0.68683535
0.87042201 -0.55605298 0.68796694
0.86072999 -0.57741296 0.68138063
0.86094499 -0.56894702 0.6825248
0.86342102 -0.55952001 0.68269628
0.85884905 -0.58667898 0.6773479
0.85444999 -0.58006799 0.67661756
0.858132 -0.56944597 0.67751867
0.85416102 -0.57853699 0.67220724
0.85810995 -0.56724602 0.67223442
0.86251199 -0.57398599 0.66736418
0.86013299 -0.56617498 0.66736865
0.86235899 -0.55821002 0.66840094
0.88029099 -0.59401697 0.66081536
0.85804296 -0.56820798 0.66265267
0.861669 -0.55777401 0.66366357
0.85973603 -0.57651597 0.65833199
0.85783994 -0.56806803 0.65740424
0.85714102 -0.55964899 0.6583578
0.85878599 -0.58660597 0.65273881
0.85781503 -0.57639199 0.65293348
0.85013497 -0.57041097 0.65332305
0.85911697 -0.55926001 0.65343523
0.85744303 -0.57574403 0.64791191
0.85868204 -0.56654096 0.64872772
0.86064303 -0.55602401 0.64872634
0.85453302 -0.56940299 0.64378309
0.85620904 -0.55877399 0.64383239
0.85618502 -0.57655203 0.63905436
0.85587502 -0.56647897 0.63881379
0.85220903 -0.55866504 0.639045
0.850887 -0.57924199 0.6343509
0.85172796 -0.569951 0.6342864
0.85351801 -0.55902803 0.63413388
0.85549897 -0.54887098 0.63525969
0.85073602 -0.57807302 0.62932009
0.85202903 -0.56755 0.62939894
0.84872901 -0.55980897 0.62934822
0.85394996 -0.54895699 0.63003826
0.846421 -0.57107604 0.62529474
0.84872103 -0.56187803 0.62502623
0.84894204 -0.55273604 0.62517679
0.84561998 -0.57104403 0.62039816
0.85221601 -0.55897498 0.62017316
0.84967697 -0.56682098 0.61530864
0.85365194 -0.556669 0.61572462
0.84648901 -0.569368 0.61043537
0.84318298 -0.57221299 0.60589331
0.84733003 -0.56159097 0.60582709
0.84696406 -0.56874102 0.60061437
0.85089302 -0.55836797 0.6007641
0.849895 -0.55971998 0.59590548
0.84411794 -0.56841898 0.59140158
0.846636 -0.544716 0.5731169
0.85557997 -0.61809701 0.55693102
0.85009104 -0.610457 0.55664706
0.82839698 -0.58287299 0.56009352
0.85143399 -0.61078703 0.55159718
0.844872 -0.60336798 0.55274451
0.83676696 -0.58825701 0.55328619
0.83108401 -0.581725 0.5552249
0.83259696 -0.57278299 0.55420852
0.84691 -0.61004603 0.54756057
0.84114194 -0.60320204 0.54816252
0.83981103 -0.59566504 0.54921031
0.83525705 -0.58821797 0.54858106
0.83192497 -0.580854 0.55028147
0.83211601 -0.57160401 0.54964137
0.84059 -0.604002 0.54367638
0.83890295 -0.595245 0.54416311
0.83405405 -0.57908797 0.54491746
0.834647 -0.56894201 0.54436749
0.83214599 -0.58911902 0.54012358
0.82866204 -0.58208501 0.54097909
0.82795197 -0.57321 0.54040945
0.97469497 -0.61647803 0.71033853
0.97358596 -0.607481 0.70551473
0.96094203 -0.60587299 0.70070976
0.97011703 -0.59782296 0.6945852
0.96778601 -0.59573901 0.6891377
0.90327597 -0.61098403 0.69194323
0.96622801 -0.59563899 0.68353689
0.96757007 -0.58772498 0.67770749
0.98699498 -0.58175099 0.66002947
0.92231798 -0.60550201 0.65641791
0.98235297 -0.58124298 0.64976823
0.98163003 -0.58068103 0.64381671
0.98352998 -0.58034402 0.63857782
0.96830398 -0.57644701 0.62780404
0.95867401 -0.58436298 0.62751824
0.905541 -0.60292798 0.62791359
0.95435995 -0.56634802 0.62229317
0.95570701 -0.57454896 0.62265354
0.95318604 -0.58290499 0.62155503
0.95101196 -0.59273201 0.6228531
0.95381302 -0.57355702 0.61689818
0.95058799 -0.58218801 0.61646205
0.94506204 -0.59137601 0.61654991
0.94487703 -0.555677 0.61109149
0.95192397 -0.571365 0.61146659
0.94756401 -0.58126801 0.61108321
0.95016503 -0.592067 0.61085188
0.94445503 -0.57082099 0.60643119
0.94652998 -0.58114702 0.60483539
0.94577497 -0.59162301 0.60493749
0.94649398 -0.57437199 0.59959507
0.94883102 -0.58354098 0.59936708
0.94119501 -0.59150904 0.59887248
0.943097 -0.57412201 0.59313756
0.94779503 -0.58182597 0.59425825
0.94832999 -0.59127998 0.59352708
0.94104105 -0.57320702 0.58723569
0.948044 -0.58225602 0.5884214
0.94970596 -0.59182298 0.5882386
0.93893796 -0.57243198 0.58201659
0.94045198 -0.57972097 0.58238596
0.94493204 -0.59055501 0.58270448
0.93809098 -0.57318503 0.57653648
0.94270104 -0.59155297 0.57615048
0.93431395 -0.57204497 0.56999856
0.945081 -0.58232397 0.57127929
0.94423503 -0.5909 0.57091069
0.942913 -0.59965003 0.57060748
0.93897402 -0.579485 0.56506717
0.93988502 -0.59020901 0.56505328
0.91466904 -0.62878603 0.55847508
0.92043197 -0.62717801 0.55331206
0.93904901 -0.57980996 0.54767442
0.94391 -0.60152799 0.54871017
0.91976798 -0.62688303 0.54741591
0.93990701 -0.58886003 0.5429315
0.93571299 -0.60920501 0.54143739
0.96693903 -0.61048502 0.71659142
0.96283895 -0.62063402 0.71131212
0.97109497 -0.59295797 0.70524889
0.960549 -0.60804003 0.70436227
0.95480698 -0.61739498 0.7063275
0.969648 -0.60088301 0.69904733
0.96500504 -0.60818601 0.69848323
0.91727096 -0.61763597 0.70158488
0.96770304 -0.58919102 0.69280356
0.96308798 -0.59753501 0.69379824
0.96428496 -0.581025 0.68762589
0.96477896 -0.58920896 0.68827391
0.96214503 -0.57832503 0.68080652
0.95967901 -0.58800703 0.68252975
0.95942396 -0.58584499 0.67571509
0.92454302 -0.60000801 0.67723
0.91704005 -0.60600799 0.66692984
0.91947198 -0.60727799 0.66099668
0.98356199 -0.57352799 0.65196329
0.91833603 -0.60687804 0.65447706
0.90296203 -0.611193 0.65396768
0.97650498 -0.570741 0.64679968
0.97988504 -0.58134699 0.64766097
0.96952796 -0.58871698 0.64706612
0.91332799 -0.60441202 0.64278173
0.95333999 -0.55482 0.63508838
0.95439798 -0.56345499 0.6351347
0.95256203 -0.55440497 0.62897676
0.952712 -0.563667 0.6291241
0.956873 -0.57569802 0.63006151
0.95943803 -0.58678603 0.62966251
0.941266 -0.54256302 0.62277311
0.94860703 -0.55258 0.62328291
0.94976199 -0.56143498 0.62418646
0.951415 -0.57275599 0.62368751
0.95289397 -0.58509302 0.62436187
0.93611699 -0.54802603 0.61780941
0.94376403 -0.56079501 0.61835957
0.95866698 -0.57620203 0.61772984
0.95344001 -0.58386397 0.61872113
0.95116597 -0.59398198 0.61832994
0.93853104 -0.558272 0.6123504
0.94742304 -0.57271999 0.61239904
0.95556396 -0.58529598 0.61315233
0.94806296 -0.592812 0.61205173
0.94989198 -0.60168999 0.61213088
0.95170802 -0.57494098 0.60637099
0.94758105 -0.58391798 0.6069873
0.95361298 -0.595869 0.60682529
0.94544101 -0.58254099 0.60106158
0.94232202 -0.59230703 0.6007545
0.94603896 -0.58404303 0.5949536
0.94697601 -0.59329104 0.59499311
0.94010299 -0.581554 0.58828068
0.93988198 -0.59099203 0.58952612
0.945683 -0.583314 0.58294868
0.93802297 -0.59109199 0.58260888
0.94367105 -0.58327502 0.57763797
0.93831801 -0.59194398 0.57597709
0.94066805 -0.58251101 0.57100862
0.939484 -0.592682 0.57017064
0.93399 -0.5891 0.5647524
0.940274 -0.60234404 0.56487775
0.94067597 -0.583489 0.55941808
0.93803495 -0.59296298 0.55903602
0.93734705 -0.59091699 0.5530659
0.91754895 -0.62895602 0.55303138
0.94653398 -0.60479999 0.54801267
0.94024801 -0.61313999 0.54805356
0.93624997 -0.57937902 0.5402776
0.965922 -0.61396998 0.71493173
0.97464103 -0.61668402 0.70817393
0.96829903 -0.62284303 0.70896143
0.967035 -0.60476702 0.70337737
0.96355498 -0.59241301 0.69838989
0.95500296 -0.58714098 0.69234228
0.95896006 -0.60044998 0.69331819
0.96464401 -0.59163797 0.68590653
0.931876 -0.54731798 0.68185258
0.88896006 -0.59866405 0.68223971
0.92176497 -0.59935796 0.66962546
0.97361201 -0.572703 0.64970267
0.91661596 -0.60704499 0.65276301
0.91754097 -0.60593897 0.64621294
0.94775903 -0.55002201 0.6378203
0.91632599 -0.60413098 0.63930315
0.95468104 -0.56449199 0.63162249
0.96253896 -0.57982898 0.63298821
0.95577103 -0.589145 0.6321525
0.94026703 -0.54934698 0.62594438
0.94920897 -0.564538 0.6253621
0.95601499 -0.57853502 0.62634194
0.95486397 -0.59101301 0.62607259
0.93365896 -0.545371 0.62001747
0.94426203 -0.561405 0.61991477
0.95441705 -0.576648 0.61994559
0.95396304 -0.58814603 0.6200313
0.95796204 -0.57709497 0.61448717
0.94916201 -0.58474302 0.61412257
0.94926298 -0.596039 0.61402166
0.95028299 -0.57761902 0.60826999
0.95155197 -0.589293 0.60807627
0.94928002 -0.59854901 0.60809577
0.94909102 -0.578444 0.60108042
0.94805497 -0.5869 0.6018762
0.947833 -0.59673196 0.60253316
0.94576204 -0.58526701 0.59559256
0.94829202 -0.59701097 0.59596276
0.93990999 -0.57609701 0.5893181
0.95041603 -0.589719 0.58962381
0.95119202 -0.59958196 0.58956259
0.93854302 -0.57525599 0.58244532
0.94741899 -0.58750802 0.58339888
0.94904 -0.598005 0.58392835
0.93321604 -0.57300699 0.57667488
0.94241995 -0.58479899 0.5768615
0.945683 -0.596331 0.57772326
0.93341798 -0.57353902 0.57063168
0.94124603 -0.58553499 0.57071882
0.94202596 -0.594899 0.5718807
0.93632203 -0.582726 0.56456476
0.94036901 -0.59581 0.56554037
0.93861395 -0.59308499 0.55910856
0.94442803 -0.60876 0.5474655
0.93417901 -0.60571802 0.54061049
0.96748495 -0.583444 0.6889115
0.96416903 -0.57496202 0.68326622
0.95628703 -0.56835699 0.6769017
0.96647698 -0.584503 0.67618418
0.89512998 -0.60554796 0.68099701
0.91775596 -0.60175699 0.66641706
0.97898501 -0.565139 0.65787971
0.92588997 -0.60346597 0.66082323
0.97833997 -0.58067799 0.65110803
0.98056602 -0.569839 0.64580137
0.97221297 -0.58897901 0.64544481
0.94438696 -0.54875398 0.63255888
0.94049698 -0.54818499 0.62691665
0.96053702 -0.57100797 0.62686181
0.96008104 -0.58530104 0.6268754
0.94229597 -0.550394 0.62085575
0.95863897 -0.57014197 0.62065256
0.958911 -0.58153301 0.62079978
0.95448303 -0.59280998 0.62115204
0.93749398 -0.54838598 0.61426252
0.95631796 -0.57042301 0.61479509
0.960141 -0.58503896 0.61505264
0.947703 -0.59154302 0.61430913
0.94565696 -0.56448197 0.60819602
0.95222801 -0.581092 0.6086781
0.946253 -0.590105 0.60830688
0.95107198 -0.578758 0.60251218
0.947963 -0.59027499 0.60234439
0.94736999 -0.57932496 0.5957011
0.95314795 -0.59555304 0.59568316
0.920986 -0.55631697 0.58804679
0.93974197 -0.57472402 0.58823919
0.94641095 -0.59064204 0.5892989
0.93759698 -0.57412499 0.5822742
0.946006 -0.589625 0.58226401
0.93810201 -0.576083 0.57632071
0.94944102 -0.593041 0.575975
0.93243104 -0.57384104 0.56954908
0.93890405 -0.586622 0.56404513
0.94186997 -0.59999502 0.56427771
0.94020104 -0.60028601 0.55172068
0.93601799 -0.61133599 0.551355
0.91074097 -0.62356299 0.551817
0.93985003 -0.601008 0.54521745
0.96590501 -0.60712004 0.70803559
0.966932 -0.61984402 0.70811433
0.96254402 -0.59527999 0.70308131
0.965087 -0.59700501 0.68867183
0.99222505 -0.54459304 0.6786406
0.96730101 -0.595644 0.68121916
0.89435899 -0.594437 0.68556219
0.89601701 -0.59594798 0.68002367
0.97232699 -0.56961 0.6554901
0.973836 -0.570494 0.64839303
0.91516703 -0.60115701 0.65153867
0.91285402 -0.60082197 0.6448667
0.96007401 -0.56343496 0.63616121
0.94110197 -0.55026501 0.62916809
0.95758796 -0.57547301 0.6302489
0.95252198 -0.58640897 0.6286943
0.94272304 -0.55310398 0.62279743
0.95146799 -0.57187402 0.62284064
0.95964897 -0.59063601 0.62262034
0.94221801 -0.55373198 0.61662871
0.95549101 -0.57488602 0.61638725
0.95372301 -0.58667898 0.61679459
0.90298498 -0.59547698 0.6176393
0.950306 -0.57322103 0.61032569
0.94612294 -0.58473498 0.61045545
0.94555199 -0.571266 0.60310876
0.94862396 -0.58636904 0.60370463
0.94606203 -0.59721804 0.60328537
0.94577497 -0.57409304 0.59537989
0.94772905 -0.58453798 0.59702998
0.93957198 -0.593499 0.59683728
0.94864601 -0.58676898 0.59019327
0.93709397 -0.56982797 0.58168757
0.93795097 -0.57936102 0.58352786
0.93582803 -0.59097999 0.5839563
0.93996698 -0.582201 0.57685041
0.93350303 -0.57711202 0.5698148
0.93646204 -0.59301901 0.5699234
0.93312895 -0.57785898 0.56255221
0.94047302 -0.59560502 0.56259137
0.93352503 -0.58878499 0.55616891
0.93895602 -0.59514898 0.54944009
0.93657202 -0.60836202 0.55020738
0.938039 -0.59454399 0.54328012
0.93501401 -0.60437101 0.54346204
