# .PCD v0.7 - Point Cloud Data file format
VERSION 0.7
FIELDS x y z
SIZE 4 4 4
TYPE F F F
COUNT 1 1 1
WIDTH 800
HEIGHT 1
VIEWPOINT 0 0 0 1 0 0 0
POINTS 800
DATA ascii
0.64312899 -0.78950202 1.8256369
0.63954496 -0.79301298 1.817277
0.644306 -0.78922999 1.8168869
0.64721799 -0.78280199 1.813377
0.64322901 -0.79560304 1.811577
0.64596802 -0.78982103 1.809967
0.64971 -0.78436095 1.8076471
0.64886594 -0.80167902 1.809287
0.64734197 -0.79138201 1.8032171
0.65745199 -0.79134297 1.8083271
0.66702002 -0.79231906 1.816167
0.65016294 -0.80355799 1.801867
0.65403503 -0.79851699 1.8031369
0.66067499 -0.79520202 1.8031869
0.66456497 -0.790196 1.804567
0.64899397 -0.802423 1.791607
0.655119 -0.80001295 1.7947971
0.65921599 -0.79334098 1.791007
0.66948301 -0.79496694 1.801747
0.65204 -0.80455899 1.786297
0.653458 -0.79690695 1.7823169
0.65372598 -0.80619299 1.7778369
0.66560304 -0.79799104 1.7806571
0.67071605 -0.79336303 1.7818069
0.68182999 -0.79631597 1.792357
0.67264503 -0.79546303 1.775067
0.67954904 -0.79320097 1.7799569
0.67240602 -0.79355401 1.763417
0.68518901 -0.79636705 1.775607
0.664675 -0.79616302 1.7521671
0.67224002 -0.79197198 1.753517
0.68021798 -0.78953004 1.7499671
0.68795401 -0.77351797 1.743947
0.68031198 -0.79076898 1.7424569
0.68680298 -0.78475499 1.7431769
0.686508 -0.78361803 1.7322071
0.68744302 -0.78370005 1.723557
0.69383299 -0.77781701 1.7253768
0.68791395 -0.79612505 1.723627
0.68892699 -0.78599799 1.717007
0.70034301 -0.78530997 1.7077169
0.69906199 -0.78560501 1.6980069
0.710262 -0.78629899 1.7063169
0.70431101 -0.78780198 1.694477
0.71507102 -0.789635 1.702927
0.68007696 -0.77818799 1.8232071
0.68491697 -0.77561599 1.809597
0.69078499 -0.77319998 1.794487
0.70536798 -0.78037 1.783777
0.69568199 -0.75603795 1.7753769
0.70196199 -0.76802397 1.7742569
0.69906801 -0.76863503 1.765927
0.69933999 -0.75225997 1.7511771
0.70548499 -0.76334602 1.750627
0.70722997 -0.71766996 1.7282269
0.72223699 -0.75641799 1.717507
0.71831 -0.75705099 1.7103769
0.73158801 -0.76465499 1.701097
0.67908305 -0.76941401 1.818907
0.68584096 -0.77898401 1.8158569
0.69341499 -0.762941 1.7969071
0.69017702 -0.78830397 1.805347
0.69789904 -0.77301806 1.7858169
0.69938695 -0.77214897 1.7732871
0.702865 -0.76983202 1.7596869
0.70368201 -0.76986605 1.7500571
0.70498395 -0.77965701 1.751217
0.68757302 -0.76774496 1.817217
0.68429804 -0.78029001 1.823947
0.683855 -0.76572603 1.809767
0.69010001 -0.78784502 1.8104669
0.68741399 -0.76499295 1.7975571
0.69966698 -0.77496397 1.789917
0.69093597 -0.76512396 1.784737
0.69612396 -0.77577502 1.7826871
0.70841402 -0.77206099 1.7528369
0.71055394 -0.78343904 1.754667
0.71519899 -0.75410897 1.7340569
0.71444505 -0.78032798 1.739787
0.71793294 -0.72318494 1.7181571
0.71394998 -0.75144202 1.7261771
0.72381598 -0.76432097 1.7013971
0.676229 -0.79526001 1.818887
0.689861 -0.78145498 1.796427
0.69951701 -0.78922403 1.788857
0.695512 -0.78020203 1.7812171
0.69918096 -0.77899003 1.767807
0.70222199 -0.788899 1.7652169
0.70025301 -0.77994102 1.756057
0.70359099 -0.70845598 1.726667
0.68034202 -0.79078698 1.8165469
0.67649597 -0.80103993 1.823027
0.68984002 -0.775922 1.788237
0.69540602 -0.77561301 1.773417
0.66194296 -0.75799501 1.7925971
0.709831 -0.76082999 1.7410769
0.70431799 -0.773803 1.747957
0.70701897 -0.71821505 1.720407
0.72071898 -0.75752294 1.705027
0.655792 -0.74421799 1.755237
0.66039801 -0.74963599 1.746667
0.68871999 -0.77830803 1.735707
0.69691801 -0.78657097 1.7299869
0.69571602 -0.78555 1.7255468
0.68352801 -0.74163103 1.7237469
0.68527901 -0.744169 1.718837
0.71965599 -0.74739099 1.7033771
0.68918902 -0.743819 1.6913971
0.68860495 -0.74275297 1.6869571
0.67466402 -0.73288 1.816707
0.669276 -0.72582495 1.8110369
0.677733 -0.73234499 1.808717
0.67216796 -0.72544801 1.8029269
0.69363403 -0.753986 1.790437
0.691989 -0.75439298 1.7849469
0.68551904 -0.75608706 1.768627
0.66611999 -0.74105299 1.760287
0.70985901 -0.78426397 1.732667
0.71748197 -0.72852403 1.7288669
0.71939498 -0.73000997 1.7213769
0.72455299 -0.72762001 1.7139771
0.727997 -0.73879403 1.714057
0.73164201 -0.75253701 1.7136071
0.72781801 -0.72575998 1.707927
0.72594297 -0.72922099 1.6996869
0.73139298 -0.73775804 1.6972671
0.73097396 -0.75151998 1.698477
0.72927999 -0.72800499 1.6915671
0.73844904 -0.733666 1.689907
0.73781604 -0.74545896 1.6903369
0.73717797 -0.73504502 1.682777
0.68489099 -0.73595703 1.8249469
0.68186206 -0.72557801 1.8193271
0.681678 -0.73666102 1.817687
0.68124098 -0.72520202 1.811177
0.66591597 -0.71931803 1.8043869
0.67804801 -0.72580397 1.8029269
0.68665701 -0.734945 1.803057
0.67450303 -0.72562701 1.796867
0.686993 -0.73292804 1.795007
0.69572401 -0.730959 1.7870169
0.70058405 -0.73078799 1.7797869
0.70052803 -0.71242201 1.7271469
0.73175699 -0.72882497 1.711257
0.72942495 -0.75688601 1.7096469
0.727835 -0.73137903 1.7041169
0.72451502 -0.76069903 1.702787
0.730111 -0.74232298 1.6963071
0.66934502 -0.72692704 1.8188369
0.68509299 -0.733477 1.818557
0.662817 -0.71779406 1.812477
0.66508102 -0.72629404 1.812367
0.67923898 -0.73399806 1.810817
0.680906 -0.73491096 1.802627
0.68951696 -0.73362803 1.7952468
0.68844104 -0.75386298 1.7952468
0.68838 -0.73344499 1.788837
0.696482 -0.73186201 1.7812369
0.70412999 -0.72992796 1.7496769
0.72328597 -0.73186499 1.7275171
0.72535795 -0.72091401 1.7152069
0.72856796 -0.73248595 1.7129871
0.72666901 -0.75893599 1.7117169
0.72661 -0.72143996 1.707567
0.732081 -0.73175699 1.7060471
0.73356402 -0.75632006 1.705477
0.72193199 -0.72360903 1.6985669
0.733612 -0.730223 1.6995871
0.73755997 -0.74071699 1.6999869
0.73383003 -0.75429398 1.6991071
0.72583902 -0.76643896 1.6977069
0.73580801 -0.729289 1.692217
0.73724902 -0.74095297 1.6932471
0.73078799 -0.75384402 1.691147
0.73483104 -0.72878802 1.6845568
0.73843497 -0.73989302 1.685567
0.66635805 -0.719078 1.8210471
0.67401004 -0.72779703 1.819387
0.686508 -0.736597 1.8186669
0.66618598 -0.71864599 1.8139169
0.67672205 -0.72588098 1.8116971
0.68237704 -0.73674697 1.811517
0.668989 -0.74938303 1.8117169
0.66380203 -0.71911901 1.805907
0.680884 -0.726551 1.804787
0.69116098 -0.73562205 1.803907
0.67666 -0.72580999 1.798447
0.68983704 -0.75596499 1.795047
0.69772601 -0.73507798 1.7890869
0.69238096 -0.75588202 1.787657
0.71023005 -0.73077101 1.745097
0.71464503 -0.72956103 1.738417
0.71012002 -0.752464 1.7350769
0.71841002 -0.72767097 1.7240272
0.71283603 -0.75458395 1.7234269
0.72892702 -0.72682899 1.716767
0.73728997 -0.737391 1.715887
0.72889 -0.750898 1.716647
0.73773801 -0.76031405 1.7148371
0.72492301 -0.72497702 1.7108569
0.73701304 -0.73479599 1.709657
0.73784697 -0.74817395 1.7094369
0.73414904 -0.76222003 1.7083371
0.71823603 -0.789684 1.708197
0.733962 -0.72578001 1.703477
0.73557401 -0.73789704 1.7026169
0.73573703 -0.75036794 1.7028069
0.72986197 -0.72766197 1.695397
0.73921502 -0.73508906 1.6950369
0.73546499 -0.747401 1.696347
0.73729402 -0.72688299 1.6881571
0.74399298 -0.73395503 1.687797
0.73874301 -0.74337196 1.688627
0.74231905 -0.741772 1.680907
0.66815299 -0.724145 1.821147
0.67544699 -0.733459 1.819847
0.686194 -0.74218202 1.8197271
0.66660798 -0.72391701 1.814477
0.67924005 -0.732867 1.811857
0.67300904 -0.72330397 1.807537
0.68416399 -0.73214102 1.804317
0.67636704 -0.72343099 1.799597
0.689776 -0.73115802 1.797367
0.68985397 -0.74189901 1.797117
0.68655998 -0.723212 1.7919971
0.69419897 -0.73168099 1.7912869
0.69648695 -0.75047702 1.7898169
0.697209 -0.73162806 1.784927
0.69742203 -0.75077796 1.7820771
0.70689398 -0.74163103 1.776347
0.70529199 -0.73070395 1.7552271
0.714068 -0.73665297 1.7530271
0.70685995 -0.72906303 1.7470469
0.71489996 -0.72766095 1.7394071
0.71221101 -0.75140703 1.7263669
0.72963095 -0.72550303 1.7196569
0.73654997 -0.736606 1.7179471
0.726668 -0.72583395 1.712677
0.74158698 -0.73647904 1.7114071
0.73378301 -0.74779099 1.712067
0.73598397 -0.75928098 1.711587
0.72515196 -0.72546095 1.7063169
0.73513705 -0.73546201 1.7046869
0.74070901 -0.74715698 1.7056869
0.72835898 -0.727135 1.6989371
0.73394203 -0.73543197 1.697397
0.73133302 -0.72762197 1.6920569
0.73688203 -0.73589796 1.6909469
0.73934305 -0.74509698 1.6904969
0.74370104 -0.73514003 1.683717
0.64475995 -0.79257303 1.7967969
0.66536695 -0.78287804 1.7957569
0.64768898 -0.79094595 1.794307
0.66648805 -0.78226095 1.792347
0.64961195 -0.789729 1.790867
0.64889902 -0.79103398 1.785917
0.646523 -0.79212499 1.781377
0.68648499 -0.79367501 1.7784669
0.67493796 -0.79491597 1.7779069
0.65178597 -0.79388297 1.777967
0.648965 -0.78975701 1.7774769
0.68260694 -0.79614097 1.7745169
0.67276198 -0.79654604 1.773217
0.65269995 -0.793796 1.773537
0.644485 -0.79308897 1.7731071
0.67804301 -0.79864997 1.7698469
0.67374903 -0.794909 1.769327
0.66061997 -0.79628998 1.769407
0.65216601 -0.794047 1.769237
0.648395 -0.79046303 1.7693671
0.66659105 -0.79227698 1.765867
0.65136003 -0.79490399 1.7651269
0.64662099 -0.79161906 1.7649469
0.66280901 -0.79284501 1.761297
0.65063304 -0.79440904 1.7603971
0.664469 -0.79040003 1.7566971
0.65223098 -0.79324698 1.756227
0.64719599 -0.79059196 1.755757
0.65673101 -0.79511201 1.751907
0.66009599 -0.79271501 1.747607
0.64353502 -0.79180396 1.7469971
0.656308 -0.79594398 1.742637
0.64592797 -0.78935099 1.743297
0.68004698 -0.78668702 1.7390571
0.66149801 -0.79414803 1.738247
0.64234596 -0.79218102 1.7389669
0.69446403 -0.78553003 1.734117
0.68271899 -0.78657603 1.7346869
0.64931601 -0.79299402 1.734617
0.64278603 -0.79133201 1.7347369
0.69025004 -0.78803003 1.7307471
0.67831302 -0.78950995 1.730407
0.65966004 -0.79473299 1.729417
0.65359497 -0.79065806 1.730637
0.67317301 -0.79241997 1.7261771
0.656066 -0.78833503 1.7261169
0.66005498 -0.79390699 1.717267
0.66866994 -0.79441804 1.7123871
0.664226 -0.78876096 1.7131369
0.66370201 -0.79118103 1.7089771
0.66984701 -0.78664297 1.7046069
0.666444 -0.78762197 1.700087
0.67993599 -0.79632401 1.689887
0.67280501 -0.79181504 1.6914968
0.62487799 -0.79700798 1.798067
0.61890101 -0.79421699 1.7978669
0.61492503 -0.79000503 1.798707
0.660505 -0.78389901 1.7968869
0.62436402 -0.79232001 1.794717
0.61734796 -0.78842902 1.7951169
0.61762697 -0.77973294 1.795657
0.659904 -0.783732 1.7939969
0.62223399 -0.79202795 1.791347
0.62001497 -0.78579104 1.791517
0.65271205 -0.78795999 1.7893869
0.62697297 -0.78927803 1.788157
0.63173997 -0.79442495 1.782727
0.65045702 -0.79064596 1.7803369
0.63193697 -0.79407996 1.779377
0.62944299 -0.78838098 1.780197
0.67982697 -0.79531097 1.7780468
0.66918403 -0.795048 1.7773871
0.646222 -0.79328501 1.776347
0.63883996 -0.78976798 1.776407
0.67011201 -0.79480499 1.7738769
0.66254896 -0.79258502 1.7732471
0.64593595 -0.79375803 1.772557
0.63659102 -0.79079902 1.7717869
0.637945 -0.78258002 1.7734771
0.666888 -0.79487699 1.769267
0.65850401 -0.79296601 1.7690469
0.64246202 -0.794159 1.7682669
0.64262003 -0.78701597 1.768847
0.636774 -0.78361702 1.769117
0.66868103 -0.78805399 1.7661371
0.64926201 -0.79233497 1.7648871
0.64112395 -0.78839898 1.7651069
0.64468694 -0.77849901 1.765697
0.66722196 -0.78831899 1.7619971
0.647861 -0.79208601 1.760867
0.64026296 -0.78819901 1.7609171
0.684237 -0.78377897 1.7584469
0.66232902 -0.790308 1.7573669
0.643565 -0.79361802 1.756687
0.67273903 -0.78985 1.753677
0.66161299 -0.78990197 1.7535369
0.64165497 -0.79375899 1.753057
0.67992103 -0.78553998 1.7502469
0.65813696 -0.79267699 1.7496469
0.64907402 -0.79045504 1.749527
0.652565 -0.79440302 1.7454571
0.64213699 -0.79332197 1.745477
0.65438795 -0.79344594 1.7404269
0.64289397 -0.79298699 1.7416769
0.67834699 -0.78598195 1.737507
0.64633697 -0.791327 1.7371271
0.67575896 -0.78760099 1.7341269
0.64867997 -0.79067004 1.732977
0.642465 -0.78660101 1.7336071
0.67752099 -0.78624803 1.7302771
0.65419096 -0.79349798 1.7292869
0.648664 -0.78924501 1.7294571
0.65374398 -0.79247302 1.725467
0.65706098 -0.791587 1.7214569
0.65180898 -0.78758699 1.7221469
0.666789 -0.792238 1.7171969
0.65915298 -0.79101998 1.717507
0.652637 -0.78673398 1.7178869
0.66261595 -0.79403704 1.713347
0.65362394 -0.79271203 1.7139469
0.65311301 -0.78629899 1.7136371
0.67120695 -0.79133105 1.7086569
0.65960902 -0.78922796 1.7099069
0.65845001 -0.78149694 1.710157
0.67115301 -0.79185897 1.704787
0.66436404 -0.78821403 1.7058771
0.65855402 -0.78352702 1.7061969
0.66426599 -0.78792298 1.701857
0.65801501 -0.78275198 1.702157
0.66164398 -0.78822196 1.6977969
0.67471498 -0.80377096 1.6928171
0.682657 -0.80028802 1.688647
0.66924202 -0.79894698 1.6894369
0.67188799 -0.790281 1.6852771
0.66236997 -0.78743601 1.686427
0.621696 -0.79074997 1.7994369
0.617369 -0.78754401 1.798627
0.62178302 -0.79049301 1.795477
0.61766201 -0.78699899 1.7951871
0.61303002 -0.77628899 1.795697
0.62737 -0.78870004 1.792477
0.62176299 -0.78607905 1.7922471
0.61518598 -0.78184199 1.7922369
0.623936 -0.79005897 1.788197
0.61846805 -0.78615999 1.7885871
0.61772203 -0.78060603 1.7892569
0.61761498 -0.77485496 1.7903171
0.62492597 -0.78453499 1.785497
0.61895502 -0.78088599 1.7862469
0.62463999 -0.79116601 1.7811569
0.62398702 -0.78580594 1.781667
0.68946195 -0.78343803 1.7815869
0.62900501 -0.78217596 1.778827
0.68335098 -0.78547204 1.7781869
0.65363002 -0.792 1.7755671
0.62899101 -0.78815299 1.7744169
0.627244 -0.78337598 1.7752969
0.66934502 -0.79061997 1.7731369
0.66166604 -0.78906703 1.772827
0.64359003 -0.79049599 1.771687
0.63512498 -0.78653502 1.771277
0.63060999 -0.78159106 1.771897
0.67499602 -0.78818494 1.7694169
0.66296995 -0.78790498 1.769487
0.637977 -0.79104304 1.767807
0.62867099 -0.78886002 1.7673669
0.66889197 -0.78575498 1.7663269
0.64549303 -0.78881598 1.7651069
0.63617599 -0.78532797 1.764587
0.63575196 -0.778907 1.765187
0.644099 -0.78768504 1.761387
0.63531399 -0.78541803 1.761057
0.637761 -0.77836198 1.7616169
0.64169502 -0.78222799 1.7582769
0.64199096 -0.78169799 1.754187
0.66314101 -0.78487098 1.7505569
0.64305395 -0.78818494 1.7463269
0.65813005 -0.78678298 1.7431769
0.64778101 -0.78647101 1.739247
0.64765197 -0.78473198 1.724627
0.67291605 -0.78211802 1.7205369
0.66105497 -0.779513 1.7099469
0.66798204 -0.78343397 1.7017969
0.65482199 -0.78172302 1.7032269
0.66593397 -0.78466398 1.698277
0.65989703 -0.77999705 1.699227
0.67236 -0.78832704 1.695197
0.68436205 -0.79792297 1.6902069
0.670793 -0.79625702 1.6906171
0.67140198 -0.79616797 1.6872971
0.66706002 -0.790115 1.687207
0.66260904 -0.79131204 1.6833169
0.642138 -0.78665495 1.8210969
0.65162498 -0.78489095 1.8191268
0.65367699 -0.78371698 1.8121469
0.65560997 -0.78296095 1.8064569
0.643031 -0.74607396 1.8063071
0.64633906 -0.74439901 1.8038971
0.65070802 -0.78970903 1.7818069
0.630732 -0.790021 1.780067
0.62578797 -0.78635496 1.7774469
0.63524604 -0.78365099 1.7752771
0.66106397 -0.78701103 1.7742771
0.64601403 -0.78589106 1.772787
0.63788104 -0.78223395 1.7721469
0.65789497 -0.78701204 1.7701669
0.64369905 -0.78530997 1.769227
0.63287997 -0.78187895 1.768837
0.665892 -0.78516197 1.767267
0.64696902 -0.78507006 1.766057
0.63761598 -0.78144699 1.7658271
0.65361702 -0.78358001 1.7634571
0.64305997 -0.78055197 1.7624869
0.653216 -0.78320801 1.759577
0.64163804 -0.78057098 1.758467
0.65497804 -0.78315598 1.756117
0.63966703 -0.781452 1.755067
0.64748901 -0.78444397 1.749077
0.67502195 -0.78184402 1.738467
0.64200103 -0.77951205 1.7384571
0.67786402 -0.78165704 1.7351669
0.67876899 -0.78142196 1.7319471
0.67553902 -0.781654 1.7283969
0.67594099 -0.78140604 1.7243869
0.69938397 -0.74283201 1.725587
0.68257898 -0.780056 1.720777
0.68684095 -0.74729699 1.722857
0.68464303 -0.77967596 1.7175171
0.68250901 -0.77964401 1.714017
0.66030002 -0.75411904 1.712307
0.70803201 -0.78362393 1.7063071
0.71545899 -0.81231499 1.7016369
0.667427 -0.78760201 1.8166471
0.65661103 -0.796269 1.817247
0.67734098 -0.78801501 1.8089271
0.675138 -0.78682297 1.8006171
0.70235097 -0.78007102 1.778107
0.69743896 -0.78716004 1.778667
0.69734704 -0.78015798 1.7637069
0.67882895 -0.78592104 1.764667
0.70029503 -0.78009695 1.7558069
0.67534697 -0.78591001 1.758587
0.70194703 -0.779383 1.748317
0.67800796 -0.78544801 1.751277
0.70901603 -0.77782798 1.7404871
0.69149101 -0.785748 1.743157
0.69291496 -0.69972396 1.736037
0.71730798 -0.77649802 1.733247
0.68097502 -0.78521001 1.8195169
0.68540198 -0.78689402 1.8121868
0.67966598 -0.78780198 1.8055871
0.66821295 -0.79528898 1.8065671
0.67001802 -0.79473704 1.800137
0.68241799 -0.78583801 1.789937
0.69006801 -0.77628702 1.7833869
0.69616598 -0.77739 1.776227
0.69863701 -0.78704596 1.774747
0.68291801 -0.794599 1.776167
0.70147204 -0.77690297 1.768847
0.66841799 -0.792983 1.770347
0.69780505 -0.77711505 1.7612369
0.71180499 -0.77801806 1.752457
0.70398802 -0.78569704 1.7546271
0.70160896 -0.76732904 1.7465869
0.71332604 -0.77789301 1.745447
0.70888603 -0.78534299 1.746967
0.71613801 -0.778714 1.731577
0.68120402 -0.743797 1.7157969
0.67741603 -0.77659398 1.805517
0.69406199 -0.78089499 1.7750769
0.68659896 -0.77192801 1.7545669
0.69109499 -0.77249902 1.7467669
0.693012 -0.79472703 1.7303571
0.672674 -0.780267 1.8056171
0.66482699 -0.78739703 1.7993869
0.682199 -0.78106397 1.7507471
0.67226899 -0.78392601 1.744097
0.70013499 -0.77553499 1.7348571
0.68236399 -0.78434998 1.7366871
0.66034102 -0.79962301 1.740157
0.67827696 -0.77968103 1.819117
0.67864799 -0.79186702 1.819967
0.68513298 -0.78253698 1.811087
0.68543798 -0.79422599 1.8120871
0.68400198 -0.79134005 1.8033569
0.686288 -0.77282095 1.797027
0.69166398 -0.78436697 1.7947769
0.68794096 -0.792633 1.795257
0.69296896 -0.775693 1.788457
0.69477302 -0.78554606 1.786597
0.68914497 -0.79324096 1.7873371
0.69742996 -0.77801597 1.779337
0.69130599 -0.78556705 1.779857
0.69800103 -0.77704597 1.770787
0.697079 -0.786654 1.7717071
0.68910104 -0.79363298 1.773127
0.69800699 -0.78555399 1.763967
0.700845 -0.78893095 1.7560269
0.67752999 -0.79412901 1.756047
0.64420801 -0.79430801 1.757557
0.69358599 -0.78875196 1.7485269
0.650213 -0.79570901 1.751907
0.69541496 -0.70005 1.737597
0.70706004 -0.775352 1.739377
0.69803596 -0.787319 1.7403769
0.69396299 -0.69751406 1.732137
0.699485 -0.74477696 1.725397
0.71146005 -0.778216 1.723887
0.693757 -0.78676599 1.7417569
0.68791395 -0.79124904 1.7268469
0.67877001 -0.79241997 1.7195871
0.69582397 -0.78554398 1.726687
0.687222 -0.79285502 1.697937
0.64284301 -0.79202402 1.824857
0.64508796 -0.79092002 1.816537
0.63638401 -0.78637499 1.8130569
0.64484 -0.78880095 1.8086371
0.66624099 -0.78505206 1.819507
0.65116698 -0.78664398 1.8055969
0.62966901 -0.78086001 1.791507
0.67217398 -0.78682899 1.8155271
0.65998298 -0.78785497 1.802587
0.64871299 -0.78611803 1.793887
0.63829702 -0.78314698 1.787297
0.675758 -0.78347504 1.810887
0.65722799 -0.788212 1.789227
0.66363096 -0.78526902 1.786447
0.64927298 -0.78593904 1.774407
0.64159799 -0.78054601 1.772717
0.68708903 -0.78437501 1.7955871
0.66810304 -0.78949302 1.778057
0.659275 -0.78714204 1.772377
0.64892 -0.78430802 1.765587
0.67800105 -0.78944504 1.776637
0.66351402 -0.79167199 1.764347
0.64355302 -0.78612798 1.749507
0.63876599 -0.77971399 1.751207
0.68115401 -0.78748202 1.770367
0.66819799 -0.78855401 1.760957
0.64063501 -0.77917397 1.743607
0.68746203 -0.78288102 1.769827
0.66744596 -0.78890997 1.749657
0.68174398 -0.78511202 1.755237
0.68586999 -0.781946 1.7395669
0.66561097 -0.77961504 1.7257071
0.684784 -0.78367305 1.727837
0.674187 -0.78167295 1.7204871
0.66833001 -0.77549005 1.721647
0.68562204 -0.78358597 1.719247
0.67128503 -0.77315801 1.7155169
0.67962503 -0.77784401 1.7089969
0.64436996 -0.78155702 1.814707
0.64883304 -0.77952695 1.810257
0.65480101 -0.78185302 1.805337
0.646191 -0.78002501 1.7965469
0.64443296 -0.78056699 1.7840171
0.658342 -0.78092599 1.777567
0.64098799 -0.78141505 1.759957
0.683487 -0.78977895 1.7839869
0.66435897 -0.78565401 1.770797
0.65452904 -0.78229696 1.762977
0.69444394 -0.78476799 1.7904871
0.67756897 -0.786722 1.773487
0.66680497 -0.78397906 1.7644769
0.64612699 -0.77769995 1.7465271
0.66533095 -0.78336197 1.754377
0.656183 -0.779975 1.7460669
0.64508498 -0.777852 1.7371869
0.69174695 -0.784756 1.769977
0.66810799 -0.78292602 1.747237
0.68423402 -0.78191704 1.753677
0.66543299 -0.78323799 1.7344571
0.663607 -0.75369799 1.752067
0.68665004 -0.78590798 1.745217
0.68298203 -0.781519 1.743147
0.66713095 -0.781461 1.7276269
0.68485296 -0.78615898 1.7329471
0.67609704 -0.78403395 1.726447
0.66938102 -0.78004801 1.721167
0.69465303 -0.78189003 1.734807
0.67866206 -0.78308195 1.7196069
0.69248003 -0.78342497 1.7223669
0.676826 -0.77506101 1.7031571
0.67399496 -0.75150704 1.715307
0.68681198 -0.78710294 1.697077
0.68090403 -0.78099298 1.6943769
0.63844895 -0.78415197 1.819387
0.64180702 -0.78234398 1.8140869
0.64227206 -0.78139997 1.8054171
0.642133 -0.78087896 1.7834469
0.64456004 -0.77977502 1.7777469
0.64207298 -0.78023696 1.764587
0.66152799 -0.77984804 1.7772369
0.64153701 -0.77992797 1.754517
0.69370598 -0.78293699 1.7992569
0.65867597 -0.78014201 1.764727
0.64324206 -0.77922797 1.7470269
0.68984598 -0.78923398 1.782737
0.68569899 -0.78548896 1.7820771
0.663854 -0.77917504 1.7608371
0.69961196 -0.78615999 1.785717
0.69174695 -0.78338206 1.7807471
0.674815 -0.782251 1.761447
0.66013199 -0.78056097 1.7456369
0.69096494 -0.78335899 1.7695169
0.67097396 -0.78302199 1.746647
0.66396302 -0.77968401 1.739437
0.70118695 -0.784823 1.7709869
0.67283094 -0.78177297 1.7389169
0.67472601 -0.78105903 1.7315969
0.67057401 -0.77683198 1.730067
0.702519 -0.782902 1.753557
0.691594 -0.78079498 1.740877
0.671803 -0.78082103 1.720157
0.69916803 -0.78399497 1.738667
0.679196 -0.77938402 1.7196069
0.69865602 -0.77903998 1.731577
0.679447 -0.77863401 1.7110668
0.68668997 -0.788315 1.687157
0.716048 -0.78458399 1.693717
0.61559701 -0.77964598 1.788157
0.64262998 -0.74397498 1.803817
0.64954805 -0.74736196 1.8023169
0.66156304 -0.74510497 1.809647
0.63924903 -0.77348 1.7487369
0.64529997 -0.78396201 1.731987
0.64919001 -0.78784895 1.727827
0.65400803 -0.787229 1.7253768
0.67254096 -0.78360999 1.738197
0.68391699 -0.78160203 1.7416971
0.673338 -0.77852798 1.7314969
0.69036001 -0.78047997 1.7402569
0.68301201 -0.77739304 1.734277
0.68353599 -0.77647501 1.7258371
0.67233902 -0.75167799 1.719877
0.69395798 -0.77905297 1.727307
0.68361604 -0.77519798 1.717097
0.67976701 -0.74963599 1.701947
0.72064596 -0.77945602 1.6941769
0.69242799 -0.77348703 1.819247
0.694574 -0.77329099 1.8067969
0.68452203 -0.77974504 1.816987
0.70064199 -0.773184 1.7914169
0.72001505 -0.77360398 1.7552772
0.70363998 -0.77981299 1.769977
0.71800905 -0.77380699 1.746377
0.70896202 -0.78094298 1.7542371
0.71041399 -0.78140098 1.7436969
0.68307996 -0.75776398 1.820027
0.67783999 -0.77792096 1.821297
0.68543506 -0.75426698 1.806677
0.68514901 -0.76648599 1.806917
0.67493105 -0.78757697 1.813687
0.69992995 -0.769602 1.783567
0.69554496 -0.78178704 1.785627
0.68205398 -0.78929704 1.797097
0.69879204 -0.75754899 1.7767869
0.70205706 -0.768843 1.771147
0.704225 -0.78093696 1.7702069
0.70143801 -0.75728798 1.7645569
0.69937795 -0.768022 1.7640671
0.70503306 -0.78030699 1.7595669
0.71005094 -0.75641298 1.745587
0.70818901 -0.76835406 1.7478369
0.70467204 -0.780177 1.7491369
0.72740698 -0.75937498 1.712867
0.72258002 -0.755813 1.707337
0.72763705 -0.75878698 1.6945469
0.71389395 -0.742338 1.6966369
0.70370597 -0.79027003 1.698707
0.69703001 -0.78138101 1.697107
0.69110197 -0.76421094 1.819787
0.68654299 -0.77435303 1.8233969
0.68260103 -0.78323901 1.824567
0.697056 -0.76373702 1.8045269
0.68583506 -0.77336001 1.812587
0.69729102 -0.75208503 1.7955871
0.69661599 -0.761554 1.794117
0.695171 -0.77420306 1.793627
0.69437402 -0.75043702 1.788287
0.69834101 -0.76371402 1.7818271
0.69529504 -0.775747 1.783067
0.69738406 -0.75038099 1.775197
0.70856202 -0.76443702 1.762887
0.70246398 -0.77632797 1.7675171
0.70541 -0.75161695 1.7585269
0.71020103 -0.76381105 1.751967
0.71485102 -0.75396204 1.7405468
0.71223098 -0.76634002 1.7420269
0.715801 -0.77936095 1.7369471
0.72298205 -0.72904295 1.718627
0.72972703 -0.75539398 1.708217
0.71701401 -0.72492701 1.7140371
0.72606003 -0.74074095 1.705317
0.73037696 -0.75455701 1.6981369
0.71392995 -0.72523397 1.706417
0.73547399 -0.75750899 1.6845469
0.69603598 -0.75602996 1.8258969
0.68555903 -0.76295799 1.820987
0.68468803 -0.77549601 1.8163971
0.69346398 -0.75524694 1.8060669
0.68893301 -0.763928 1.806347
0.69936097 -0.75698501 1.7913569
0.70024598 -0.76738298 1.7861071
0.69211 -0.77745903 1.789837
0.668145 -0.78176498 1.8091269
0.70359099 -0.75759697 1.7774769
0.703058 -0.76621103 1.7738169
0.70017797 -0.77659303 1.774177
0.69110602 -0.78535599 1.7806571
0.70537496 -0.75805199 1.7652271
0.70338303 -0.76725501 1.7635471
0.71318102 -0.76031405 1.7477469
0.712291 -0.770953 1.7470469
0.71824801 -0.75824898 1.732507
0.71693605 -0.72711098 1.7268671
0.72044998 -0.75889504 1.722307
0.72838402 -0.74688005 1.7082371
0.72173601 -0.72999603 1.706297
0.73720002 -0.76196402 1.689747
0.71776605 -0.78332001 1.6989371
0.68894303 -0.80081004 1.715757
0.68526602 -0.77217901 1.827427
0.69298697 -0.75044 1.820567
0.69487602 -0.76264602 1.813607
0.69193703 -0.774562 1.8128971
0.68860102 -0.78582495 1.8122369
0.67953002 -0.79356599 1.8186669
0.68968397 -0.74919504 1.811417
0.70416903 -0.76575798 1.794677
0.69333702 -0.775069 1.802307
0.68651605 -0.795587 1.8023371
0.70094705 -0.75343597 1.7913971
0.70406097 -0.76535499 1.783547
0.69875199 -0.77708507 1.7868069
0.70556098 -0.75532895 1.7768769
0.70740402 -0.76628095 1.7703971
0.69928497 -0.77479202 1.7763569
0.695907 -0.78518301 1.7776169
0.70822197 -0.756446 1.7639569
0.71358705 -0.76798201 1.755037
0.71902901 -0.76038802 1.745347
0.71782303 -0.77973199 1.7399271
0.73626602 -0.76360804 1.710217
0.72640002 -0.72941297 1.7153571
0.72789401 -0.74395597 1.710137
0.74025202 -0.76365399 1.6962869
0.721111 -0.726345 1.7104471
0.71827102 -0.72318101 1.702167
0.73562896 -0.74921399 1.6844571
