# .PCD v0.7 - Point Cloud Data file format
VERSION 0.7
FIELDS x y z
SIZE 4 4 4
TYPE F F F
COUNT 1 1 1
WIDTH 1450
HEIGHT 1
VIEWPOINT 0 0 0 1 0 0 0
POINTS 1450
DATA ascii
0.82226199 -0.59407598 0.19349597
0.82900399 -0.58855098 0.194557
0.83405298 -0.58124197 0.193894
0.85037595 -0.58437997 0.186133
0.79488403 -0.61424398 0.19131199
0.79880404 -0.609254 0.19222797
0.80856597 -0.60687399 0.18995696
0.81914198 -0.602364 0.18645199
0.82510203 -0.59549302 0.18640298
0.82808405 -0.587008 0.18907899
0.83822304 -0.58394504 0.18485698
0.84958899 -0.583915 0.18070297
0.78279299 -0.60734403 0.19204998
0.79713994 -0.60936999 0.18756896
0.81125098 -0.60730702 0.182267
0.822685 -0.60465598 0.17844799
0.824103 -0.59616601 0.18137798
0.82911599 -0.58854699 0.18179898
0.83461899 -0.58224499 0.18043599
0.85040098 -0.585195 0.17387398
0.78839499 -0.62053901 0.18170398
0.78661299 -0.61109102 0.185756
0.796938 -0.60896599 0.18329899
0.833947 -0.622361 0.16368298
0.82385099 -0.60617197 0.17200299
0.82455397 -0.59549999 0.17542797
0.82747298 -0.58596599 0.17715298
0.83873904 -0.58484101 0.17242999
0.85061502 -0.58532101 0.16690198
0.777789 -0.61182302 0.18445401
0.824103 -0.60579699 0.16655301
0.83017701 -0.60139 0.16515499
0.83139002 -0.59015596 0.16815799
0.83946699 -0.58493596 0.16580699
0.85149801 -0.58553004 0.16019298
0.82657099 -0.605142 0.15912098
0.82373399 -0.59385896 0.16398598
0.83391196 -0.59044898 0.16020501
0.84144598 -0.58544999 0.15924297
0.85281098 -0.58669001 0.153521
0.82433802 -0.60260302 0.153493
0.82698703 -0.59625101 0.15580899
0.83149397 -0.58971196 0.154533
0.83719999 -0.58358401 0.155578
0.85362601 -0.58840197 0.14719498
0.82548898 -0.60406297 0.14593799
0.827443 -0.59657699 0.14871098
0.82692003 -0.58652598 0.15183197
0.8337 -0.58291197 0.15056796
0.82415497 -0.60333502 0.14092098
0.829126 -0.59859699 0.14043698
0.82883102 -0.58832502 0.14509399
0.83684504 -0.58531898 0.14124398
0.824862 -0.60349298 0.13434799
0.82946604 -0.59791601 0.133801
0.83204401 -0.58974898 0.136283
0.83988196 -0.586281 0.13295098
0.82580703 -0.604249 0.12822399
0.82831401 -0.598248 0.12864998
0.83301198 -0.59098202 0.129426
0.83612001 -0.58347696 0.13065399
0.84833997 -0.58441901 0.124645
0.82273102 -0.60173696 0.12562199
0.82908994 -0.59875304 0.12379898
0.83407599 -0.59315896 0.12356598
0.836308 -0.58370996 0.12585697
0.84642798 -0.58275104 0.12161697
0.83810502 -0.61012197 0.35746399
0.88283503 -0.54544497 0.35804901
0.833386 -0.60607797 0.35376999
0.83162904 -0.595622 0.35530099
0.83279502 -0.58545899 0.35737598
0.83191401 -0.60625303 0.34719598
0.83036399 -0.59284902 0.35106301
0.829216 -0.579368 0.35329697
0.83032799 -0.56689203 0.35596099
0.84093302 -0.564143 0.35287499
0.83988297 -0.63949198 0.33119896
0.84381402 -0.63191801 0.332807
0.83429903 -0.61148798 0.339432
0.82859099 -0.59256399 0.34534299
0.82932198 -0.58043301 0.34697297
0.83489603 -0.57160097 0.347743
0.83984596 -0.56334203 0.34805599
0.84373802 -0.55530602 0.34858897
0.83721197 -0.53809297 0.35447702
0.82094401 -0.63747197 0.329539
0.826635 -0.629471 0.33109298
0.83006597 -0.61901301 0.33370999
0.82950801 -0.60533696 0.33607799
0.82544702 -0.58750099 0.34108397
0.82907504 -0.578372 0.34235299
0.83256698 -0.570454 0.34242198
0.84004802 -0.563389 0.34238899
0.84413803 -0.55517501 0.34324798
0.85023999 -0.55130798 0.34248698
0.82501 -0.65127295 0.32108596
0.81834102 -0.63509101 0.32620099
0.81831801 -0.62336701 0.328513
0.82539499 -0.61528403 0.32904702
0.82585698 -0.60186601 0.33162299
0.82811093 -0.59230596 0.33403698
0.83126098 -0.58153403 0.33516997
0.84102499 -0.57618099 0.33408698
0.85065103 -0.57265997 0.33147401
0.85048598 -0.56067699 0.33536097
0.86144698 -0.56095999 0.331321
0.81661695 -0.501948 0.35739499
0.81311095 -0.64045602 0.320557
0.81420302 -0.63016999 0.322548
0.81779701 -0.620121 0.323681
0.824453 -0.61374003 0.323311
0.82587403 -0.60307598 0.32586601
0.82726997 -0.59150398 0.328796
0.82920098 -0.58138102 0.329252
0.84032798 -0.57739103 0.327804
0.86099404 -0.58226103 0.32102898
0.872554 -0.57950997 0.31973198
0.882842 -0.57832003 0.316387
0.81318098 -0.658005 0.308745
0.80983704 -0.64210701 0.31398699
0.81345201 -0.63268298 0.31657398
0.82078201 -0.626082 0.31552699
0.82243896 -0.61303198 0.31835198
0.82815695 -0.606305 0.31912097
0.824844 -0.58982301 0.32339898
0.83031303 -0.58045602 0.32351699
0.84698403 -0.58138901 0.31872597
0.86627096 -0.58367401 0.31419399
0.88316202 -0.58667201 0.30995899
0.89624196 -0.58925897 0.30488899
0.79170698 -0.64767504 0.31058601
0.80033094 -0.64551401 0.31005898
0.80910301 -0.64209604 0.30906099
0.81165606 -0.63211203 0.310902
0.82787299 -0.63249898 0.30609199
0.83185202 -0.62193602 0.30799299
0.82481796 -0.60127199 0.31487298
0.82718003 -0.588467 0.31681198
0.83496201 -0.58291602 0.31628799
0.842493 -0.57888901 0.314381
0.862176 -0.58299804 0.30875897
0.88187701 -0.58663297 0.30438998
0.899001 -0.59238601 0.29747799
0.79435802 -0.651169 0.303978
0.79600406 -0.64334702 0.30577397
0.80428594 -0.63845503 0.30546299
0.81283599 -0.63426995 0.30378598
0.84291297 -0.63040799 0.29713199
0.83279198 -0.60914904 0.304649
0.82599401 -0.58954799 0.310783
0.83359301 -0.58246398 0.31087697
0.84770399 -0.58223999 0.307228
0.85914201 -0.58121198 0.30375198
0.87846202 -0.585464 0.29874897
0.89994794 -0.59396303 0.29110897
0.789648 -0.64581001 0.30066097
0.79882795 -0.64432198 0.29941499
0.80498004 -0.639193 0.29873198
0.82418197 -0.64809096 0.29195499
0.844037 -0.62891996 0.29029399
0.83403397 -0.61011797 0.29791901
0.82807803 -0.59251201 0.30361199
0.83035797 -0.582241 0.30589998
0.84468699 -0.58119798 0.30225497
0.86551303 -0.58543801 0.29557696
0.87709504 -0.58478403 0.29293197
0.78903604 -0.644988 0.29551899
0.79843199 -0.64474702 0.293713
0.81164199 -0.64744204 0.29005298
0.84499395 -0.62929404 0.28353298
0.83479601 -0.61048597 0.29154399
0.82861 -0.59393001 0.29772297
0.83365601 -0.58485103 0.29826099
0.84934896 -0.58327502 0.29373601
0.86549699 -0.58498299 0.29021499
0.88766295 -0.59553504 0.28204596
0.79409498 -0.64988899 0.28903699
0.79856199 -0.64478105 0.28944501
0.84512705 -0.630261 0.277192
0.83555394 -0.61149001 0.28491601
0.82919902 -0.59331399 0.291908
0.83749002 -0.58626598 0.28981099
0.84822601 -0.582955 0.28775096
0.85915494 -0.58193201 0.28671497
0.84399903 -0.63083398 0.27176198
0.83918101 -0.61672699 0.27644199
0.830755 -0.59503901 0.28411296
0.83479697 -0.584714 0.28428996
0.842623 -0.58029902 0.28438297
0.85215104 -0.57868403 0.28214797
0.85053301 -0.64802301 0.25832397
0.84249604 -0.63047796 0.26595601
0.830809 -0.607274 0.27437198
0.82912201 -0.59101796 0.278864
0.82865095 -0.578942 0.28183997
0.84087098 -0.57890397 0.27910998
0.85762703 -0.58284098 0.272542
0.84374702 -0.64117301 0.25669
0.83747101 -0.62518197 0.26298198
0.83081597 -0.608468 0.26776999
0.82630301 -0.59151399 0.27335
0.83037001 -0.58017302 0.275242
0.84494299 -0.58007699 0.271615
0.85800099 -0.58081198 0.26619297
0.84553397 -0.64412999 0.24868298
0.83524805 -0.62352902 0.257449
0.82735801 -0.60261798 0.26429397
0.82529801 -0.58700901 0.26863599
0.82567197 -0.57468301 0.27106696
0.84481102 -0.57902902 0.26550198
0.86337602 -0.58319598 0.25844598
0.88426805 -0.59270501 0.250597
0.84524202 -0.64416999 0.24302998
0.838229 -0.62829101 0.24888398
0.82757205 -0.60549402 0.256975
0.82474196 -0.58875704 0.26226398
0.82712305 -0.57773799 0.26426801
0.83547503 -0.57201403 0.263313
0.86319196 -0.58296299 0.25303498
0.87655503 -0.58419603 0.24889797
0.84585899 -0.64346397 0.237608
0.83252698 -0.62048799 0.24632297
0.82592398 -0.60347098 0.252029
0.82963896 -0.59477901 0.25292599
0.82319903 -0.57617599 0.26032096
0.831797 -0.57018 0.258387
0.85023999 -0.57216597 0.25297299
0.87154406 -0.57864398 0.24557598
0.88963997 -0.585123 0.23899998
0.834171 -0.62180197 0.24004799
0.82723999 -0.604532 0.24569198
0.82594103 -0.58999801 0.24842499
0.82581103 -0.57720798 0.25324899
0.82364899 -0.56265599 0.25591797
0.83789301 -0.56201601 0.25259998
0.86591697 -0.57327098 0.24229901
0.88104796 -0.57725298 0.23769298
0.82982099 -0.61555696 0.23583397
0.82230401 -0.59803998 0.24254498
0.831743 -0.59512502 0.23917198
0.82517999 -0.57569999 0.24720898
0.81967497 -0.55955398 0.25252801
0.82375199 -0.55403197 0.25250798
0.86369497 -0.56990397 0.23734497
0.87650001 -0.57285398 0.23390599
0.83400899 -0.618774 0.226404
0.82657897 -0.602292 0.23419598
0.82823402 -0.59220099 0.234725
0.82915497 -0.58113301 0.23855197
0.81961405 -0.560242 0.24676998
0.814331 -0.54517603 0.25082502
0.86524802 -0.56887901 0.23026799
0.86936796 -0.56611997 0.231125
0.83580804 -0.62146097 0.21851398
0.82980901 -0.60541201 0.22567199
0.82310599 -0.58752602 0.231996
0.82641101 -0.57774299 0.23361698
0.81653196 -0.55485803 0.24230199
0.80260497 -0.53222799 0.25115997
0.85137904 -0.55696899 0.232556
0.87107396 -0.56679296 0.22468701
0.83175695 -0.61840099 0.214991
0.83217597 -0.60962301 0.217291
0.82613504 -0.59107 0.22431499
0.82738096 -0.57866699 0.22609897
0.82000196 -0.56026399 0.234421
0.79974198 -0.52968901 0.24741298
0.86921996 -0.56499898 0.22131
0.83109099 -0.61760598 0.20982598
0.82350898 -0.59961897 0.21592098
0.824292 -0.587084 0.21953598
0.82939905 -0.57990098 0.21867099
0.82008499 -0.56101298 0.22828999
0.81914598 -0.61904901 0.203521
0.82108003 -0.609146 0.20793599
0.819592 -0.59714299 0.21057498
0.82735097 -0.59000701 0.211218
0.831882 -0.58127999 0.21155196
0.82744402 -0.56823301 0.21706398
0.80199999 -0.60486501 0.20691399
0.81525999 -0.60567498 0.20382698
0.81645501 -0.59488499 0.206717
0.82280803 -0.58835703 0.20614098
0.828004 -0.57918704 0.20773597
0.83777601 -0.57724303 0.20585801
0.82336801 -0.55683899 0.21572898
0.79623705 -0.61105996 0.20093299
0.80686301 -0.60962898 0.198806
0.81588602 -0.60563999 0.19718598
0.820279 -0.59815001 0.199221
0.82556397 -0.59095597 0.19835399
0.82942498 -0.581783 0.19971298
0.83473396 -0.57542002 0.20164299
0.78834295 -0.61706001 0.19448899
0.78358901 -0.60271299 0.20104797
0.795609 -0.602938 0.19805397
0.81312501 -0.60545397 0.19146797
0.82100797 -0.59766996 0.19238597
0.82456595 -0.58758402 0.19399899
0.83513701 -0.58545601 0.18993199
0.82936502 -0.57119399 0.19740699
0.77498198 -0.60405397 0.19765499
0.78311503 -0.60179001 0.19685398
0.79654902 -0.60292703 0.19163597
0.81771898 -0.60985398 0.18168598
0.822245 -0.60052896 0.18411399
0.82711303 -0.590294 0.185985
0.83554703 -0.58487999 0.18358798
0.83295798 -0.57337099 0.18856998
0.77321506 -0.62857199 0.18242699
0.77982903 -0.62558401 0.181907
0.77147502 -0.60491699 0.19165897
0.78037202 -0.59989798 0.192426
0.80229402 -0.60761702 0.18224899
0.82875705 -0.61971402 0.16934299
0.82528603 -0.60483301 0.17523098
0.82532698 -0.59172702 0.17950699
0.83449 -0.58650202 0.17778198
0.84372705 -0.582313 0.17552799
0.83294404 -0.564951 0.18587597
0.75849998 -0.61383402 0.186391
0.76425004 -0.61021501 0.18695697
0.76574898 -0.60051703 0.18856499
0.77585799 -0.59836501 0.18785198
0.82269204 -0.62202501 0.16557999
0.83165604 -0.61964202 0.16272298
0.82334 -0.59930402 0.17137699
0.82604402 -0.58908904 0.17394699
0.83911496 -0.58806902 0.16902199
0.85054499 -0.58696902 0.16561501
0.86389297 -0.59009099 0.15958099
0.74978304 -0.60593396 0.18541901
0.75777704 -0.60349798 0.18495098
0.76311499 -0.59797198 0.18475097
0.76809001 -0.59393501 0.18455398
0.83309996 -0.62119097 0.156041
0.82561898 -0.60355401 0.16287598
0.82867503 -0.59211099 0.16521198
0.83723503 -0.58718199 0.16386898
0.85053802 -0.587596 0.159426
0.86678803 -0.59195596 0.15134197
0.74132699 -0.59783298 0.18494
0.75176203 -0.59875703 0.181474
0.76008397 -0.59587502 0.18122201
0.76883799 -0.59569001 0.17796399
0.82968199 -0.61564898 0.15146901
0.82336307 -0.59890902 0.15850899
0.82634699 -0.59037399 0.160126
0.83376294 -0.58508301 0.15958999
0.85524005 -0.590832 0.14984497
0.86840105 -0.59165502 0.14395599
0.74297696 -0.599338 0.17786899
0.74796206 -0.59531999 0.17745098
0.75541198 -0.59281099 0.177551
0.832335 -0.61696202 0.143895
0.82805705 -0.60446095 0.14951099
0.82775199 -0.59236503 0.153019
0.83651197 -0.586079 0.15130299
0.85823405 -0.59210801 0.141344
0.87301397 -0.59467 0.135545
0.74027199 -0.59702098 0.17342399
0.74456197 -0.59331501 0.17338298
0.75113702 -0.59099799 0.17295898
0.82529801 -0.60005796 0.14561199
0.82708299 -0.58949202 0.14666797
0.84017503 -0.588305 0.14300099
0.85697502 -0.592031 0.13590199
0.86841697 -0.59119099 0.13328598
0.87437499 -0.58765399 0.13256501
0.73728502 -0.59416598 0.16917901
0.73948306 -0.588799 0.17124897
0.82088697 -0.59366101 0.14125599
0.82412302 -0.58747 0.141996
0.834925 -0.58687299 0.13851799
0.86999899 -0.60117501 0.12501697
0.73955399 -0.59722304 0.16127998
0.73949599 -0.58979696 0.16474697
0.82298601 -0.59607702 0.132487
0.82665002 -0.590078 0.13446899
0.82769603 -0.58243501 0.135546
0.83810896 -0.58232898 0.133251
0.75017405 -0.60835201 0.14955597
0.75243795 -0.60330099 0.150878
0.82066703 -0.59450102 0.12775998
0.82277101 -0.58800501 0.12957798
0.810624 -0.56908399 0.13942398
0.81777102 -0.59193903 0.124758
0.81260598 -0.57945997 0.13062
0.79728103 -0.57312101 0.13374896
0.826024 -0.54491502 0.35406798
0.83029604 -0.539217 0.35415798
0.88470495 -0.52371603 0.34805396
0.83232903 -0.55116498 0.34709299
0.84161204 -0.55037397 0.345438
0.86822999 -0.57540101 0.35885799
0.88727403 -0.54094797 0.35629898
0.87892896 -0.55782396 0.35360101
0.88065201 -0.56845403 0.35464501
0.89219201 -0.57034701 0.35492897
0.89474297 -0.53450501 0.35375801
0.88959605 -0.54997897 0.350438
0.88266701 -0.56553102 0.34880897
0.900258 -0.56677103 0.34980896
0.88750196 -0.53917998 0.34605798
0.88521004 -0.55137402 0.34304398
0.88954598 -0.56233197 0.342664
0.901182 -0.56798398 0.34308198
0.87954694 -0.53344101 0.34084198
0.88574404 -0.54158902 0.33966896
0.88238001 -0.55468702 0.33594102
0.88982999 -0.56354201 0.33542198
0.90001798 -0.568941 0.337015
0.92791802 -0.564385 0.34227699
0.87275499 -0.54787397 0.33163697
0.87033403 -0.56058997 0.32732299
0.87820899 -0.56727201 0.327095
0.89154404 -0.57201302 0.329308
0.92200106 -0.56702596 0.336027
0.86170602 -0.57426399 0.318353
0.86810201 -0.580028 0.31862897
0.91876 -0.56846696 0.33074898
0.85773802 -0.58400899 0.31176099
0.91422999 -0.59510899 0.35864398
0.921606 -0.60166901 0.359377
0.90416902 -0.61687803 0.35354197
0.90849197 -0.57805502 0.35221699
0.91520697 -0.58403999 0.353861
0.91898596 -0.59295899 0.35451999
0.91645795 -0.603701 0.35176301
0.89556098 -0.619605 0.345709
0.90502 -0.57852298 0.345112
0.90756601 -0.58586001 0.34573197
0.91144097 -0.59503901 0.34650898
0.91606402 -0.60260898 0.345346
0.87741399 -0.52758002 0.34256598
0.89344299 -0.52933496 0.34518397
0.90810204 -0.57729304 0.33949602
0.91088796 -0.58371699 0.34055901
0.91069603 -0.59421504 0.339082
0.909787 -0.60346103 0.33749598
0.88664597 -0.53138196 0.33945099
0.89535302 -0.58147401 0.330221
0.90443802 -0.58673102 0.33265197
0.91050696 -0.59390402 0.332609
0.91232401 -0.600977 0.331734
0.88377196 -0.58460301 0.32137001
0.900729 -0.586362 0.32565999
0.90375197 -0.59502399 0.32509899
0.90905899 -0.601713 0.32376298
0.88119203 -0.58536702 0.314854
0.898265 -0.58739299 0.31848699
0.90381402 -0.59576601 0.31795299
0.91517901 -0.59964401 0.31856698
0.88468003 -0.58441502 0.309257
0.90143698 -0.58773202 0.312417
0.91231799 -0.59320998 0.31386799
0.91430199 -0.59941202 0.31208199
0.886967 -0.58273298 0.30263698
0.89770699 -0.586851 0.305484
0.91184801 -0.591582 0.307603
0.91997302 -0.59689701 0.30705798
0.88066399 -0.58454901 0.295183
0.89885801 -0.58666098 0.29875797
0.91594201 -0.59089899 0.30203599
0.92318702 -0.59596401 0.301572
0.88970494 -0.58139497 0.29141098
0.89533997 -0.58761501 0.29024899
0.91757601 -0.589692 0.295872
0.91941297 -0.59709299 0.29504997
0.88951105 -0.58162701 0.28407398
0.90218598 -0.58463502 0.28620899
0.90209299 -0.594275 0.28475598
0.92133498 -0.59623903 0.28972697
0.89083397 -0.61875302 0.276023
0.89242399 -0.580347 0.27767798
0.90041703 -0.585814 0.27973199
0.90767998 -0.59308201 0.280047
0.907368 -0.60325801 0.27804101
0.88965398 -0.61926496 0.27103797
0.90312797 -0.57613897 0.27472797
0.89800203 -0.58566701 0.27243
0.90252602 -0.59510398 0.27248099
0.90653199 -0.60414797 0.271512
0.89683998 -0.61762798 0.266774
0.85944003 -0.64697301 0.251564
0.89132202 -0.588018 0.26465499
0.903355 -0.59272999 0.266186
0.90662694 -0.60352099 0.26494199
0.89556396 -0.62001902 0.25926
0.88142699 -0.63644201 0.25367501
0.87501407 -0.64811403 0.25019699
0.89341497 -0.589378 0.25781098
0.90650594 -0.59344298 0.26062298
0.90837801 -0.601776 0.25867501
0.90454298 -0.61421198 0.25608701
0.88995796 -0.632375 0.24964699
0.87793297 -0.64702797 0.24521798
0.89744699 -0.58851397 0.25143498
0.90592498 -0.59339601 0.25410199
0.90855497 -0.60304499 0.25212899
0.90203905 -0.61717802 0.24901699
0.89534301 -0.63016999 0.24398899
0.88172096 -0.64597505 0.239375
0.86384904 -0.66146499 0.23324299
0.91666299 -0.58140999 0.25099
0.90721297 -0.59298098 0.24750099
0.91965204 -0.59795201 0.24930599
0.90394896 -0.61461198 0.24313599
0.89884001 -0.62704498 0.23888001
0.88759804 -0.642699 0.23499
0.86401099 -0.66172403 0.22773598
0.91243398 -0.590729 0.24289498
0.91432899 -0.599563 0.24166501
0.90810502 -0.61341304 0.237342
0.89544296 -0.62817502 0.231815
0.86460406 -0.65410101 0.22431698
0.91807294 -0.59007502 0.23693298
0.91886705 -0.59970796 0.235379
0.90300006 -0.616108 0.22898999
0.89094704 -0.628676 0.22427398
0.919438 -0.58889902 0.23084499
0.91944396 -0.59653002 0.22944
0.90867895 -0.61077499 0.223993
0.893538 -0.62595701 0.21898098
0.92143303 -0.58840501 0.22554699
0.91574699 -0.59863901 0.221651
0.91110098 -0.60927099 0.21794598
0.89895701 -0.62265199 0.21300098
0.91596603 -0.59188902 0.217244
0.90824503 -0.60252398 0.21302399
0.90504301 -0.61276299 0.20970601
0.89240193 -0.62670302 0.20264
0.906308 -0.60391301 0.20573398
0.90336901 -0.614223 0.20275798
0.88960803 -0.62797499 0.19549698
0.87291098 -0.64283997 0.18793301
0.90969598 -0.60225201 0.19976997
0.90365303 -0.61294997 0.19645298
0.88808 -0.62886399 0.18863301
0.86882502 -0.64500296 0.17979698
0.90561301 -0.60419202 0.19191399
0.903669 -0.61363202 0.18906598
0.88230002 -0.63194698 0.17966598
0.86688799 -0.64645797 0.17220497
0.901528 -0.60602701 0.182836
0.89818496 -0.616413 0.18013
0.88334298 -0.632002 0.17311798
0.86521894 -0.64694601 0.16540498
0.90837401 -0.60286897 0.17773198
0.90459502 -0.61151999 0.176377
0.89038801 -0.62670302 0.16935898
0.87007499 -0.64416099 0.160439
0.92960799 -0.59503102 0.17901298
0.90541297 -0.611889 0.16964199
0.88379401 -0.63040698 0.159757
0.87189001 -0.64324898 0.15402798
0.90973604 -0.61002803 0.16473
0.89557505 -0.62430596 0.15737098
0.87131798 -0.64264601 0.14725098
0.90622705 -0.61313599 0.15615799
0.88881302 -0.62760502 0.14850196
0.87348098 -0.64181799 0.14233097
0.92482805 -0.60582602 0.15781997
0.91436303 -0.61655498 0.15278599
0.91682297 -0.62232298 0.15246597
0.87623298 -0.572909 0.35932499
0.90985602 -0.62269598 0.35958698
0.88876504 -0.544532 0.35596299
0.87746102 -0.55860698 0.35239699
0.89239097 -0.56673503 0.35567001
0.89947897 -0.57565802 0.35619998
0.91220701 -0.58323699 0.35782599
0.92368799 -0.59100801 0.35919198
0.92190695 -0.60209298 0.35768601
0.91780901 -0.61261797 0.35602599
0.89815301 -0.625503 0.35138199
0.8955 -0.54195303 0.35207397
0.89746499 -0.55384302 0.35126001
0.89692903 -0.56639898 0.35033199
0.90853399 -0.57445902 0.35184801
0.918432 -0.58273 0.35274696
0.92028397 -0.59312099 0.35219201
0.91986704 -0.603342 0.35131797
0.91806901 -0.612032 0.35065997
0.89878196 -0.53393602 0.34770599
0.89454496 -0.54532003 0.34550098
0.88912201 -0.555843 0.34345698
0.89830899 -0.56370497 0.34420699
0.90415704 -0.57267302 0.34545699
0.90889096 -0.58175898 0.345083
0.91650802 -0.59121901 0.34514499
0.92263603 -0.599747 0.34648299
0.918688 -0.60915101 0.34436896
0.90467298 -0.532269 0.34463799
0.89063299 -0.54524797 0.33915001
0.89442998 -0.55483699 0.33873799
0.90100402 -0.563914 0.33832601
0.90255094 -0.57405102 0.33863899
0.910972 -0.58303601 0.33940598
0.90966105 -0.59360498 0.33689797
0.91721296 -0.600806 0.33929002
0.91414595 -0.60952204 0.33639598
0.86448306 -0.552423 0.32798898
0.87426001 -0.558878 0.32930699
0.88491601 -0.56584704 0.33038399
0.89783597 -0.57393599 0.33154899
0.90233004 -0.58530402 0.331034
0.90913695 -0.59450102 0.33067298
0.91467798 -0.601897 0.33223197
0.909437 -0.61108398 0.32886496
0.872091 -0.56897599 0.32330695
0.89858598 -0.58580899 0.32363099
0.90499997 -0.59394598 0.32408601
0.91025901 -0.60294104 0.32459098
0.91231102 -0.610107 0.32374397
0.89621699 -0.58755898 0.3168
0.90130401 -0.59344202 0.31712899
0.90791494 -0.60129797 0.31756601
0.914105 -0.60882097 0.31806499
0.83385903 -0.653319 0.29485101
0.79469299 -0.67826796 0.28417099
0.89573997 -0.58846402 0.31077
0.908795 -0.59303796 0.31246099
0.91568899 -0.60082501 0.31255201
0.919806 -0.60743099 0.31322899
0.80954301 -0.67381597 0.28209499
0.90112394 -0.58792001 0.30504501
0.91107005 -0.593481 0.30683997
0.92783999 -0.59709096 0.30887198
0.92578006 -0.60524398 0.30876198
0.80659896 -0.66898596 0.27518097
0.80217099 -0.67784899 0.27230299
0.898561 -0.58749503 0.29691097
0.91408598 -0.59212899 0.30131999
0.93356597 -0.595222 0.30499899
0.92491305 -0.60462302 0.30192399
0.80598295 -0.66979599 0.26800597
0.80462599 -0.67758203 0.26622897
0.78582603 -0.69084001 0.260546
0.81440806 -0.56401902 0.27192101
0.81252801 -0.57238001 0.27103397
0.82574302 -0.57849997 0.273462
0.82960403 -0.58623099 0.273509
0.88961405 -0.586927 0.28796101
0.91064799 -0.59170198 0.29389599
0.92518097 -0.59700602 0.29770198
0.92165297 -0.60534304 0.29432696
0.80836701 -0.66889101 0.26162899
0.80195397 -0.67888296 0.25909999
0.79012704 -0.69066 0.25440702
0.833655 -0.55891603 0.27158698
0.83766001 -0.56642896 0.272798
0.843449 -0.57463598 0.273377
0.85275495 -0.58269501 0.27457601
0.88512003 -0.58686101 0.28073299
0.90749002 -0.59164602 0.28669098
0.91881204 -0.5984 0.28974301
0.91989303 -0.60605401 0.28718498
0.82036799 -0.66422302 0.25687599
0.80517799 -0.67845899 0.25344998
0.78304201 -0.69455498 0.24606697
0.77893096 -0.70401001 0.24277599
0.83440697 -0.55780703 0.26560897
0.834589 -0.565467 0.26621598
0.84734201 -0.57365799 0.26811099
0.86430395 -0.58222198 0.270928
0.88638496 -0.58720601 0.274979
0.90775704 -0.59129602 0.28051299
0.91175699 -0.60028702 0.28144199
0.91344905 -0.60928702 0.27832499
0.85166901 -0.64671999 0.26018497
0.82826698 -0.66031098 0.25296602
0.81129205 -0.675403 0.24808098
0.78594899 -0.69429296 0.240601
0.77077502 -0.70980299 0.23271698
0.83016801 -0.55890298 0.25910699
0.83933604 -0.56481802 0.260804
0.84608704 -0.57425803 0.26076499
0.85699999 -0.58236402 0.26276898
0.88286501 -0.58669698 0.26855499
0.90245795 -0.59209996 0.27293196
0.91258401 -0.600088 0.27512398
0.91036499 -0.611215 0.27100599
0.89302695 -0.62596202 0.265046
0.84021497 -0.655963 0.25034198
0.83279401 -0.66549498 0.24802399
0.782175 -0.698246 0.23155998
0.76920098 -0.71300906 0.22536197
0.75427699 -0.72655898 0.219823
0.75318301 -0.73660004 0.21697998
0.82931298 -0.55920798 0.25428498
0.81940699 -0.56911397 0.25064
0.83782899 -0.574094 0.254217
0.84970701 -0.58335203 0.25526398
0.88337302 -0.58579701 0.262622
0.89973801 -0.59141397 0.26638699
0.90667605 -0.60099399 0.26663399
0.90963203 -0.61199498 0.264375
0.89770699 -0.62557203 0.26073098
0.87586701 -0.64289302 0.25360098
0.87072802 -0.65377802 0.25121596
0.78080904 -0.69932002 0.22493401
0.77512497 -0.71041101 0.22152199
0.75628501 -0.72757602 0.21400398
0.749093 -0.738841 0.20980099
0.88030505 -0.58718896 0.25600299
0.90129095 -0.59191203 0.25976998
0.91070604 -0.60167402 0.26042402
0.91481501 -0.61118799 0.25964099
0.89721298 -0.62593603 0.25432801
0.89389998 -0.63670897 0.25293696
0.889844 -0.64802003 0.24954899
0.87305605 -0.66087699 0.24392597
0.78907996 -0.70380503 0.22140801
0.75791395 -0.72724402 0.20775998
0.756612 -0.73780197 0.20449699
0.89209902 -0.585962 0.252244
0.90523499 -0.589939 0.25377598
0.90969706 -0.5984 0.25421298
0.91364098 -0.60915601 0.25349301
0.90816706 -0.622051 0.25113299
0.89188904 -0.63822198 0.24556698
0.89017403 -0.64859903 0.243358
0.88691705 -0.65660101 0.24137397
0.753546 -0.73111296 0.197281
0.76168001 -0.73857003 0.19788998
0.89531499 -0.58483005 0.245975
0.91007698 -0.58897001 0.24915497
0.91558999 -0.59802103 0.24916901
0.91960406 -0.607638 0.24832398
0.91335797 -0.61881602 0.246806
0.901887 -0.63267499 0.24201599
0.89088994 -0.64697897 0.23766598
0.88088995 -0.65775901 0.23347001
0.764121 -0.71960998 0.194864
0.75159502 -0.73138201 0.18952599
0.760189 -0.73833901 0.191147
0.75836504 -0.749569 0.189034
0.92093903 -0.570867 0.24806099
0.89829695 -0.58348501 0.24098697
0.918262 -0.587089 0.24510998
0.92162299 -0.59715003 0.244124
0.92410797 -0.606242 0.24412197
0.91536498 -0.61840701 0.24092697
0.89667898 -0.63504797 0.23375401
0.88666803 -0.64730799 0.23019798
0.74860495 -0.73254997 0.18261699
0.762312 -0.73716199 0.18507297
0.76525903 -0.74647695 0.18496899
0.90575701 -0.58114201 0.23673798
0.92161006 -0.58632398 0.23914997
0.93120903 -0.59353501 0.24129699
0.92145699 -0.606031 0.23767596
0.91710603 -0.61844897 0.234575
0.89287299 -0.63487798 0.22587597
0.92240405 -0.56963003 0.23700398
0.90690696 -0.58064401 0.22953498
0.92312503 -0.58496797 0.233881
0.92385596 -0.594477 0.23337997
0.92055494 -0.60658097 0.23051399
0.91346198 -0.61894202 0.226731
0.89678401 -0.63156104 0.21968499
0.88250601 -0.57801801 0.215583
0.89828402 -0.58217204 0.22000797
0.91809899 -0.58613402 0.22678398
0.91981906 -0.59618902 0.22540897
0.91799498 -0.60740298 0.22316399
0.91013902 -0.61927897 0.21908699
0.90082902 -0.62961298 0.214202
0.872563 -0.579759 0.20697598
0.88354498 -0.58438802 0.20919399
0.91351098 -0.58791602 0.21834899
0.91244698 -0.59908301 0.21687599
0.914868 -0.60837698 0.21571597
0.90821701 -0.619986 0.21199101
0.895235 -0.63098097 0.206203
0.87287498 -0.57841998 0.20226097
0.856291 -0.58864999 0.19594596
0.89813906 -0.59159499 0.206301
0.91206902 -0.598517 0.21017097
0.90956998 -0.610434 0.20747997
0.90860903 -0.61982703 0.20629799
0.89593595 -0.62975901 0.200886
0.84813797 -0.59055901 0.18907997
0.89379799 -0.59339803 0.19681796
0.90247899 -0.59903401 0.20061298
0.91295403 -0.60611498 0.20260899
0.91032404 -0.61728901 0.200592
0.87281799 -0.64132798 0.18275097
0.85268599 -0.65456998 0.17561501
0.87972701 -0.58886701 0.186801
0.88430899 -0.595011 0.18767998
0.90573198 -0.59910101 0.19472198
0.91092902 -0.60860503 0.19539799
0.89814001 -0.62310499 0.18814801
0.87641197 -0.63951802 0.17917499
0.859833 -0.651977 0.17330399
0.87679803 -0.58910197 0.18073498
0.882963 -0.59396702 0.18220897
0.90137297 -0.59801 0.18678299
0.90460998 -0.60942298 0.186086
0.90377599 -0.619959 0.18432301
0.887209 -0.63405204 0.17723697
0.87034398 -0.64794505 0.170397
0.88628405 -0.59432101 0.17718399
0.91036797 -0.59793901 0.18241496
0.91697198 -0.60560602 0.183872
0.90416604 -0.61919898 0.17834499
0.88574499 -0.63550597 0.16949898
0.86170501 -0.65060699 0.16041298
0.90689003 -0.590895 0.17602497
0.91038597 -0.59800798 0.175569
0.91388297 -0.606493 0.17680901
0.90521401 -0.62002897 0.17108098
0.87931001 -0.63711798 0.16084796
0.87518901 -0.64579695 0.15826599
0.93096 -0.58495599 0.177921
0.91217905 -0.59647202 0.17071399
0.91052699 -0.60700202 0.16830097
0.90799499 -0.61805701 0.16587299
0.88580495 -0.634 0.15684998
0.86627901 -0.64825994 0.14753997
0.91269404 -0.59808302 0.16407497
0.911062 -0.606754 0.16197498
0.90751505 -0.61768699 0.15946899
0.880656 -0.636581 0.147239
0.86203694 -0.64981794 0.13969998
0.91789597 -0.597902 0.15940498
0.90935701 -0.60799098 0.15533897
0.90015703 -0.62152696 0.14978199
0.87719595 -0.637398 0.139754
0.86810797 -0.64747298 0.13630299
0.92530996 -0.60286403 0.15631099
0.906452 -0.61678904 0.14797898
0.88815004 -0.63204801 0.13951999
0.87220299 -0.64498299 0.13279697
0.85694504 -0.57970101 0.35968199
0.87830597 -0.64341497 0.35924998
0.87765294 -0.576038 0.35909501
0.88598704 -0.63528597 0.35687697
0.87790102 -0.64348102 0.35396197
0.895419 -0.53684103 0.35733497
0.88801199 -0.55010599 0.35384098
0.87045199 -0.56314898 0.35032299
0.88318002 -0.57265002 0.35382199
0.89762396 -0.58123296 0.35530999
0.90739602 -0.59051001 0.356736
0.91510695 -0.59835398 0.35914499
0.91615099 -0.60769099 0.35755897
0.91637903 -0.61751902 0.357425
0.89066005 -0.632613 0.35253498
0.86404097 -0.64548701 0.34669799
0.89339203 -0.53035903 0.352341
0.89302802 -0.540142 0.35139298
0.88908899 -0.54999399 0.34896499
0.88751799 -0.56118196 0.34906602
0.88617301 -0.57252002 0.34855402
0.89908701 -0.57978803 0.34926301
0.90618598 -0.58916402 0.35071999
0.91449404 -0.59900796 0.35248497
0.91354698 -0.60952204 0.35133302
0.90925401 -0.61905402 0.35062799
0.87861097 -0.53248101 0.34396499
0.88941401 -0.54088098 0.34508097
0.88960505 -0.54956198 0.34393799
0.88892603 -0.558833 0.34337997
0.888376 -0.570898 0.34246597
0.904558 -0.57856703 0.345139
0.90412498 -0.587708 0.34452796
0.90762198 -0.59835398 0.34429398
0.91504097 -0.60717797 0.346167
0.91598803 -0.61538398 0.34543097
0.84917605 -0.64385903 0.32665595
0.82723802 -0.65398806 0.32183602
0.87883699 -0.54230803 0.33762199
0.88804197 -0.55072999 0.33852199
0.88435304 -0.56157398 0.33666098
0.883609 -0.57170999 0.33436599
0.89982802 -0.58006305 0.33847699
0.90320605 -0.59006602 0.33857
0.90374702 -0.59951597 0.336678
0.91640002 -0.60698003 0.33994895
0.91375703 -0.615143 0.33862901
0.85626501 -0.64179003 0.32321
0.83735496 -0.65151101 0.31951299
0.86128402 -0.55373502 0.32806802
0.87984002 -0.562334 0.33032799
0.88191706 -0.572375 0.32842299
0.88728106 -0.58130699 0.32904598
0.90049005 -0.590415 0.33187798
0.90484804 -0.598894 0.331736
0.90713602 -0.607059 0.33159402
0.91251701 -0.615183 0.33204499
0.86058599 -0.63899499 0.31829497
0.84559798 -0.64932406 0.31498799
0.86019099 -0.57462698 0.31978998
0.87324202 -0.58293897 0.32073098
0.88897598 -0.59092599 0.32309097
0.90164399 -0.59916997 0.325892
0.910272 -0.60765499 0.32613
0.89645302 -0.62182701 0.32142997
0.86455595 -0.638363 0.31409699
0.83466101 -0.65308404 0.30487001
0.88537198 -0.59186298 0.316461
0.90454698 -0.598607 0.31996998
0.90734202 -0.60891104 0.31896397
0.900419 -0.62008101 0.31566399
0.867549 -0.63689303 0.30894297
0.82869697 -0.65538698 0.29802597
0.88977897 -0.59376597 0.31042099
0.90502602 -0.59983701 0.31377298
0.902946 -0.60940099 0.31154397
0.90671802 -0.617993 0.31135198
0.88096803 -0.63097 0.30646798
0.79853702 -0.677926 0.282361
0.890513 -0.593454 0.30426601
0.903566 -0.59914201 0.30697399
0.91567999 -0.606888 0.30808198
0.91419297 -0.61496198 0.30721998
0.8822 -0.62989199 0.30215698
0.80178595 -0.67065102 0.276254
0.80617601 -0.67680395 0.27798396
0.88671201 -0.593871 0.29740497
0.91099 -0.59851599 0.30172297
0.92172205 -0.60521001 0.30405498
0.92316902 -0.61218202 0.303803
0.81199998 -0.66154599 0.27426597
0.80582297 -0.66968298 0.27077401
0.80250096 -0.67769402 0.26981598
0.78808194 -0.55109799 0.26683098
0.79359198 -0.55848098 0.267728
0.80493498 -0.56710601 0.26994401
0.81652099 -0.576913 0.27203098
0.84751296 -0.58464801 0.27910796
0.88488698 -0.59241098 0.28948998
0.91131598 -0.59810603 0.295481
0.92034501 -0.60526401 0.29841298
0.91782498 -0.61403197 0.29555199
0.89334899 -0.62642801 0.286755
0.81840402 -0.66006106 0.268493
0.79952794 -0.67175299 0.262952
0.79920501 -0.67925298 0.26208797
0.79705501 -0.53500003 0.26360399
0.81132007 -0.546386 0.26767299
0.81647599 -0.55646801 0.26872998
0.82598001 -0.56618899 0.27045098
0.84064502 -0.57523298 0.273182
0.84955102 -0.584005 0.274506
0.87377799 -0.59062403 0.28049797
0.90147901 -0.59784198 0.28691399
0.91964102 -0.60543996 0.29219496
0.91338402 -0.61588001 0.28840899
0.891837 -0.62834597 0.28099698
0.80483001 -0.66975504 0.25810397
0.80193901 -0.67873901 0.25580597
0.80396104 -0.53590101 0.26021999
0.81335902 -0.54714602 0.26188296
0.83016801 -0.55635399 0.26659599
0.83273101 -0.56671298 0.26558599
0.84955496 -0.575854 0.26940399
0.859972 -0.58492202 0.27144897
0.88150299 -0.59224898 0.27621597
0.904953 -0.59853399 0.28145599
0.91067702 -0.607005 0.28365397
0.90915495 -0.61783797 0.28083098
0.87480497 -0.63518298 0.27077401
0.854177 -0.64750898 0.26466998
0.80521601 -0.67110997 0.251302
0.80085295 -0.67970902 0.24932598
0.78264999 -0.68994695 0.24379799
0.80080497 -0.52650297 0.25396296
0.804214 -0.53638899 0.25339198
0.81784403 -0.545977 0.25657398
0.82653397 -0.55609202 0.259193
0.82967103 -0.56656504 0.258396
0.84463096 -0.57487899 0.26177499
0.85576898 -0.58400899 0.26405799
0.87734902 -0.59144902 0.26900199
0.90266699 -0.59790701 0.27517498
0.91095197 -0.606677 0.27744198
0.91391999 -0.61548197 0.275868
0.88941199 -0.63050801 0.26814198
0.86746103 -0.64456904 0.261931
0.81110001 -0.66985101 0.24586998
0.80842501 -0.67756897 0.246012
0.797189 -0.535344 0.245897
0.80147398 -0.54447103 0.247108
0.80811095 -0.55526102 0.24928898
0.81898397 -0.56543702 0.25144899
0.83760697 -0.57522798 0.25446498
0.85397601 -0.58367097 0.25733998
0.87266803 -0.59116501 0.261484
0.89966697 -0.59739703 0.268233
0.90802497 -0.60662299 0.27040198
0.90366799 -0.618406 0.26669398
0.896034 -0.62975401 0.26400399
0.88161105 -0.64197403 0.25892398
0.84812105 -0.65905899 0.24941596
0.81890196 -0.67411005 0.24287999
0.84197199 -0.58629 0.24837898
0.87402499 -0.59084702 0.25574997
0.89277899 -0.59722 0.26054698
0.902004 -0.60663396 0.26191798
0.90573901 -0.61710602 0.26031399
0.900931 -0.62926996 0.25942898
0.88150805 -0.642564 0.25305396
0.88027602 -0.65162498 0.25128597
0.86901903 -0.66167605 0.24772297
0.87313002 -0.59101003 0.24968898
0.89674497 -0.59670299 0.25515297
0.90828699 -0.60594004 0.25654298
0.91295701 -0.61509496 0.25619698
0.90213895 -0.62773603 0.25280997
0.89271897 -0.64011598 0.25067601
0.89143205 -0.64931196 0.24810199
0.88412005 -0.65841699 0.24521901
0.86213303 -0.58556598 0.23823699
0.87748599 -0.59072298 0.24332501
0.90262198 -0.596542 0.24962898
0.91382897 -0.60553199 0.251306
0.90862703 -0.61747801 0.24913898
0.90271002 -0.62851799 0.24648696
0.89969099 -0.63859499 0.24620697
0.887604 -0.65039301 0.24080299
0.883618 -0.65869498 0.238079
0.868321 -0.58452398 0.23529801
0.88880301 -0.58893198 0.24029499
0.908647 -0.59532201 0.24482597
0.91525298 -0.60353297 0.24534798
0.91959703 -0.61283898 0.24630699
0.90780097 -0.62541097 0.24226098
0.90309304 -0.63709801 0.240421
0.88617206 -0.65081805 0.23433299
0.87814903 -0.66040397 0.23152199
0.87735605 -0.58334702 0.23201397
0.89450699 -0.58836401 0.23549999
0.913966 -0.59483999 0.239996
0.91887999 -0.60463601 0.24019498
0.914922 -0.61594099 0.23884998
0.90594399 -0.62729001 0.23591697
0.89890099 -0.63680804 0.23238899
0.86397499 -0.656766 0.22381501
0.87982905 -0.58374697 0.22595799
0.90359902 -0.58806998 0.23165299
0.91734201 -0.59540999 0.23466401
0.922472 -0.60380602 0.23497897
0.92233497 -0.61266601 0.23526698
0.90950698 -0.624744 0.23050399
0.89597899 -0.63499904 0.22420497
0.90150905 -0.58812803 0.22459698
0.91266996 -0.59377104 0.22788399
0.917799 -0.60238999 0.22804798
0.92078501 -0.612634 0.22847396
0.904661 -0.625521 0.22199897
0.89877599 -0.633991 0.21828698
0.89318198 -0.590406 0.21456298
0.91213 -0.59506202 0.22090396
0.91817099 -0.60497898 0.22172199
0.91577101 -0.61533403 0.22058196
0.90422201 -0.626001 0.21527897
0.89167297 -0.63571298 0.20973198
0.88607198 -0.59202898 0.206204
0.89850801 -0.596986 0.20983899
0.906596 -0.60496897 0.21177399
0.910465 -0.61549801 0.212276
0.90228701 -0.626697 0.20817398
0.894279 -0.63517898 0.20474698
0.88781899 -0.59947896 0.19987801
0.90283799 -0.60425699 0.20471101
0.90901297 -0.61281198 0.20543399
0.90696406 -0.62346101 0.20354599
0.89637703 -0.63394499 0.199119
0.88693702 -0.60058397 0.19213398
0.90152001 -0.60601801 0.19759499
0.91083997 -0.61453897 0.19972999
0.89912105 -0.62587297 0.19379997
0.89079005 -0.63528097 0.19043998
0.88939005 -0.60034698 0.18612598
0.89877403 -0.60561103 0.19015498
0.90573901 -0.61433601 0.19153798
0.90227401 -0.62491101 0.18803398
0.88987505 -0.63563401 0.183112
0.88685095 -0.60071898 0.17888898
0.90322602 -0.605573 0.18488999
0.911174 -0.614914 0.18600799
0.89603895 -0.62776399 0.179912
0.887182 -0.636998 0.176423
0.88077497 -0.64415395 0.173712
0.88572901 -0.60063201 0.172756
0.904257 -0.60406798 0.17900898
0.90959197 -0.61199301 0.17939697
0.90434599 -0.62376201 0.176082
0.89391899 -0.63458598 0.17321697
0.90675497 -0.60430801 0.17288299
0.90427899 -0.61491603 0.17028698
0.90697896 -0.62324405 0.17078598
0.89485002 -0.63316703 0.16615897
0.86299598 -0.64873004 0.150382
0.88056099 -0.60006201 0.15636398
0.90447801 -0.60532397 0.16475597
0.90230203 -0.61526799 0.162949
0.90827799 -0.62325001 0.165573
0.88764197 -0.635876 0.15613899
0.86140996 -0.64851302 0.145289
0.89816004 -0.59006804 0.158144
0.87714106 -0.59901601 0.15011398
0.90111399 -0.602718 0.15777896
0.906443 -0.61160898 0.15848698
0.90466201 -0.62299997 0.15732098
0.88815004 -0.63526797 0.14978199
0.88037497 -0.59880102 0.14672299
0.90907401 -0.60320598 0.15443599
0.91099 -0.61241603 0.15367699
0.90153903 -0.623972 0.14892799
0.88870901 -0.634386 0.14246701
0.92484999 -0.595644 0.15519798
0.91128898 -0.605097 0.149361
0.90956497 -0.61379904 0.14756198
0.90163696 -0.62424499 0.14327
0.889521 -0.63437498 0.137925
0.86735296 -0.64490896 0.12918597
0.92461997 -0.61067599 0.14882499
0.88030195 -0.62960303 0.13087898
0.87773401 -0.54487497 0.35794997
0.87534106 -0.55604303 0.35651398
0.87950599 -0.56799799 0.35782996
0.89254999 -0.53741503 0.35504398
0.89302498 -0.54692101 0.35567597
0.89427495 -0.557639 0.35583198
0.893197 -0.56738299 0.35488296
0.90132797 -0.57625401 0.355782
0.90113097 -0.58571202 0.35587299
0.91821504 -0.59592998 0.35873398
0.91979402 -0.60719699 0.35951698
0.92042899 -0.61659998 0.35879299
0.91728896 -0.623716 0.35788596
0.89835501 -0.536511 0.35079697
0.89211303 -0.54587102 0.349794
0.89467001 -0.55709898 0.34958699
0.90188497 -0.56842601 0.35067698
0.90222198 -0.57773703 0.35097298
0.91058296 -0.58674902 0.35179299
0.91454399 -0.59665197 0.35143799
0.92465103 -0.60471499 0.35476503
0.92318898 -0.614259 0.35381898
0.91956598 -0.62265897 0.35222396
0.84415001 -0.64488798 0.33206698
0.87245697 -0.52619201 0.341685
0.88018799 -0.536237 0.34216401
0.890827 -0.54702598 0.34358299
0.89481002 -0.55761397 0.34285697
0.89473295 -0.56724799 0.34296197
0.90433502 -0.577923 0.34525698
0.912727 -0.58831698 0.345999
0.91769797 -0.59755003 0.34653699
0.92307198 -0.60574502 0.34878898
0.92001504 -0.61506099 0.34696999
0.91016096 -0.62312198 0.34337798
0.84745902 -0.64472902 0.32826301
0.82694703 -0.65237296 0.32375497
0.87608999 -0.54664004 0.33591896
0.88780898 -0.55684602 0.33703098
0.89186305 -0.566598 0.33684197
0.89384496 -0.57669902 0.33680803
0.90403003 -0.58698201 0.33845299
0.915519 -0.59674501 0.34058702
0.92146498 -0.60626101 0.34253702
0.91747099 -0.61582899 0.34012699
0.91135103 -0.624053 0.33730897
0.84645897 -0.64537102 0.32293499
0.83439004 -0.65240997 0.31963
0.86673898 -0.566818 0.32725897
0.88493299 -0.57573104 0.330484
0.88942003 -0.58701402 0.329831
0.90814298 -0.59668201 0.33291802
0.91900599 -0.60676199 0.335446
0.91161799 -0.61744899 0.332627
0.90830499 -0.62583196 0.33064899
0.851704 -0.64436203 0.31797698
0.83115405 -0.65397698 0.31229898
0.81979597 -0.661502 0.30966797
0.90709704 -0.59731698 0.32649696
0.91258901 -0.60597199 0.32746899
0.91900396 -0.61500704 0.329083
0.90996003 -0.624771 0.32601899
0.87394798 -0.63813996 0.317159
0.84715497 -0.65105498 0.31026798
0.83071196 -0.66157895 0.305347
0.90054494 -0.59881097 0.318941
0.90537697 -0.60558105 0.319666
0.91313696 -0.61533201 0.32108697
0.91012299 -0.62546301 0.32069299
0.86984003 -0.63986999 0.310101
0.83950305 -0.65286201 0.30218098
0.89994901 -0.599563 0.313301
0.91276604 -0.60633802 0.31518999
0.91969597 -0.61480898 0.31578898
0.90731102 -0.62588799 0.31369898
0.874973 -0.63815397 0.30592999
0.90958601 -0.59973204 0.30952397
0.92073095 -0.60659599 0.31053397
0.91250098 -0.61667299 0.30862999
0.91236001 -0.62518501 0.30919299
0.80704397 -0.66746104 0.28017598
0.80941302 -0.67557406 0.28040999
0.79996902 -0.68357694 0.27697
0.91098601 -0.59960604 0.303269
0.92658502 -0.60546297 0.30548599
0.92866701 -0.61332601 0.30686298
0.91894096 -0.62177896 0.30391699
0.80730301 -0.659881 0.27445796
0.80338204 -0.66753095 0.273213
0.80367202 -0.67619205 0.27291098
0.79606903 -0.68528503 0.26935601
0.79327399 -0.53487802 0.26648399
0.81324798 -0.54472899 0.27112597
0.82439798 -0.555426 0.273956
0.83540297 -0.56594002 0.27624199
0.83499998 -0.57712698 0.27547398
0.83351099 -0.585316 0.27507198
0.917077 -0.59907603 0.29804397
0.927634 -0.605088 0.30055901
0.92870903 -0.612894 0.30074599
0.91874295 -0.62229699 0.29670498
0.88121498 -0.63557398 0.28435498
0.81715602 -0.65853995 0.269418
0.80114502 -0.66833997 0.26623198
0.79860395 -0.67868102 0.26459599
0.797521 -0.686409 0.263569
0.79971606 -0.52610099 0.26363498
0.813007 -0.53603399 0.26638898
0.827586 -0.54738998 0.27028796
0.83297205 -0.55752397 0.27194297
0.837883 -0.56783903 0.27180398
0.850981 -0.57809699 0.27469897
0.85662699 -0.58599001 0.27617797
0.90856004 -0.59876096 0.289325
0.92639804 -0.60549599 0.29497701
0.92055702 -0.61517799 0.29182899
0.91139197 -0.62541699 0.2886
0.88706398 -0.63454103 0.28166199
0.81640404 -0.65764099 0.262411
0.80869794 -0.66652495 0.26083699
0.804075 -0.67730004 0.25939196
0.79397696 -0.68803102 0.25597098
0.80501503 -0.52564603 0.25890899
0.81352895 -0.53552699 0.26073596
0.82126898 -0.54553396 0.26226798
0.83551806 -0.55678201 0.266886
0.83939201 -0.56708902 0.26562798
0.84577799 -0.577443 0.26764697
0.862203 -0.58697397 0.27187902
0.89247203 -0.59627497 0.27942997
0.91557801 -0.60606897 0.285622
0.92133105 -0.61454397 0.28644699
0.91577905 -0.62338197 0.28437796
0.88706201 -0.63414901 0.27615899
0.82233703 -0.65682703 0.258075
0.81746501 -0.66491598 0.25619999
0.81143898 -0.67547202 0.25463897
0.79139602 -0.68842906 0.24853599
0.77733701 -0.70119798 0.242966
0.75704598 -0.71538901 0.23512699
0.81613296 -0.53541201 0.25584197
0.81945395 -0.54540098 0.256161
0.82960999 -0.55614102 0.25881499
0.82971603 -0.56773496 0.25752801
0.84521002 -0.57641602 0.26171997
0.858091 -0.58642697 0.26495698
0.89400202 -0.59541696 0.27377099
0.90722901 -0.60501802 0.27697599
0.91366798 -0.61492199 0.279026
0.90866095 -0.62557596 0.27567998
0.888556 -0.63651597 0.26943699
0.83549005 -0.65541399 0.25534001
0.81444299 -0.665842 0.24901798
0.81711996 -0.67393404 0.250164
0.79939002 -0.68582201 0.244417
0.78549695 -0.69863802 0.23937698
0.77401805 -0.71227503 0.234576
0.75751704 -0.72531503 0.22898598
0.74790198 -0.73522902 0.22564301
0.79935402 -0.54439199 0.246549
0.815925 -0.56712103 0.249944
0.820795 -0.57586598 0.25087997
0.83855599 -0.583799 0.25553998
0.89324796 -0.59595603 0.26791999
0.90346396 -0.60423398 0.26976097
0.90881598 -0.61521399 0.27041396
0.90847999 -0.62637901 0.26914397
0.89395797 -0.63662601 0.26525199
0.87734199 -0.64810401 0.26042297
0.84749103 -0.660869 0.25238198
0.81487 -0.675542 0.24371597
0.79207498 -0.68925905 0.23575699
0.77565104 -0.70272201 0.22940998
0.77523804 -0.71297097 0.22886497
0.76548302 -0.72404504 0.22529399
0.75165296 -0.73433298 0.22167698
0.90310204 -0.59824902 0.26368901
0.91157603 -0.60594201 0.26580799
0.91887999 -0.61412901 0.26609299
0.91390997 -0.62442797 0.26483098
0.89821702 -0.63598502 0.26032498
0.88655299 -0.64599198 0.25724801
0.88407499 -0.655352 0.25510299
0.79704201 -0.681481 0.233041
0.77658701 -0.69389397 0.224893
0.76565099 -0.704822 0.219743
0.76473296 -0.71502799 0.21944298
0.76682401 -0.72473603 0.218694
0.75881696 -0.733244 0.21708797
0.89617103 -0.59874099 0.25542998
0.91453797 -0.605147 0.26003399
0.91114897 -0.61399502 0.258526
0.91630304 -0.62252599 0.259455
0.90367699 -0.63436902 0.25515401
0.88957 -0.64666605 0.25135201
0.88909304 -0.65621597 0.24971698
0.87023598 -0.66452301 0.24426898
0.75603998 -0.70620203 0.21149701
0.76009697 -0.71500897 0.211493
0.76712096 -0.72339994 0.213158
0.76269698 -0.73253798 0.21050301
0.90768403 -0.59782201 0.25295597
0.91897696 -0.60392499 0.25476497
0.91962701 -0.613253 0.25506797
0.91736102 -0.62473798 0.25326198
0.90057898 -0.63502002 0.248429
0.90362298 -0.64337599 0.24897499
0.89230502 -0.65435201 0.24495499
0.87225401 -0.66422498 0.23861599
0.75184405 -0.71747297 0.202943
0.76308995 -0.72473097 0.20533799
0.76060599 -0.73483497 0.201241
0.91390997 -0.59736001 0.24835899
0.92547995 -0.60446399 0.25025699
0.91898298 -0.61530501 0.248246
0.91373003 -0.62518799 0.24591099
0.90730798 -0.63465601 0.24494599
0.893507 -0.64538693 0.23981598
0.88879699 -0.65535301 0.238003
0.87064397 -0.66434699 0.23251697
0.75982201 -0.72801101 0.19659698
0.76437896 -0.73580706 0.19608898
0.759121 -0.74595296 0.19234398
0.91919702 -0.59659803 0.24280499
0.92700797 -0.60369998 0.24398197
0.92876196 -0.61216402 0.245597
0.92534101 -0.62169802 0.243848
0.90772003 -0.63361597 0.23845497
0.88386101 -0.64641798 0.23136398
0.86641997 -0.65754998 0.226851
0.74986601 -0.73151898 0.18626599
0.76029295 -0.73783797 0.18864098
0.76410699 -0.74734396 0.187574
0.90079904 -0.59046298 0.23145001
0.92689598 -0.59591997 0.23881501
0.926691 -0.60401404 0.23816498
0.92798698 -0.61253703 0.23952
0.91761202 -0.622917 0.23532601
0.90283096 -0.63311297 0.23015998
0.75047702 -0.74024004 0.179296
0.76397103 -0.74646002 0.18238197
0.92117 -0.59587103 0.23118298
0.92685997 -0.60247999 0.23324497
0.92641699 -0.61225599 0.23254199
0.91300499 -0.62331998 0.22726098
0.906654 -0.63108802 0.22414097
0.92007399 -0.59688801 0.22391899
0.92180997 -0.60356402 0.22567101
0.91500503 -0.61426401 0.22190899
0.91504896 -0.62356204 0.22178398
0.89988798 -0.631688 0.215443
0.90869004 -0.59828496 0.21428898
0.91602099 -0.604976 0.21696998
0.92329103 -0.61307299 0.21855
0.91252798 -0.62333101 0.21424499
0.894171 -0.63339502 0.20717098
0.87129205 -0.59838903 0.19286598
0.91119003 -0.604882 0.20893799
0.90989703 -0.61368799 0.20865898
0.91664594 -0.62266099 0.20848797
0.89910203 -0.63297904 0.20298298
0.88132203 -0.64157206 0.19693397
0.87511599 -0.59795898 0.18950599
0.88871902 -0.60437 0.194865
0.91021299 -0.61293298 0.20147999
0.91607004 -0.62238699 0.20257199
0.90625399 -0.63169199 0.19901298
0.88262397 -0.64162004 0.19106197
0.87139601 -0.59816396 0.18294598
0.89286399 -0.60419202 0.19012798
0.907269 -0.61266303 0.19351096
0.90914202 -0.62322301 0.19405597
0.89774901 -0.63403201 0.18996097
0.880557 -0.64249301 0.183788
0.87381899 -0.59844798 0.17728199
0.89659601 -0.60527998 0.184525
0.91114098 -0.61416698 0.18860699
0.91299897 -0.62349802 0.188437
0.90000606 -0.632671 0.184688
0.88373804 -0.64163101 0.17842498
0.87427497 -0.59822798 0.17001399
0.89195001 -0.60390496 0.17702098
0.90588796 -0.61173898 0.18091796
0.91749001 -0.62113899 0.18413998
0.90045899 -0.63234103 0.177826
0.880871 -0.64154702 0.17073898
0.87203401 -0.598288 0.16223
0.89182603 -0.60477901 0.17012298
0.91675204 -0.61360699 0.17809597
0.91743201 -0.62301397 0.17818898
0.90312201 -0.63219601 0.17177498
0.88576698 -0.64108497 0.165658
0.86930704 -0.59810102 0.15529297
0.88966101 -0.60439199 0.162397
0.91091102 -0.61260897 0.16966999
0.91374499 -0.62276101 0.17040497
0.89924204 -0.633174 0.164235
0.88122499 -0.64185995 0.15755101
0.87203401 -0.59785998 0.15159397
0.884161 -0.60460496 0.15494598
0.90734398 -0.61214399 0.16203098
0.91366404 -0.62048304 0.16418098
0.91000098 -0.62984502 0.161852
0.87658995 -0.642515 0.14921898
0.90310997 -0.61318201 0.15456398
0.91026998 -0.621889 0.15581498
0.89863604 -0.63262296 0.15090698
0.87596101 -0.64192903 0.14232597
0.90969801 -0.61520696 0.14940196
0.91642499 -0.62173998 0.15129898
0.90217501 -0.63074601 0.14577797
0.881181 -0.64061403 0.13751297
0.91194803 -0.61534697 0.14420098
0.907332 -0.62282199 0.14212097
0.90446603 -0.63170898 0.14071998
0.88037401 -0.64050794 0.13078301
0.915488 -0.61513197 0.14076099
0.91717696 -0.62220597 0.14092998
0.90169197 -0.63141501 0.13470897
0.88304496 -0.64003402 0.12704197
0.84085703 -0.55137801 0.35846299
0.85957199 -0.623622 0.35385695
0.84050202 -0.63011599 0.35946098
0.83696294 -0.62187898 0.35835296
0.818165 -0.59326696 0.35951698
0.82338697 -0.57731605 0.35728797
