# .PCD v0.7 - Point Cloud Data file format
VERSION 0.7
FIELDS x y z
SIZE 4 4 4
TYPE F F F
COUNT 1 1 1
WIDTH 1449
HEIGHT 1
VIEWPOINT 0 0 0 1 0 0 0
POINTS 1449
DATA ascii
0.89585501 -0.67638499 0.78872597
0.89676595 -0.66487294 0.78725296
0.903476 -0.65969598 0.78815997
0.90576798 -0.71810204 0.78517306
0.899001 -0.70331103 0.78318298
0.89401001 -0.68656999 0.78381801
0.89352095 -0.67334002 0.78332704
0.89427698 -0.662377 0.78168505
0.90359497 -0.65803301 0.78252298
0.91921097 -0.65976697 0.78294402
0.89967597 -0.71313399 0.77845496
0.89561999 -0.70043403 0.77762693
0.89968598 -0.69266701 0.77818197
0.89201701 -0.67299199 0.77770996
0.89374602 -0.66169 0.77641702
0.90114999 -0.65584505 0.777062
0.91743898 -0.657022 0.777825
0.92866206 -0.656708 0.77795798
0.904338 -0.71706903 0.77262694
0.90064299 -0.70494103 0.77296293
0.89891601 -0.69321603 0.77322602
0.89865303 -0.68098199 0.77259904
0.89213598 -0.66283202 0.77153897
0.89989096 -0.65576899 0.77139395
0.91268402 -0.65396005 0.77259499
0.91908699 -0.64811999 0.77177697
0.92225999 -0.73166299 0.76890701
0.90593499 -0.71022397 0.76814795
0.89871901 -0.690777 0.76796401
0.89524698 -0.67414701 0.76663399
0.89577794 -0.66214502 0.76632601
0.90023005 -0.65492201 0.76645499
0.906326 -0.64867997 0.76664495
0.91083699 -0.63962501 0.76517296
0.92422098 -0.640917 0.76623899
0.91691202 -0.72017598 0.76475197
0.92787498 -0.721623 0.765086
0.89844704 -0.67650706 0.76123703
0.89375299 -0.66197097 0.76099294
0.89966601 -0.65452498 0.761756
0.90387499 -0.64566302 0.76065099
0.90646797 -0.63555801 0.759341
0.91558295 -0.63196099 0.760158
0.90237999 -0.677396 0.75518095
0.89593905 -0.66458201 0.75585002
0.89822501 -0.65414101 0.75583196
0.90153503 -0.643426 0.75500703
0.90433198 -0.63441104 0.75425202
0.91283303 -0.62855101 0.75430298
0.93847901 -0.63556802 0.75504702
0.98894304 -0.65427804 0.75449699
0.91575402 -0.68631399 0.75035399
0.89743596 -0.66341901 0.75029802
0.897874 -0.651308 0.75002503
0.89738798 -0.63912499 0.74991995
0.90135103 -0.63044202 0.74886698
0.90789497 -0.62260503 0.74879193
0.93330199 -0.63000798 0.74982202
0.96937299 -0.64270699 0.75047702
0.985569 -0.64256597 0.75018996
1.00255 -0.643103 0.74949998
0.905002 -0.66832602 0.74512297
0.90237898 -0.65704805 0.745197
0.89672399 -0.64006102 0.74453199
0.89831805 -0.62848002 0.74296296
0.90724295 -0.62302202 0.74375099
0.92095399 -0.62084204 0.744178
0.95750397 -0.63439399 0.74509901
0.99104398 -0.64488798 0.74581599
1.007 -0.64399499 0.74506193
1.01819 -0.64344901 0.74508303
0.92268699 -0.68057001 0.74111098
0.90286303 -0.65507102 0.74010897
0.89468402 -0.63624001 0.738617
0.89471495 -0.62514704 0.73777801
0.90044099 -0.61861002 0.73828501
0.91062301 -0.61407202 0.73863798
0.945216 -0.62678301 0.73943102
0.978939 -0.63727403 0.740381
0.997679 -0.63800001 0.74065101
1.01318 -0.63788503 0.73968905
0.80542898 -0.69038302 0.73129898
0.81405699 -0.68336797 0.73070395
0.833808 -0.68926001 0.73062098
0.89552999 -0.63674903 0.73337901
0.89621401 -0.62777197 0.73353499
0.89854401 -0.61812699 0.73287904
0.90672499 -0.61268902 0.73360801
0.91550905 -0.60725999 0.73303103
0.94777495 -0.61987096 0.73534304
1.0044999 -0.639561 0.73552495
1.022 -0.64091301 0.73443103
1.03169 -0.63684297 0.733091
0.80223393 -0.68809801 0.72667199
0.80965596 -0.68135697 0.72693801
0.81475902 -0.67325401 0.72687304
0.820494 -0.66703904 0.72647995
0.82664496 -0.65836096 0.72528493
0.85139 -0.66668701 0.72520095
0.89689696 -0.63606 0.72709101
0.89663398 -0.62673903 0.72808295
0.89669901 -0.61596602 0.727768
0.90362602 -0.61005098 0.72806597
0.90671897 -0.60059297 0.727112
0.91003197 -0.59164798 0.7263
0.926696 -0.59324199 0.72603399
1.02258 -0.63841599 0.72917002
1.04026 -0.63896799 0.72781503
1.0482 -0.633672 0.72745401
1.0726399 -0.639103 0.72708899
0.807311 -0.69209397 0.72199875
0.81124496 -0.68369597 0.72163695
0.81332803 -0.67306197 0.72256398
0.82089305 -0.66615796 0.72191501
0.832129 -0.66237801 0.72124839
0.84055495 -0.65792602 0.72153288
0.84893602 -0.65400296 0.7212925
0.85908896 -0.650859 0.72006416
0.90164495 -0.63885897 0.72166908
0.89877295 -0.62896705 0.72270995
0.90047896 -0.61825299 0.72263002
0.90360099 -0.60799497 0.72301102
0.90074599 -0.59494996 0.72211409
0.90608102 -0.58725703 0.72117668
0.918109 -0.58632302 0.72167659
1.01649 -0.63296902 0.72436994
1.0455201 -0.64201403 0.72306001
1.0500599 -0.63407904 0.722583
1.05989 -0.629619 0.72212845
0.80781698 -0.69293404 0.71745217
0.81557703 -0.68612099 0.71636277
0.81691396 -0.674142 0.71716237
0.81739599 -0.66294897 0.71698904
0.82825696 -0.66130698 0.7167756
0.83943605 -0.65811801 0.71679288
0.84891897 -0.65288496 0.71681154
0.84871501 -0.64063203 0.71565431
0.87162596 -0.65046 0.71573371
0.91923499 -0.65088099 0.7169385
0.90201896 -0.62977904 0.71734101
0.89645696 -0.614474 0.71675169
0.89939797 -0.60525 0.71778482
0.89991301 -0.59361899 0.71666306
0.90458399 -0.58607203 0.71669388
0.91310304 -0.58211499 0.71653819
0.92858905 -0.58427 0.71710587
1.05507 -0.64515901 0.71734619
1.04575 -0.63105303 0.71754885
1.06174 -0.629327 0.716434
1.08044 -0.63045603 0.71592742
0.81231695 -0.709086 0.71345794
0.82379401 -0.70473897 0.71312547
0.831752 -0.699664 0.71251482
0.82318002 -0.67982 0.71248454
0.823982 -0.667584 0.71246427
0.83391798 -0.66266197 0.71188092
0.84156197 -0.65597504 0.71167898
0.84606498 -0.64736503 0.71163458
0.84775496 -0.638794 0.71150941
0.85862195 -0.63884199 0.71093488
0.91483396 -0.63816202 0.71237671
0.90111601 -0.61907101 0.7122519
0.89726305 -0.60392201 0.71172768
0.89545405 -0.59121698 0.71168876
0.90459299 -0.58642399 0.71182638
0.90537298 -0.57551897 0.71099031
0.91948402 -0.57748902 0.71219361
1.05529 -0.63385898 0.71206236
1.05952 -0.62553102 0.71044844
1.0700901 -0.62240899 0.71056044
1.09594 -0.62972301 0.71065521
0.84444505 -0.68573195 0.70846558
0.84499496 -0.67417997 0.70804214
0.84593499 -0.660923 0.70708579
0.84782404 -0.64990997 0.70664507
0.849536 -0.64025396 0.7070958
0.86132401 -0.63923097 0.70574141
0.86276704 -0.63166302 0.70539391
0.89969903 -0.61506498 0.70687371
0.89782 -0.603962 0.70645797
0.89971298 -0.594203 0.70641512
0.89482903 -0.57761502 0.7062614
0.90252 -0.572644 0.70596075
0.91216004 -0.57184798 0.70706034
1.05414 -0.62188703 0.70569646
1.06774 -0.620538 0.70451987
1.0745 -0.61623299 0.70545501
1.01888 -0.54934001 0.70570588
1.01801 -0.54146498 0.70518953
0.86051804 -0.65898204 0.70176911
0.85350096 -0.64189005 0.70159507
0.86218297 -0.63729304 0.70080137
0.86133105 -0.62851202 0.70082682
0.91961306 -0.62736899 0.70092845
0.90136302 -0.60559398 0.70144892
0.89383101 -0.59057599 0.70127928
0.90025705 -0.58478296 0.70108324
0.90069097 -0.57309896 0.70081228
0.90739799 -0.56885701 0.70193654
1.06375 -0.62511998 0.69906008
1.06671 -0.61895102 0.6989677
1.06985 -0.61344004 0.69911683
1.0207 -0.56151903 0.69887686
1.01416 -0.548774 0.69997519
1.0177799 -0.54113799 0.70023727
0.87076795 -0.65441 0.69618607
0.86205101 -0.63711601 0.69579947
0.86494797 -0.62921298 0.69558847
0.91112 -0.61235404 0.69629157
0.89656198 -0.592453 0.69630885
0.89648002 -0.58054399 0.69576126
0.89758903 -0.570692 0.69516259
0.90377599 -0.56686401 0.6964609
1.07452 -0.63089699 0.69389433
1.0669301 -0.61885297 0.69432449
1.01398 -0.557715 0.6946398
1.0109401 -0.54763901 0.69437116
1.01088 -0.53775901 0.69562441
0.86376405 -0.63703501 0.69079596
0.868626 -0.63081902 0.6903044
0.87545502 -0.62412703 0.68939233
0.88981795 -0.62305903 0.6880812
0.89935404 -0.60277301 0.69104439
0.88985604 -0.58585703 0.69041353
0.89480102 -0.57784301 0.690916
0.89791799 -0.57091999 0.6902988
0.90086097 -0.56484103 0.69057775
0.99862599 -0.55097198 0.6889562
1.00368 -0.545928 0.68871009
1.01343 -0.54282498 0.68973893
0.87950897 -0.64767998 0.68604541
0.87351 -0.63367295 0.68576622
0.87442899 -0.62328202 0.68505371
0.87974197 -0.61554301 0.68473482
0.90492898 -0.62307203 0.68412709
0.88892096 -0.59788001 0.68521011
0.88784105 -0.585904 0.68436986
0.89191598 -0.57598501 0.6857627
0.89668298 -0.56887901 0.68594629
0.90287101 -0.56528598 0.68499941
0.98274904 -0.563012 0.68230575
0.98851198 -0.55744898 0.68293327
1.00188 -0.55454499 0.6837855
1.01057 -0.55014402 0.68468213
0.87046796 -0.61952204 0.68057203
0.87778902 -0.61377001 0.67963219
0.89940804 -0.61783999 0.68006861
0.88586599 -0.59580398 0.67995244
0.88336504 -0.583242 0.67951703
0.88941497 -0.57609999 0.67982018
0.89683098 -0.56918097 0.68052667
0.90347999 -0.56518799 0.67989242
0.96534401 -0.56244802 0.67670733
0.975012 -0.55924499 0.67828238
0.97373098 -0.55041003 0.67869014
1.01776 -0.56191802 0.68034917
0.87138098 -0.61661798 0.67442977
0.87302804 -0.60830802 0.67423368
0.88704699 -0.60746598 0.67475516
0.883452 -0.59212399 0.67481214
0.88411903 -0.58127099 0.67506242
0.88488799 -0.57242501 0.67537141
0.89416701 -0.56933397 0.67511594
0.90449798 -0.56499803 0.67430001
0.95534497 -0.581572 0.67052346
0.959387 -0.56214499 0.67189157
0.96429199 -0.55456102 0.673347
0.97061503 -0.55056304 0.67332047
0.87404996 -0.61829799 0.66865349
0.87443495 -0.61048502 0.6692608
0.88315302 -0.60610902 0.66918707
0.88547599 -0.59574503 0.6694026
0.88548303 -0.58363402 0.66993475
0.88730401 -0.57387102 0.67091751
0.89612901 -0.56905001 0.66979867
0.90635401 -0.56411701 0.66840577
0.93502098 -0.57085299 0.66787207
0.95505202 -0.57176995 0.66745877
0.95791799 -0.563609 0.66734296
0.96205598 -0.55584401 0.66773039
0.96669298 -0.54981202 0.66790408
0.88623804 -0.62700003 0.66349161
0.87184501 -0.609294 0.66481692
0.87440199 -0.601614 0.66453874
0.891141 -0.60182101 0.66369468
0.88610804 -0.58577704 0.66416758
0.88761199 -0.57435501 0.6656484
0.89848703 -0.56999898 0.66420549
0.90326202 -0.561755 0.66324347
0.92535299 -0.56483698 0.66320848
0.94562501 -0.56560302 0.66333336
0.95403701 -0.55949599 0.66327667
0.95995599 -0.55392599 0.66285753
0.97596097 -0.55607104 0.662072
0.87492102 -0.60935599 0.65989083
0.88248497 -0.60389197 0.65850139
0.88616699 -0.59548801 0.6591413
0.887492 -0.58621198 0.65868044
0.89193702 -0.57758898 0.65950227
0.89529604 -0.56685299 0.6588518
0.90592599 -0.56332296 0.65865481
0.918172 -0.56111997 0.65808409
0.93640703 -0.56110901 0.65802169
0.95270801 -0.55955601 0.65843374
0.96956098 -0.56115699 0.65746117
0.88056803 -0.61098099 0.6533491
0.87773597 -0.60004598 0.65319908
0.883515 -0.59319597 0.65395689
0.88320506 -0.58076102 0.65432298
0.88759804 -0.57250601 0.65453982
0.892362 -0.56551802 0.65335649
0.90617502 -0.56285304 0.65382606
0.92031401 -0.56181598 0.65318078
0.93037003 -0.55862099 0.65290523
0.94645798 -0.55828798 0.65284997
0.89634901 -0.62193 0.64708459
0.88249606 -0.604518 0.64847487
0.88205397 -0.59371001 0.64831406
0.88580102 -0.58506501 0.64928353
0.88664299 -0.57313204 0.64909309
0.88947099 -0.56409001 0.64904815
0.89930397 -0.559672 0.64843661
0.91605401 -0.55821401 0.64882255
0.93780702 -0.56186301 0.64802057
0.95344102 -0.56430602 0.64708608
0.87788099 -0.59946996 0.64352953
0.87904799 -0.59028399 0.64318162
0.88325101 -0.58277303 0.64424753
0.88618398 -0.57318199 0.6432116
0.89065301 -0.56481397 0.64448375
0.89273399 -0.55506402 0.64337277
0.90634805 -0.55297899 0.6435951
0.93703902 -0.56274301 0.64375585
0.91544998 -0.51367903 0.64115602
0.88113403 -0.60115397 0.63776702
0.88143206 -0.593256 0.63806051
0.881006 -0.58157003 0.63861889
0.88272697 -0.57078803 0.63795316
0.889328 -0.56391001 0.63917822
0.88918799 -0.55270898 0.63840711
0.89846003 -0.54858202 0.6389603
0.90108597 -0.53923804 0.63819337
0.90535402 -0.530002 0.63790429
0.90588701 -0.51875705 0.6381188
0.90293998 -0.506042 0.63856
0.90477598 -0.49649701 0.63876748
0.91854697 -0.49339801 0.63782042
0.94648397 -0.490403 0.63526809
0.88071603 -0.59962898 0.6325382
0.87864 -0.589329 0.63366479
0.87936699 -0.57917702 0.63309318
0.87791097 -0.567527 0.63381958
0.88554704 -0.56212801 0.6339047
0.89056897 -0.55329698 0.63290888
0.89390999 -0.544689 0.63446337
0.89632004 -0.53580999 0.63392007
0.90004599 -0.52687502 0.63432878
0.89848602 -0.51374102 0.63441968
0.90420604 -0.50698698 0.63456929
0.90549695 -0.49779302 0.63459051
0.908216 -0.48812401 0.63509208
0.93117201 -0.490343 0.63334292
0.94899803 -0.49172297 0.63207746
0.88447702 -0.60189497 0.62653577
0.88007104 -0.59061301 0.62839246
0.87592906 -0.57851499 0.62817144
0.88096398 -0.57027 0.62865835
0.88387799 -0.560004 0.62854981
0.89360201 -0.55529803 0.62727624
0.892528 -0.542588 0.62916809
0.89617896 -0.53360003 0.6297242
0.89788699 -0.524387 0.62952131
0.89305496 -0.51147199 0.6297434
0.89792198 -0.50359201 0.63032907
0.90465301 -0.496941 0.62971348
0.90754801 -0.48915699 0.63096905
0.91407698 -0.48306599 0.63131404
0.94602501 -0.49088699 0.62926912
0.94475502 -0.482425 0.62972629
0.89359099 -0.60774398 0.62078327
0.87642097 -0.58795398 0.62353057
0.87849998 -0.57870203 0.6230666
0.88073999 -0.56821704 0.62309659
0.88906199 -0.56264096 0.62325144
0.89142001 -0.55504698 0.62261027
0.896016 -0.54638499 0.62270302
0.89438903 -0.532287 0.62462896
0.89036006 -0.51860696 0.6254341
0.89346397 -0.51030803 0.62498385
0.89578199 -0.50113499 0.62578517
0.92071801 -0.50769103 0.62388057
0.91808701 -0.49588403 0.62604183
0.87920797 -0.58779401 0.61765701
0.87457901 -0.574009 0.61834627
0.88410896 -0.571064 0.61790144
0.88573503 -0.56196499 0.61846638
0.89455003 -0.55633998 0.61744511
0.90060997 -0.54923999 0.61687845
0.90375 -0.53962201 0.61806661
0.89131302 -0.51938999 0.62032557
0.88836896 -0.50787497 0.62075812
0.89666903 -0.50428998 0.62049258
0.87967199 -0.58782101 0.61103868
0.87500101 -0.57540601 0.61303037
0.88035005 -0.56862497 0.61382413
0.88582802 -0.56099898 0.61309278
0.900684 -0.55985701 0.61175627
0.90996301 -0.55649 0.61155897
0.90893698 -0.544581 0.61318421
0.89856905 -0.52495599 0.61512423
0.88906199 -0.50862497 0.61651331
0.90500903 -0.51069599 0.61440676
0.89707804 -0.71911103 0.5960561
0.88186598 -0.59114099 0.60490817
0.87896895 -0.57907301 0.60682607
0.88188201 -0.56916803 0.60795832
0.89103597 -0.56353801 0.607306
0.90026999 -0.56038201 0.60716718
0.90380305 -0.51737499 0.61093748
0.92611295 -0.52344 0.60835719
0.894238 -0.72517401 0.59158868
0.89129204 -0.71082604 0.591941
0.89209801 -0.70151401 0.59197831
0.89610398 -0.61012101 0.59902132
0.88032097 -0.591196 0.60082251
0.88289803 -0.58345801 0.60104519
0.878681 -0.569004 0.60225946
0.88527602 -0.562509 0.60289365
0.89698601 -0.56141102 0.6015988
0.893776 -0.72484201 0.58639532
0.89291495 -0.71322799 0.58733332
0.89142501 -0.69962198 0.58736259
0.89791799 -0.69385999 0.5866695
0.89482397 -0.60976297 0.5957858
0.872118 -0.582762 0.59688723
0.87065804 -0.572501 0.59818763
0.88017797 -0.56999803 0.59677809
0.88517898 -0.562958 0.59725076
0.904208 -0.56681705 0.5944553
0.90336198 -0.73110902 0.58008778
0.89028394 -0.70916998 0.5822413
0.888668 -0.69490999 0.58244467
0.889579 -0.68585801 0.58345652
0.89266801 -0.67726797 0.5825308
0.87138295 -0.58290797 0.59081864
0.87219703 -0.573865 0.59305686
0.88080704 -0.56935298 0.59195209
0.88759005 -0.56305003 0.59132242
0.91045499 -0.56991202 0.58827931
0.907601 -0.72321504 0.57523692
0.89378095 -0.69981796 0.57703608
0.887824 -0.68188006 0.57844359
0.88617498 -0.669218 0.57856631
0.90322304 -0.67462099 0.5766809
0.88506204 -0.601753 0.58352602
0.87278998 -0.58553904 0.58530807
0.87397796 -0.57568502 0.58738381
0.87992102 -0.567985 0.58638489
0.89275903 -0.56553298 0.58547521
0.91734296 -0.57427502 0.58261836
0.90789104 -0.71412802 0.57161647
0.88543898 -0.67867106 0.57344627
0.88801497 -0.67107695 0.57401198
0.88842005 -0.66092402 0.57352102
0.88031197 -0.59921598 0.5796833
0.87367797 -0.58714503 0.58022851
0.87600702 -0.57803398 0.58126837
0.873905 -0.56553298 0.58163077
0.88710403 -0.56392503 0.58086741
0.90955299 -0.57003599 0.5785709
0.88773 -0.67705101 0.56808466
0.88602602 -0.66775495 0.56924087
0.88396597 -0.65442801 0.5686059
0.89106005 -0.649979 0.56810057
0.88009298 -0.59961498 0.57436407
0.87185699 -0.584333 0.57544291
0.86864096 -0.57086396 0.57744402
0.878286 -0.56683099 0.57618469
0.88599896 -0.562195 0.57648778
0.90970498 -0.57097197 0.57333106
0.88253701 -0.662202 0.56462061
0.880575 -0.65026397 0.56415552
0.88521403 -0.64338404 0.56432837
0.90148401 -0.64515799 0.56253099
0.89337099 -0.626122 0.56396389
0.87900704 -0.60158598 0.56784457
0.86864901 -0.58245999 0.57025009
0.87161499 -0.57291502 0.57167399
0.87484002 -0.56508398 0.5719071
0.88241601 -0.56153899 0.57157785
0.87404299 -0.644912 0.56110102
0.88095301 -0.63987201 0.55962831
0.88821703 -0.63282901 0.56001627
0.88944298 -0.62108201 0.56085771
0.88071704 -0.60500097 0.5623377
0.87073404 -0.58683497 0.5647366
0.87135005 -0.57477999 0.56568819
0.87683797 -0.56730402 0.56685477
0.88247705 -0.56311297 0.56527388
0.881634 -0.64761704 0.55474728
0.88402396 -0.64083898 0.55427039
0.88248903 -0.62953299 0.55507308
0.88768405 -0.62090403 0.5562371
0.87315696 -0.59874296 0.55859208
0.86534798 -0.58034003 0.56038851
0.867351 -0.57114202 0.5614056
0.87443298 -0.56617403 0.56141192
0.88388604 -0.56358796 0.55932587
0.88549203 -0.63970202 0.5497117
0.879264 -0.62580603 0.5507164
0.87987602 -0.61530298 0.55160928
0.86624998 -0.59217703 0.55404848
0.86860704 -0.58220404 0.55453563
0.86877406 -0.571257 0.55648756
0.87527198 -0.56509399 0.55615789
0.886935 -0.56380796 0.55321079
0.87543702 -0.62054402 0.5463593
0.87216401 -0.60689801 0.5474596
0.86472398 -0.59150201 0.5493874
0.868487 -0.58393902 0.54931062
0.87212598 -0.57552797 0.55047011
0.87760496 -0.56745499 0.55031598
0.88693601 -0.56192797 0.54817754
0.90001798 -0.56195098 0.5466854
0.873034 -0.60918701 0.54175013
0.86468399 -0.59156603 0.54455209
0.86579597 -0.58162099 0.54500508
0.87157404 -0.57441103 0.5449158
0.87762398 -0.56525701 0.54476255
0.88862902 -0.56166899 0.5431056
0.88795799 -0.55243403 0.54450136
0.913342 -0.56188601 0.54087067
0.86563498 -0.57003301 0.54002851
0.87363601 -0.56504297 0.54058111
0.87757003 -0.55634803 0.5400157
0.90155703 -0.71073306 0.805942
0.89199996 -0.69145894 0.80606198
0.897093 -0.68166602 0.80448604
0.90422601 -0.67370397 0.80447197
0.92195505 -0.67951894 0.80561203
0.90384299 -0.71158302 0.800744
0.89332998 -0.69173503 0.80009198
0.892353 -0.67922801 0.79823601
0.89933801 -0.67215103 0.79824603
0.90767896 -0.66643697 0.79796898
0.89023697 -0.68739301 0.79404998
0.89327204 -0.67805803 0.79273599
0.89607698 -0.66725898 0.79210603
0.89869201 -0.65619904 0.79072195
0.92015898 -0.66566801 0.792651
0.88888001 -0.68367797 0.78696799
0.88959396 -0.67268801 0.78696704
0.89256698 -0.66286105 0.786008
0.89538002 -0.65203798 0.78469598
0.915905 -0.65909696 0.78626299
0.89788902 -0.70590299 0.77923995
0.88942599 -0.68645102 0.78001601
0.88979501 -0.673365 0.78100604
0.88797599 -0.65769798 0.780155
0.89628601 -0.652632 0.77904898
0.90935099 -0.65234596 0.78037399
0.91263199 -0.64292395 0.77905798
0.90072501 -0.70908201 0.77458
0.89357495 -0.69201899 0.77476096
0.88789296 -0.67445296 0.77513593
0.88978499 -0.66059995 0.77433896
0.89586401 -0.65226603 0.77410996
0.90271699 -0.64457703 0.77383894
0.92080706 -0.64682502 0.77403396
0.93621004 -0.65151602 0.77495497
0.90569001 -0.71320701 0.77003199
0.89865094 -0.69649804 0.76949996
0.891325 -0.67587996 0.76914495
0.88625097 -0.65597701 0.76787102
0.89156997 -0.64801699 0.76882303
0.897165 -0.63935298 0.76716697
0.90672898 -0.63450503 0.76790696
0.92101198 -0.63682097 0.769131
0.90590101 -0.70171702 0.76466399
0.89581102 -0.68031001 0.76333696
0.88876998 -0.65957499 0.76243401
0.89161199 -0.64727998 0.76266295
0.89844805 -0.64050204 0.7622
0.90262604 -0.63138503 0.76154798
0.91462898 -0.62894899 0.76239198
0.96968597 -0.655792 0.76087099
0.90781701 -0.68957704 0.75842798
0.894934 -0.66526395 0.75689799
0.89067101 -0.64734495 0.75665003
0.89503801 -0.63734001 0.75712401
0.90116096 -0.62910098 0.75534093
0.91205704 -0.62500399 0.75605601
0.94732696 -0.64009005 0.75673699
0.96779299 -0.64238298 0.75627798
0.99695504 -0.65097702 0.75647795
1.01845 -0.655267 0.75674796
1.0323501 -0.65628898 0.75704795
0.90074801 -0.66863096 0.75130796
0.89656901 -0.65324402 0.750884
0.894795 -0.636801 0.75090402
0.89337099 -0.62242103 0.75004196
0.90559602 -0.620076 0.74972296
0.93770498 -0.63250101 0.75101393
0.959611 -0.636648 0.75141698
0.98706704 -0.64508402 0.75185996
1.0028601 -0.64397204 0.75196099
1.0168 -0.64392304 0.75183898
0.91342795 -0.67696601 0.74600405
0.897995 -0.65438902 0.74572897
0.89498198 -0.639404 0.74519193
0.89625299 -0.62583601 0.74486703
0.90268099 -0.61681902 0.74337
0.91551501 -0.61440599 0.74453199
0.94744402 -0.62679899 0.74545997
0.98191702 -0.640683 0.74614197
0.99751699 -0.641092 0.74677694
1.01083 -0.639027 0.74629098
1.02493 -0.639009 0.74566495
0.90020299 -0.65252298 0.74055296
0.89107496 -0.63231701 0.73974198
0.893659 -0.62165099 0.73859298
0.89390099 -0.60862601 0.73743302
0.90550005 -0.60645503 0.73847598
0.92213404 -0.60957903 0.73948503
0.97975999 -0.63664502 0.74071902
1.00218 -0.64182198 0.74070603
1.0164701 -0.639691 0.74004394
1.02617 -0.637523 0.73992097
0.82188499 -0.67634201 0.73044097
0.83020896 -0.67390096 0.73055696
0.83999705 -0.67119795 0.73023897
0.89120793 -0.63045698 0.73371398
0.88847601 -0.61568904 0.732759
0.88967204 -0.60450101 0.73220301
0.89924896 -0.60175401 0.73307604
0.90199995 -0.59210896 0.73243499
0.933213 -0.60011899 0.73018402
1.00379 -0.64161795 0.73486
1.0147099 -0.63828397 0.73415697
1.02416 -0.63405699 0.73380601
0.81468201 -0.67046797 0.72617501
0.82131201 -0.667283 0.72688597
0.82566297 -0.65896004 0.72614199
0.83570397 -0.653467 0.72562301
0.85022199 -0.65332299 0.72484499
0.89440203 -0.63190603 0.72685099
0.89072502 -0.61998701 0.727745
0.89000201 -0.60721803 0.72721803
0.89407206 -0.59664202 0.72726601
0.89796799 -0.58575296 0.72607797
0.91376096 -0.58645201 0.72639495
0.92804003 -0.58762503 0.72602898
1.0233899 -0.64332998 0.72849
1.02175 -0.63165003 0.72827202
1.0480599 -0.63794303 0.726578
1.06953 -0.63960201 0.72500002
0.80660796 -0.662714 0.72157443
0.817384 -0.66367102 0.72173792
0.82356203 -0.65680802 0.72071397
0.83044404 -0.64936697 0.72081912
0.83652198 -0.64082497 0.72076768
0.84926802 -0.64022303 0.71996421
0.90347701 -0.63846898 0.72131848
0.89044404 -0.61759299 0.72178209
0.89018703 -0.60363501 0.72151518
0.88967299 -0.58932298 0.72117883
0.89531404 -0.58190101 0.72090149
0.90434504 -0.57910001 0.72171891
0.91354203 -0.575813 0.72098863
1.0127101 -0.632442 0.72351503
1.03781 -0.64068103 0.72289795
1.0483 -0.63604403 0.72166038
1.0526 -0.62636799 0.72052932
1.0630001 -0.62162399 0.71984047
0.81090599 -0.66607904 0.71698797
0.81824094 -0.66251802 0.7160778
0.82432097 -0.65419197 0.71596289
0.83059901 -0.64812696 0.71592951
0.83659399 -0.64195901 0.71581697
0.84510803 -0.63523901 0.71509534
0.85541296 -0.63317901 0.71476477
0.89926904 -0.62399501 0.71570677
0.89226097 -0.60715902 0.71583879
0.89293402 -0.59461397 0.71579027
0.89195096 -0.58056599 0.71584946
0.90538806 -0.57898599 0.71646011
0.91272002 -0.57305402 0.71483368
0.936037 -0.58286595 0.71535128
1.04994 -0.63428998 0.71656525
1.0512999 -0.62273198 0.71498466
1.05382 -0.61351103 0.71484202
1.0742099 -0.61776298 0.71412504
0.817581 -0.671848 0.71241671
0.82689202 -0.67168701 0.71197569
0.82586896 -0.65835899 0.71192271
0.83050901 -0.64659601 0.71134126
0.83744001 -0.638493 0.71025485
0.84396303 -0.63171697 0.70954984
0.85402602 -0.630081 0.70987976
0.870197 -0.63551897 0.70998305
0.91375601 -0.636132 0.71067291
0.898265 -0.61228597 0.71056908
0.89205599 -0.595402 0.71068746
0.89389199 -0.58426303 0.71039474
0.89818603 -0.57366401 0.71043122
0.90451896 -0.565911 0.70912415
0.91803801 -0.56760401 0.71039063
1.0601699 -0.62845498 0.71020055
1.04829 -0.60921001 0.70985651
1.06229 -0.60857302 0.70904088
1.05442 -0.59372598 0.70870829
1.0127701 -0.54094797 0.70799464
0.84253997 -0.64254797 0.70483488
0.84362602 -0.632981 0.70497394
0.854029 -0.62971002 0.70413136
0.86350501 -0.628371 0.70498651
0.91282403 -0.62644601 0.70681161
0.89050794 -0.591066 0.70501429
0.89322001 -0.58076596 0.70526421
0.89664298 -0.57145196 0.70439494
0.902273 -0.56428796 0.70340109
0.91587198 -0.56576598 0.70475036
1.0502601 -0.608073 0.70464569
1.0558 -0.60186797 0.70337188
1.02232 -0.56009001 0.70222914
1.0188401 -0.54591799 0.70317489
0.85947198 -0.65540701 0.6988247
0.84988505 -0.63645601 0.69922221
0.85546499 -0.62859499 0.69822556
0.86447406 -0.62641102 0.69851899
0.89361602 -0.59462297 0.6980049
0.89067 -0.58005697 0.69929755
0.89454699 -0.56987399 0.69865197
0.89738601 -0.56040597 0.69812286
0.91371596 -0.56382298 0.6985364
1.0539299 -0.60785598 0.69890136
1.02692 -0.57707101 0.69722527
1.00905 -0.551386 0.69705111
1.01176 -0.54012501 0.69816101
1.01676 -0.53403002 0.69790006
0.86529195 -0.64913803 0.69370341
0.85653096 -0.629731 0.69332534
0.86563796 -0.625682 0.69290727
0.87933403 -0.626306 0.69224024
0.89683801 -0.61021 0.6918537
0.88429201 -0.58737803 0.69306678
0.88461703 -0.57443404 0.69333047
0.89184701 -0.56638503 0.69278139
0.90068197 -0.561207 0.6931811
0.91250998 -0.56189704 0.69331551
1.00336 -0.56972802 0.69133919
0.99952906 -0.557491 0.69154328
0.99839598 -0.54578096 0.69134873
1.01291 -0.54381299 0.69204473
0.87738603 -0.64725304 0.68766677
0.86906898 -0.62799597 0.68762326
0.874991 -0.62175101 0.68786126
0.88153398 -0.61331296 0.68727326
0.87936205 -0.59653199 0.68744951
0.88037401 -0.58404303 0.68767321
0.88300103 -0.57248902 0.68738413
0.88384598 -0.56091499 0.68782115
0.89679998 -0.56002897 0.68744218
0.91186303 -0.56184298 0.68822449
0.97390699 -0.55001098 0.68584257
0.98266101 -0.54512501 0.68671286
0.99193197 -0.54090697 0.6865027
1.01544 -0.54707998 0.68656003
0.87339205 -0.62977797 0.68224287
0.87400103 -0.61918199 0.682827
0.87663102 -0.607741 0.68202978
0.87808198 -0.59500402 0.68191057
0.87830806 -0.58178103 0.68205208
0.88432097 -0.57477903 0.6816439
0.88825601 -0.56501997 0.68236434
0.894629 -0.55788702 0.68145376
0.90631598 -0.55841398 0.68252772
0.97404402 -0.56428903 0.67903382
0.96797895 -0.548971 0.67997772
0.97643995 -0.54273599 0.68112302
0.99733198 -0.54651403 0.68104148
0.88854498 -0.64171201 0.67697966
0.87356204 -0.61697203 0.67727476
0.87480599 -0.60458899 0.67595649
0.87695903 -0.59255999 0.67635554
0.87718302 -0.57952702 0.67660445
0.87969804 -0.568497 0.67677307
0.88913202 -0.56302601 0.6767289
0.89205706 -0.555121 0.6768117
0.90904403 -0.55984998 0.67620134
0.96769202 -0.584243 0.67273504
0.95522004 -0.56384897 0.67394167
0.96339697 -0.55751204 0.67419869
0.96793902 -0.54804999 0.67542893
0.97209001 -0.54131198 0.67532957
0.87204099 -0.61210203 0.67052621
0.88134003 -0.61087 0.67023432
0.88092101 -0.59950298 0.67052031
0.882783 -0.58771902 0.670748
0.88406098 -0.57539499 0.67094278
0.88626897 -0.563357 0.67102003
0.8951 -0.55770499 0.67186487
0.91674304 -0.56181198 0.66962451
0.95421201 -0.57552797 0.66896242
0.949377 -0.560269 0.66939473
0.95262498 -0.551256 0.6690169
0.963274 -0.54702401 0.66969621
0.98588204 -0.554398 0.66874713
0.87501603 -0.61409402 0.66407061
0.87537104 -0.60478199 0.66529191
0.88013399 -0.59588796 0.66515625
0.87885696 -0.58147901 0.66542029
0.87950498 -0.56871104 0.66567039
0.88451695 -0.56141299 0.66576463
0.89435405 -0.55725199 0.66575402
0.91919404 -0.56299704 0.66359627
0.93734396 -0.563564 0.66437751
0.945476 -0.55675101 0.66444868
0.95410895 -0.55215901 0.6640172
0.967668 -0.55180001 0.66418004
0.88326699 -0.62109202 0.65824676
0.87336802 -0.60324597 0.65949219
0.87992996 -0.59809101 0.66002488
0.88459504 -0.58931303 0.65954649
0.88091695 -0.57264197 0.66000551
0.88543898 -0.56209499 0.66019547
0.89930803 -0.55880702 0.65948051
0.91551697 -0.55918902 0.65858686
0.92728996 -0.557769 0.65934038
0.94016999 -0.55496603 0.65929335
0.96092498 -0.55909199 0.65861017
0.94096297 -0.418504 0.65949702
0.93885499 -0.40745801 0.66032213
0.86877996 -0.59805304 0.65413523
0.87614095 -0.59346002 0.65450865
0.87826699 -0.58097899 0.65426135
0.88310999 -0.57135099 0.65446317
0.890935 -0.566764 0.65443683
0.89153898 -0.55609399 0.65454292
0.90726 -0.55469298 0.65352952
0.92411101 -0.55498403 0.65431541
0.94309098 -0.55841702 0.65360558
0.92240196 -0.43951499 0.65446204
0.91422999 -0.425327 0.65556681
0.91595596 -0.414188 0.65630591
0.918872 -0.40549099 0.65736032
0.879188 -0.60576802 0.64723283
0.87577403 -0.59424198 0.64898896
0.87873495 -0.58475 0.64868999
0.88093102 -0.57206297 0.64853567
0.88883299 -0.56505197 0.64955467
0.89360201 -0.555179 0.64855188
0.90822601 -0.554748 0.64816976
0.91455901 -0.54837 0.64838189
0.93921995 -0.46664399 0.64670444
0.90608001 -0.428839 0.65163523
0.91056001 -0.42177898 0.65238792
0.915241 -0.41484201 0.6516844
0.92300695 -0.40864101 0.65290076
0.88206804 -0.60795897 0.6413027
0.87638497 -0.593606 0.64345175
0.87760198 -0.58143502 0.64272797
0.87775904 -0.568717 0.64344752
0.88281405 -0.56014705 0.64363122
0.888726 -0.55104399 0.64306557
0.90148199 -0.54846799 0.64353472
0.905604 -0.54057401 0.64348519
0.90918404 -0.53309602 0.64274389
0.89510697 -0.50911301 0.64298958
0.89592397 -0.49564701 0.64324671
0.89964998 -0.48597801 0.64379692
0.89936501 -0.47389197 0.643843
0.91111505 -0.46830502 0.64354151
0.92634398 -0.46670398 0.64356422
0.92046899 -0.45116001 0.64522666
0.90608197 -0.43008998 0.64717537
0.90997905 -0.422324 0.6479274
0.91236502 -0.41401002 0.64735109
0.92185098 -0.40856898 0.64773208
0.88427198 -0.61002499 0.63586289
0.87492502 -0.59202099 0.63741487
0.87469399 -0.57894796 0.63685012
0.879336 -0.56952202 0.63820857
0.87451899 -0.55392301 0.63893121
0.88403201 -0.55040097 0.6382367
0.886168 -0.53780699 0.63842887
0.89550298 -0.53236401 0.63943392
0.89349002 -0.51824498 0.6390748
0.893641 -0.50540698 0.63899881
0.89359099 -0.49325299 0.6390785
0.89918 -0.48583302 0.64005631
0.89696801 -0.473046 0.63991708
0.899782 -0.46336898 0.6400975
0.91061503 -0.45891103 0.64074981
0.92578697 -0.45788202 0.64093637
0.913517 -0.43770698 0.64279747
0.91098505 -0.423507 0.6437754
0.92619598 -0.421051 0.64306998
0.93782699 -0.417786 0.64293128
0.86691201 -0.59368598 0.63197458
0.87239701 -0.587789 0.63167816
0.870336 -0.57428801 0.63210851
0.87680399 -0.56920797 0.63303328
0.87989998 -0.55894101 0.63331079
0.88330597 -0.54722601 0.63240832
0.88455397 -0.53465301 0.63285041
0.88823402 -0.525383 0.63414556
0.88375902 -0.508596 0.63476282
0.88820803 -0.499827 0.63462007
0.89169198 -0.49188998 0.63469946
0.89797205 -0.48515099 0.63489121
0.89696902 -0.47095299 0.63577616
0.89084601 -0.457127 0.63683408
0.89546698 -0.45247599 0.63726538
0.93548203 -0.46681499 0.6363306
0.87281305 -0.59819502 0.62573415
0.87172097 -0.58836901 0.62634569
0.870022 -0.575315 0.62717474
0.87385803 -0.56603402 0.62822443
0.87912905 -0.55716205 0.62726355
0.883955 -0.548118 0.62626761
0.88789201 -0.538535 0.62721831
0.88702399 -0.52521199 0.62837553
0.88782096 -0.51459599 0.62936878
0.89080399 -0.50504202 0.62920797
0.89569902 -0.49628699 0.62954205
0.90332496 -0.49115503 0.62934971
0.90238601 -0.47775701 0.63121873
0.90193701 -0.46623799 0.63239992
0.87088203 -0.58721697 0.62092644
0.87248397 -0.57903999 0.6217652
0.87445199 -0.56720799 0.62206048
0.87894499 -0.55621201 0.62129408
0.88901496 -0.55255598 0.62099749
0.89199305 -0.54324901 0.62119412
0.89548403 -0.53232104 0.62207121
0.88993502 -0.515203 0.62371606
0.89657599 -0.50793201 0.62387353
0.91391897 -0.51101798 0.62274122
0.87434697 -0.58874899 0.61496359
0.87361097 -0.57832599 0.61589599
0.87396103 -0.56452298 0.61581749
0.87628698 -0.55459303 0.61659956
0.89093 -0.55520099 0.61590791
0.89888102 -0.549806 0.61538875
0.89911795 -0.535384 0.61695641
0.88965601 -0.51629198 0.61876208
0.89795601 -0.51152402 0.61859202
0.90316099 -0.72474504 0.59864348
0.87559098 -0.58842301 0.60917979
0.86920601 -0.572182 0.61037886
0.87675005 -0.56619799 0.6098128
0.880871 -0.55841398 0.6113081
0.89297795 -0.55756003 0.60997385
0.90262103 -0.52511799 0.61349481
0.91156995 -0.52269298 0.61283135
0.89133906 -0.72256899 0.59372526
0.89356005 -0.71205401 0.59389871
0.87752402 -0.59086204 0.60274941
0.86670303 -0.57256198 0.60544705
0.87575698 -0.56842703 0.6042639
0.88369101 -0.56124598 0.60486877
0.89709395 -0.562392 0.60359168
0.88536 -0.71326602 0.58942682
0.88632202 -0.70178705 0.58966422
0.88585502 -0.68861198 0.58947217
0.90286696 -0.69271797 0.58738631
0.87425101 -0.58825403 0.59808439
0.86973399 -0.57538301 0.59935141
0.869739 -0.56397802 0.5992226
0.87938499 -0.56014502 0.59926677
0.89527494 -0.56254399 0.59788072
0.89988196 -0.72780299 0.58302861
0.88489097 -0.69922203 0.58504087
0.88194603 -0.68191904 0.58494562
0.88778299 -0.67643601 0.58467799
0.87228996 -0.58583599 0.59331346
0.86820102 -0.57232898 0.5935936
0.87118697 -0.56289399 0.59459215
0.882339 -0.56124598 0.59342867
0.89826399 -0.56476998 0.5910458
0.89710802 -0.714378 0.57978487
0.87470901 -0.67458701 0.58129627
0.88013196 -0.66745496 0.58022046
0.88680297 -0.66233599 0.57968819
0.869394 -0.58341002 0.58726996
0.86692297 -0.57197201 0.58831799
0.87252599 -0.56492501 0.5887571
0.88631701 -0.56367701 0.58723229
0.89883304 -0.564762 0.58529788
0.87494105 -0.67116302 0.5750066
0.88107103 -0.66670096 0.5747413
0.88377196 -0.65767503 0.5746882
0.90175599 -0.66390401 0.5730173
0.87308002 -0.58905602 0.5802176
0.86769301 -0.57286501 0.58251745
0.875494 -0.56520802 0.58280748
0.88801003 -0.56415999 0.58186716
0.90228599 -0.56777698 0.57922459
0.8854 -0.68023598 0.5674181
0.87544996 -0.660133 0.57015383
0.87870401 -0.65026999 0.56991607
0.885903 -0.64666903 0.56985897
0.883542 -0.60911798 0.57262683
0.871961 -0.58902097 0.5747472
0.86222398 -0.56796902 0.57742131
0.86816901 -0.56179696 0.57848513
0.88444901 -0.563016 0.57675165
0.905545 -0.57098997 0.57305688
0.887133 -0.68233001 0.5626536
0.88553804 -0.66980398 0.56320566
0.87677801 -0.648835 0.56503278
0.87906194 -0.63919103 0.5657934
0.88369101 -0.63057703 0.56535321
0.876315 -0.60701799 0.56782091
0.86967903 -0.58921003 0.5691973
0.86441398 -0.57117599 0.57140547
0.86971605 -0.56257701 0.57309169
0.88921303 -0.56700599 0.5701701
0.91417199 -0.57839102 0.56656206
0.88032699 -0.65010804 0.55871499
0.87964797 -0.63721502 0.56025559
0.87680602 -0.62044799 0.56187475
0.87153 -0.60269403 0.56276041
0.862827 -0.58115697 0.56529242
0.86601198 -0.57125401 0.56571746
0.87106401 -0.56369001 0.56720686
0.88788104 -0.56690198 0.56442446
0.89276201 -0.658292 0.55103809
0.88058698 -0.63740504 0.55419397
0.87593102 -0.62058103 0.5566327
0.87132299 -0.60488701 0.55696601
0.864299 -0.58616102 0.55928087
0.86566496 -0.574036 0.56026888
0.87015897 -0.56393701 0.56091249
0.88924199 -0.56704301 0.55717731
0.88542396 -0.63999003 0.54840118
0.871696 -0.61689603 0.55180621
0.86976099 -0.60230899 0.55214089
0.86200106 -0.58265001 0.55431789
0.86293298 -0.56980401 0.5552423
0.87303901 -0.564134 0.55412507
0.88922 -0.56496799 0.55207437
0.90713501 -0.56988204 0.54959536
0.87074798 -0.61382902 0.54656208
0.86469597 -0.59625703 0.547409
0.859056 -0.57851005 0.54928219
0.86354101 -0.56869298 0.54914945
0.87184405 -0.562886 0.54888231
0.88134599 -0.55977702 0.54902345
0.89070201 -0.55596697 0.5475933
0.914074 -0.565696 0.54457349
0.85844302 -0.58934098 0.54274976
0.859887 -0.57738799 0.54368025
0.86021698 -0.56655604 0.5445835
0.86854601 -0.56186301 0.54386169
0.87761497 -0.556274 0.5443784
0.88163805 -0.54778403 0.5433042
0.90072197 -0.55439603 0.54175967
0.94055498 -0.65606004 0.76182997
0.94768995 -0.65123999 0.76125801
0.97243798 -0.66071296 0.76162398
0.93534899 -0.65089107 0.75722396
0.937087 -0.64107102 0.75588995
0.95842302 -0.64736801 0.75674701
0.98020399 -0.65227699 0.75673699
0.99717003 -0.65095705 0.755889
1.0150701 -0.65431297 0.75555903
0.91903704 -0.634619 0.751149
0.92577398 -0.63062698 0.749479
0.94975603 -0.639148 0.75087196
0.97451204 -0.648022 0.75195801
0.99084097 -0.64804703 0.75144404
1.0045099 -0.64582705 0.75096899
1.0138099 -0.64180493 0.74995798
0.90854102 -0.62420702 0.74457496
0.90806699 -0.61390501 0.74273795
0.926364 -0.62060297 0.74414998
0.98108298 -0.64955199 0.74580693
0.99416101 -0.64777297 0.74595398
1.0096 -0.648296 0.744964
1.00967 -0.63429099 0.74317497
0.89538199 -0.61149198 0.73818201
0.90056801 -0.60701001 0.73677796
0.90854698 -0.60258204 0.73643601
0.97741896 -0.64221901 0.73957098
0.99893302 -0.65124601 0.74006599
1.0109 -0.64657402 0.73809403
1.0117199 -0.632716 0.73725098
1.03619 -0.64475197 0.737894
0.89347398 -0.60966402 0.73223096
0.89951205 -0.60487497 0.73109597
0.90119797 -0.59283298 0.72967798
0.92243105 -0.60084498 0.72995299
0.99776703 -0.64824098 0.73425204
1.02004 -0.65341902 0.73158598
1.02044 -0.64039099 0.73144895
1.02494 -0.63153499 0.73137999
0.88855696 -0.60440201 0.72619092
0.89143401 -0.59651697 0.72497594
0.89894301 -0.59123999 0.72405195
0.90706801 -0.58454603 0.72397697
0.92501605 -0.59037203 0.72450995
1.03925 -0.66798699 0.72531295
1.0316401 -0.64991403 0.72528899
1.03333 -0.63746798 0.72496498
1.04176 -0.63095796 0.72386301
0.88603401 -0.60173601 0.71987414
0.89065301 -0.59524798 0.71890152
0.89600301 -0.58642501 0.71858847
0.90337998 -0.57868803 0.71761435
0.91374296 -0.57697302 0.71843344
1.05329 -0.66717005 0.71975952
1.04101 -0.64418298 0.719405
1.04451 -0.63194197 0.71782357
1.0590301 -0.63131696 0.71697539
0.882052 -0.59757799 0.71289551
0.88706398 -0.58992201 0.71299225
0.89284104 -0.58160502 0.71315926
0.90097702 -0.57600099 0.71160936
0.91117501 -0.57252997 0.7124024
0.93464994 -0.584418 0.7127012
1.04418 -0.64273399 0.71370667
1.0436599 -0.628829 0.71236974
1.05976 -0.62998003 0.71134025
1.0624 -0.62157297 0.71134496
0.88318604 -0.59969199 0.70657957
0.88618696 -0.591721 0.70649183
0.89270401 -0.58325201 0.70745331
0.89682198 -0.57251799 0.705558
0.90975702 -0.57076901 0.70645308
0.92714995 -0.57665902 0.70728827
1.0633399 -0.64400399 0.70745605
1.06218 -0.62953901 0.70632207
1.0655999 -0.62280202 0.70630693
0.88149399 -0.597642 0.70063674
0.89008498 -0.59580898 0.70081657
0.88875997 -0.58102697 0.70104438
0.89513397 -0.57161802 0.69943774
0.90292001 -0.56490999 0.70036542
0.92004502 -0.56995499 0.7012707
1.05107 -0.60925996 0.70207143
0.88035893 -0.596277 0.6941908
0.88335997 -0.58857101 0.69576913
0.88811994 -0.57963103 0.69478488
0.88950598 -0.56720603 0.69383788
0.89967698 -0.56316799 0.6943531
0.91880697 -0.56922197 0.69434029
0.98891294 -0.55528802 0.6894781
0.86894399 -0.585666 0.68831998
0.87844497 -0.58388197 0.68973315
0.88223296 -0.57355803 0.688779
0.89259905 -0.56714404 0.68813372
0.90471494 -0.56509995 0.6888833
0.91785103 -0.56641102 0.687446
0.97401601 -0.56367201 0.68497038
0.97614503 -0.55467099 0.6852392
0.97457397 -0.543212 0.68612814
0.86762899 -0.58480597 0.68306959
0.87354302 -0.57949299 0.68332583
0.88146502 -0.57168502 0.68223137
0.88908994 -0.56391799 0.68205857
0.90572196 -0.56523001 0.68242913
0.922535 -0.56797999 0.68094206
0.96378195 -0.570364 0.67936254
0.96064901 -0.55460703 0.68027848
0.96751297 -0.54855502 0.68011481
0.98059601 -0.54925996 0.68127859
0.867145 -0.58368099 0.67788202
0.87413806 -0.57847804 0.67656279
0.87744498 -0.56873298 0.67684585
0.88716799 -0.565175 0.6766668
0.90125799 -0.56350499 0.67632431
0.92239195 -0.56743598 0.6753639
0.94743598 -0.57660002 0.6749208
0.950418 -0.56144297 0.67492831
0.95870203 -0.55369902 0.67449003
0.96249998 -0.54478699 0.67506373
0.97565496 -0.54674101 0.67555964
0.871966 -0.58778197 0.67129135
0.87684196 -0.58195996 0.66974771
0.880548 -0.57111698 0.67107362
0.89205903 -0.56638801 0.6707617
0.90581495 -0.56402999 0.66998756
0.92636299 -0.56863099 0.66915429
0.94204903 -0.56964499 0.66999274
0.95026606 -0.56116998 0.66872889
0.95960402 -0.55574399 0.66879606
0.96238798 -0.54722601 0.66950774
0.87265605 -0.58837503 0.66452891
0.87850499 -0.58407801 0.66431624
0.88049698 -0.57260901 0.66439444
0.88779604 -0.565265 0.66541487
0.89675301 -0.559021 0.66468519
0.92344201 -0.567819 0.66318339
0.936849 -0.56486899 0.66414934
0.94683701 -0.56044501 0.66281474
0.95598394 -0.55440497 0.6634717
0.98282599 -0.56699902 0.66254151
0.87478995 -0.59165597 0.65780288
0.87742597 -0.582573 0.65878218
0.88212699 -0.57262003 0.65811241
0.889045 -0.56443602 0.65899903
0.902044 -0.56047404 0.65833384
0.92267799 -0.56561798 0.65708727
0.93511999 -0.563676 0.65808278
0.95319003 -0.565395 0.6575709
0.97391999 -0.57015401 0.6578868
0.87478995 -0.592435 0.65212065
0.877783 -0.58529598 0.65252352
0.88311797 -0.57706797 0.65252215
0.88465601 -0.56250703 0.65230256
0.89796096 -0.55860597 0.65261209
0.91855204 -0.56379104 0.65212905
0.92533094 -0.55578101 0.651757
0.93703198 -0.45329499 0.650361
0.87005997 -0.58704203 0.64690071
0.87704104 -0.58268702 0.64723849
0.881859 -0.57422298 0.64663315
0.88386703 -0.56229997 0.6461764
0.88977206 -0.55275398 0.64636201
0.91032702 -0.555134 0.64662653
0.91866899 -0.54919302 0.6461432
0.91722 -0.53601301 0.6457206
0.90942103 -0.51386797 0.64533669
0.91494298 -0.50364 0.64520854
0.91653997 -0.49089298 0.64579338
0.90081 -0.46364799 0.64716703
0.90028501 -0.44818002 0.64764959
0.917413 -0.447797 0.64757562
0.93221301 -0.44993901 0.6472798
0.86929101 -0.58651501 0.64111322
0.87467694 -0.580751 0.64125252
0.87952304 -0.57104999 0.64072442
0.88054395 -0.55724001 0.64110941
0.88543099 -0.54867804 0.6407221
0.89185899 -0.53970301 0.64104241
0.90574205 -0.53716302 0.6419372
0.89424002 -0.51230299 0.64211249
0.89647001 -0.49872899 0.64172637
0.89765406 -0.48490199 0.64267373
0.89892197 -0.47280899 0.64329714
0.89320397 -0.45491299 0.6435203
0.88979894 -0.43999499 0.64446521
0.90035301 -0.43754101 0.64437515
0.92414999 -0.44517201 0.64383596
0.92276901 -0.43458301 0.64486712
0.86728996 -0.584135 0.63581336
0.87018502 -0.575405 0.63484681
0.87383002 -0.56320202 0.63541901
0.87981796 -0.55489302 0.63590348
0.88348001 -0.54521298 0.6354894
0.88783699 -0.53455299 0.6349346
0.89693999 -0.52851897 0.63654768
0.88949203 -0.50645196 0.63645536
0.891864 -0.49459898 0.63657999
0.89838797 -0.487919 0.63752866
0.896689 -0.471993 0.63798213
0.88883501 -0.45230597 0.63905591
0.893031 -0.443699 0.63977849
0.90028197 -0.43798199 0.64019775
0.86249804 -0.57916301 0.63017631
0.86789495 -0.57504499 0.62873822
0.87269402 -0.56636798 0.62919199
0.87872297 -0.55532598 0.62968916
0.88175905 -0.54244798 0.63014978
0.88689798 -0.53373098 0.62887746
0.88962001 -0.52087897 0.63071299
0.88116997 -0.50024199 0.63187796
0.88739997 -0.49396703 0.63174194
0.89551497 -0.485587 0.63238806
0.89374602 -0.47004199 0.63322437
0.89305097 -0.45691299 0.63452935
0.90223199 -0.45109501 0.63502932
0.86276704 -0.579301 0.62396514
0.86588401 -0.57127202 0.62322593
0.87119401 -0.56251502 0.62407637
0.87800002 -0.55651796 0.62318897
0.88755602 -0.550264 0.62338686
0.89819503 -0.54492599 0.62172359
0.89382005 -0.52630103 0.62433344
0.88912696 -0.508183 0.62656081
0.90361506 -0.50893903 0.62579405
0.90538299 -0.48015499 0.62864625
0.86197603 -0.57829899 0.61744195
0.86972201 -0.57573396 0.61706275
0.87104696 -0.56380999 0.61802018
0.88246202 -0.55955297 0.61725509
0.89284599 -0.55439299 0.61648101
0.91067904 -0.55751204 0.61481094
0.90063304 -0.53501099 0.61824465
0.888506 -0.50946802 0.62191129
0.862988 -0.57981896 0.61124074
0.86751604 -0.57334501 0.61148977
0.872513 -0.56348997 0.61228609
0.88607001 -0.56259298 0.61090922
0.90573901 -0.56697398 0.60913867
0.92790198 -0.57562196 0.6077565
0.91430604 -0.550762 0.61146581
0.85883301 -0.57569498 0.60572451
0.87117201 -0.57751203 0.6049549
0.87351 -0.56619 0.60592127
0.88759398 -0.56431198 0.60470086
0.908162 -0.57160199 0.60281515
0.859703 -0.57686597 0.59986389
0.86447901 -0.57069498 0.59985685
0.87544197 -0.56636697 0.59995687
0.89077103 -0.56849599 0.59821612
0.90922093 -0.57574004 0.5963921
0.85813004 -0.575652 0.59458166
0.86099505 -0.56837702 0.59374845
0.87305701 -0.56593901 0.59372789
0.89082199 -0.57006198 0.59195578
0.85767096 -0.57465804 0.58876139
0.86186898 -0.56769902 0.58771718
0.87449402 -0.56594598 0.58724016
0.89238799 -0.57256198 0.58551061
0.85386902 -0.57068801 0.58312821
0.858648 -0.56577998 0.58188772
0.86965299 -0.564188 0.58162576
0.88578004 -0.56828701 0.58032179
0.856547 -0.57323503 0.57608217
0.86520898 -0.57047403 0.57578009
0.869712 -0.56295604 0.57648051
0.89186895 -0.57529598 0.57352507
0.85601699 -0.57352501 0.56950605
0.862293 -0.56966799 0.57043111
0.86771303 -0.56348598 0.57060087
0.85077006 -0.56841099 0.56494319
0.86133796 -0.56867099 0.56404078
0.87106103 -0.56728399 0.56347632
0.85479599 -0.57218802 0.55899274
0.85964799 -0.56629801 0.5574283
0.86726195 -0.561813 0.55770701
0.85694295 -0.57389301 0.55239606
0.86373299 -0.57044101 0.550587
0.86707199 -0.56052703 0.55163461
0.88544798 -0.56453097 0.54927778
0.89508003 -0.56236196 0.54796511
0.856287 -0.57288396 0.54597569
0.86483705 -0.57177103 0.54523736
0.86380404 -0.55878603 0.54652429
0.87811601 -0.55783099 0.54482019
0.88693601 -0.55464298 0.54471552
0.84889001 -0.56656599 0.5407064
0.85876 -0.56495398 0.54100192
0.86690003 -0.55911201 0.54081947
0.95672995 -0.67963499 0.80812895
0.95848799 -0.68784696 0.80805397
0.96979499 -0.69210404 0.80662
0.96726304 -0.70709097 0.80739099
0.95348096 -0.72487503 0.80861998
0.94786 -0.68135399 0.80193299
0.96081901 -0.68575501 0.80163103
0.969401 -0.693892 0.80039495
0.96714997 -0.70609903 0.80033094
0.93964601 -0.67321604 0.79605699
0.95809305 -0.67511594 0.79463899
0.96420598 -0.68492997 0.795102
0.97005302 -0.69299698 0.79364198
0.95596606 -0.71060503 0.79427099
0.92273903 -0.66941595 0.79194593
0.95087403 -0.665757 0.788908
0.95508003 -0.67536902 0.789244
0.96381497 -0.68293601 0.78861099
0.964513 -0.69525701 0.78752398
0.95343202 -0.71156901 0.78789794
0.92969596 -0.65482801 0.78580904
0.94269598 -0.65693903 0.783925
0.95942706 -0.65981501 0.781174
0.96152902 -0.67136103 0.78286499
0.96743399 -0.68144602 0.78146696
0.95597196 -0.70032096 0.78170896
0.94698697 -0.71498495 0.78279799
0.93667299 -0.65021896 0.77945298
0.95477301 -0.650262 0.77585196
0.96422899 -0.65755403 0.77457803
0.96338099 -0.67071897 0.77587402
0.96166497 -0.68510002 0.77590698
0.95881897 -0.69677198 0.77497596
0.94288498 -0.71600801 0.77671599
0.94768304 -0.64374804 0.77175897
0.96352202 -0.64435899 0.76812303
0.96324897 -0.65656096 0.76887101
0.97020799 -0.66468298 0.76895499
0.95714998 -0.68536901 0.77002996
0.95030195 -0.70202398 0.76982397
0.93894202 -0.71808195 0.77005094
0.953834 -0.64000601 0.76438695
0.96467501 -0.642905 0.76161796
0.96893799 -0.65216303 0.76185197
0.96832901 -0.666403 0.76252997
0.95527899 -0.68886 0.76362592
0.94024903 -0.70911795 0.76514
0.93220198 -0.72213399 0.76514602
0.95967299 -0.63626498 0.757043
0.96273804 -0.642932 0.75642502
0.97183502 -0.64807701 0.75545502
0.97873801 -0.65713698 0.75469398
0.98811895 -0.66478997 0.75302798
0.933245 -0.71286398 0.76124299
0.92174399 -0.72793901 0.76180494
0.96861506 -0.63003701 0.75005996
0.971062 -0.63778001 0.74996203
0.973683 -0.64857101 0.74903899
0.98667198 -0.65464598 0.747419
1.01291 -0.65165198 0.74412298
1.00581 -0.66368794 0.74512297
0.96893305 -0.62847102 0.74361801
0.97383004 -0.63663203 0.74299896
0.97147799 -0.65052599 0.74251294
0.99354798 -0.65146303 0.74109
1.02852 -0.64421797 0.73773402
1.03697 -0.64720803 0.73659796
0.98677695 -0.60920697 0.73600602
0.96912003 -0.62715501 0.73695803
0.96626604 -0.64083201 0.73768699
0.96179301 -0.65296096 0.73687601
0.96626997 -0.66069299 0.736678
1.04408 -0.637339 0.730883
1.05619 -0.63812399 0.72844005
0.98251504 -0.60816699 0.72993994
0.97510695 -0.62133998 0.73009902
0.96373802 -0.639772 0.73158997
0.95455903 -0.65623301 0.73168504
0.94453001 -0.67054904 0.73235899
1.0603601 -0.62936801 0.72283292
1.06975 -0.63117701 0.72116923
1.0131401 -0.55810702 0.71988869
1.0040799 -0.58429402 0.72232795
0.97902399 -0.60800803 0.72399598
0.96483201 -0.62768501 0.72584397
0.95642501 -0.64362198 0.72624898
0.934084 -0.66614401 0.727983
1.05876 -0.629893 0.71735704
1.07372 -0.62898201 0.71557105
1.06532 -0.64126897 0.71624947
1.01166 -0.55780602 0.71589172
0.99826503 -0.58522499 0.7172941
0.980865 -0.60515398 0.71787041
0.962744 -0.62670702 0.72050208
0.94718498 -0.64766502 0.72241896
1.06146 -0.62808901 0.71172559
1.08339 -0.623537 0.70882791
1.08394 -0.630481 0.70986116
1.00599 -0.55978602 0.71167266
1.01757 -0.56169701 0.71107161
0.97663802 -0.598122 0.71258307
0.97151601 -0.60944903 0.71349609
