# .PCD v0.7 - Point Cloud Data file format
VERSION 0.7
FIELDS x y z
SIZE 4 4 4
TYPE F F F
COUNT 1 1 1
WIDTH 1509
HEIGHT 1
VIEWPOINT 0 0 0 1 0 0 0
POINTS 1509
DATA ascii
0.62476599 -0.84579396 2.076267
0.62864798 -0.83691704 2.0798769
0.61828101 -0.84363294 2.070287
0.627846 -0.90899396 2.1870871
0.62911302 -0.90375298 2.188617
0.66632897 -0.95151496 2.1894271
0.66130501 -0.94721603 2.1881571
0.661156 -0.94140404 2.1896269
0.655204 -0.93598294 2.187047
0.62736696 -0.90949798 2.181407
0.63285899 -0.90120399 2.1872871
0.63357103 -0.89534402 2.1888969
0.68018502 -0.96807599 2.1855569
0.672782 -0.964064 2.1834571
0.66248101 -0.95989603 2.1805968
0.66132796 -0.95399803 2.1811669
0.66147906 -0.94697404 2.183857
0.65434897 -0.94232005 2.1811171
0.65211099 -0.93621802 2.180757
0.65204102 -0.92931801 2.1829069
0.62262797 -0.91718698 2.171927
0.62290102 -0.91242999 2.173147
0.62796503 -0.90370798 2.1797669
0.67778701 -0.98814303 2.175137
0.67026299 -0.98533094 2.172127
0.66364503 -0.98017603 2.1704171
0.66153198 -0.973427 2.171397
0.66522497 -0.96523803 2.1762969
0.662633 -0.95947504 2.1758568
0.66425598 -0.95134401 2.1788871
0.66272199 -0.94447303 2.180167
0.65246695 -0.94183701 2.1758769
0.65420997 -0.93531197 2.1776469
0.64969999 -0.93019098 2.1767771
0.65050799 -0.92293799 2.1796069
0.62808001 -0.91619796 2.170397
0.61334497 -0.91729796 2.162257
0.61945701 -0.90842599 2.169507
0.68186402 -1.00196 2.168937
0.675035 -0.99759805 2.1668971
0.66513604 -0.99289495 2.1639471
0.66255403 -0.98695296 2.164417
0.66072303 -0.98044294 2.164747
0.66023201 -0.973701 2.1662469
0.66264802 -0.96640503 2.1702871
0.66085899 -0.96117896 2.1697769
0.66173398 -0.953915 2.1723571
0.660999 -0.94637102 2.173897
0.65989995 -0.93886596 2.175607
0.65233904 -0.93442595 2.1727471
0.65306395 -0.92807996 2.174777
0.64614403 -0.92442495 2.172087
0.64329499 -0.917889 2.173207
0.616934 -0.92146003 2.1591671
0.60237598 -0.922194 2.1510971
0.59188098 -0.92149299 2.1467071
0.68497801 -1.02586 2.1608269
0.68587196 -1.02038 2.1626868
0.67754096 -1.01703 2.159487
0.66570997 -1.01291 2.154747
0.66550905 -1.0061901 2.156517
0.66509801 -0.99933898 2.157887
0.666632 -0.99143702 2.161087
0.66114897 -0.986678 2.1597369
0.66410303 -0.98023003 2.1621969
0.66068399 -0.97473699 2.162077
0.664303 -0.96630698 2.1664572
0.66759002 -0.95795798 2.170377
0.66970801 -0.94941497 2.1739869
0.67675799 -0.94001901 2.179667
0.667759 -0.93622702 2.175607
0.656802 -0.93300599 2.1707671
0.65138602 -0.92837095 2.1697168
0.64573199 -0.92382598 2.1669369
0.64296699 -0.91865402 2.167927
0.62977797 -0.91683799 2.161787
0.58427298 -0.92807096 2.1365769
0.57511598 -0.927917 2.1323171
0.68969804 -1.04465 2.155297
0.68884498 -1.0404299 2.1555271
0.68462896 -1.0355999 2.1542869
0.66312897 -1.03345 2.1444569
0.66814905 -1.0250599 2.1493571
0.66755301 -1.0183799 2.151067
0.66649598 -1.01203 2.1514671
0.66555297 -1.0054699 2.1528869
0.66411698 -1.0007 2.152627
0.66682798 -0.99311697 2.1564071
0.6652 -0.986058 2.158087
0.665232 -0.97858202 2.160017
0.67655402 -0.96767598 2.168587
0.68072599 -0.95976305 2.172827
0.666399 -0.928141 2.1717069
0.65158999 -0.92760694 2.1650071
0.64886004 -0.92207003 2.1648171
0.64209998 -0.91834098 2.162437
0.62711698 -0.91708702 2.1551571
0.59709501 -0.92311895 2.1395669
0.57430303 -0.92735296 2.1275671
0.686634 -1.04501 2.1505871
0.66810995 -1.0447 2.1409171
0.66396105 -1.03923 2.1395869
0.66764605 -1.0311799 2.1434171
0.66604203 -1.02521 2.1437669
0.66699302 -1.01879 2.146497
0.66544801 -1.01336 2.1460068
0.66824603 -1.00571 2.1497569
0.66822505 -0.99973601 2.151407
0.68992597 -0.98396897 2.167357
0.68219203 -0.92098701 2.1769471
0.66432798 -0.92234999 2.167917
0.65263903 -0.92026901 2.1630869
0.65093005 -0.91458297 2.1627271
0.64209604 -0.91219801 2.1592569
0.60409302 -0.91961306 2.138947
0.58210701 -0.92321897 2.1279769
0.590096 -0.91410899 2.1339071
0.68040496 -1.04589 2.143137
0.66715205 -1.0441201 2.1360068
0.66677397 -1.03878 2.136997
0.66339499 -1.03399 2.1364169
0.66350996 -1.0271801 2.1379871
0.66929603 -1.01853 2.1431069
0.66569901 -1.0126799 2.1429269
0.68047094 -1.00174 2.153347
0.68952596 -0.91315901 2.179157
0.65798301 -0.91639704 2.161557
0.65034795 -0.913028 2.1583569
0.63379699 -0.91282201 2.1504769
0.60874903 -0.916807 2.137377
0.59145099 -0.91854894 2.129317
0.584095 -0.91602701 2.126657
0.59277803 -0.90741897 2.132957
0.66777301 -1.03874 2.1337571
0.67453003 -1.03013 2.1390171
0.67663598 -1.02209 2.1423171
0.68348503 -1.01375 2.1477871
0.67140001 -0.90918297 2.1648269
0.656147 -0.91086501 2.1574471
0.64509904 -0.908737 2.1520669
0.623016 -0.911008 2.141417
0.60305601 -0.913109 2.131897
0.58747101 -0.91440302 2.124877
0.59097403 -0.90782702 2.127857
0.67713702 -1.0416501 2.134397
0.67865199 -1.0354 2.1365869
0.65569705 -0.90936303 2.1527369
0.64816499 -0.90652603 2.1492071
0.628461 -0.90861803 2.1399069
0.61330396 -0.90817595 2.133487
0.59572297 -0.90996802 2.125617
0.61403501 -0.89620697 2.136667
0.66986501 -0.901905 2.1565869
0.65579498 -0.90329903 2.149817
0.63423598 -0.905967 2.1385469
0.62124997 -0.904432 2.1333871
0.61233503 -0.90158701 2.1305871
0.60534698 -0.899782 2.1276469
0.65046996 -0.903705 2.1429069
0.63690698 -0.90340501 2.135807
0.62601101 -0.90230697 2.1314571
0.61974299 -0.89834601 2.1298971
0.61224198 -0.89637494 2.1275971
0.63947099 -0.90169001 2.1332171
0.63059402 -0.90038902 2.129837
0.62418002 -0.89684504 2.127697
0.61483198 -0.89458501 2.123807
0.643996 -0.89849401 2.131217
0.636491 -0.89634699 2.1286869
0.619596 -0.89706397 2.121407
0.62131697 -0.88988096 2.122967
0.63583601 -0.87818998 2.132787
0.68824202 -0.88716596 2.145797
0.64625502 -0.89694899 2.1277969
0.63502699 -0.89591199 2.1231871
0.62797201 -0.89289302 2.1217771
0.62524801 -0.88708901 2.120847
0.62538302 -0.88128096 2.1228471
0.70642501 -0.88588202 2.150197
0.68776804 -0.88799202 2.1419871
0.66190803 -0.89200699 2.1304669
0.64591104 -0.89168298 2.1245871
0.63161898 -0.89073199 2.1190069
0.62407297 -0.88692498 2.116127
0.626481 -0.879601 2.119417
0.637312 -0.86827105 2.126497
0.69185799 -0.89240503 2.1383169
0.68510103 -0.88841498 2.1370869
0.66716903 -0.88907206 2.1292169
0.65561897 -0.88743103 2.125227
0.63925302 -0.88816595 2.1186368
0.62532598 -0.88726199 2.112437
0.62035 -0.88287497 2.1120369
0.61899298 -0.87696296 2.1125669
0.61568296 -0.87166196 2.1116669
0.72706002 -0.89106202 2.1477969
0.70349699 -0.89463204 2.137547
0.69533896 -0.89194703 2.1356771
0.690189 -0.88786697 2.134927
0.68536103 -0.88277 2.1346068
0.66731501 -0.88182294 2.127327
0.64074999 -0.88608301 2.1151769
0.62563598 -0.88633901 2.108587
0.62086898 -0.88198197 2.108047
0.61072499 -0.87892097 2.103827
0.60360998 -0.87574995 2.1016669
0.608226 -0.86907798 2.105757
0.71545196 -0.89578199 2.1384869
0.70667297 -0.89379001 2.135247
0.70007795 -0.889947 2.134187
0.69655001 -0.88509005 2.1344671
0.64707804 -0.88197303 2.114027
0.63011599 -0.88320601 2.1071069
0.61606699 -0.88264 2.101527
0.612023 -0.87847102 2.1001868
0.60638696 -0.87455904 2.098947
0.602799 -0.87115502 2.0993171
0.72450399 -0.89249998 2.139967
0.71686095 -0.89041799 2.137187
0.70987505 -0.88717103 2.135287
0.70275003 -0.88368499 2.133657
0.65648299 -0.87607598 2.114717
0.63828301 -0.87925696 2.1065371
0.61932099 -0.88093299 2.0987771
0.614676 -0.87594199 2.0980871
0.60215998 -0.87571996 2.092267
0.60204601 -0.87102598 2.0945671
0.65106905 -0.83235496 2.1218069
0.66169 -0.82217103 2.1289871
0.64649695 -0.87471098 2.1067669
0.63321 -0.87462097 2.100847
0.61147398 -0.87721604 2.0920172
0.60887301 -0.87138999 2.091887
0.60438502 -0.86813903 2.091337
0.64281797 -0.83740503 2.1138771
0.64052302 -0.83338404 2.1144769
0.65004802 -0.82367897 2.120867
0.64656097 -0.87268901 2.102237
0.62886101 -0.87554801 2.094197
0.62118399 -0.87299103 2.092247
0.614856 -0.868617 2.091037
0.61133403 -0.86389196 2.0912271
0.627056 -0.84816003 2.100997
0.63469297 -0.83709002 2.107487
0.64360601 -0.82716298 2.1134369
0.65845704 -0.86611098 2.103997
0.63435799 -0.87269402 2.093147
0.62184697 -0.873052 2.088557
0.61968398 -0.86668503 2.0887971
0.61634898 -0.86024904 2.089757
0.628335 -0.84694397 2.0976369
0.63078099 -0.83946002 2.1008968
0.64307898 -0.82736802 2.1086669
0.63651103 -0.87047696 2.090157
0.625799 -0.87018204 2.086637
0.61765498 -0.866772 2.0832469
0.619789 -0.85918999 2.0870271
0.62519199 -0.84896398 2.0919271
0.637981 -0.83580297 2.100297
0.64496398 -0.86507004 2.089987
0.62581903 -0.868891 2.0821171
0.61964697 -0.864824 2.080297
0.61910099 -0.85865802 2.0826571
0.62928599 -0.84697604 2.0891569
0.630494 -0.86631602 2.0795269
0.628268 -0.86149597 2.0807171
0.62295401 -0.85668504 2.079587
0.63153499 -0.84613997 2.0852571
0.64716202 -0.86285895 2.0814369
0.63765997 -0.86209399 2.0786569
0.62589502 -0.86199099 2.0754769
0.62232703 -0.85688204 2.074517
0.62652999 -0.84821802 2.078037
0.65502703 -0.85924101 2.081007
0.647071 -0.85797095 2.078907
0.62433898 -0.86211503 2.070137
0.633398 -0.84293097 2.077457
0.64859003 -0.830338 2.086477
0.66460198 -0.85411 2.081857
0.65248597 -0.85560203 2.077487
0.62704104 -0.84655797 2.0700071
0.63697499 -0.83592105 2.0770271
0.64958102 -0.85503602 2.0721869
0.633753 -0.83693498 2.071187
0.65766406 -0.849626 2.0709469
0.67150599 -0.84206396 2.0733969
0.63596898 -0.90509498 2.186857
0.65900999 -0.94575101 2.1875169
0.65189499 -0.93503404 2.1856771
0.65010697 -0.93023199 2.1856971
0.61763597 -0.93096805 2.165957
0.602135 -0.92862397 2.1569369
0.638008 -0.90910894 2.183337
0.63562 -0.90591002 2.1826069
0.636271 -0.900949 2.1839571
0.63377899 -0.89588302 2.1849871
0.67590404 -0.96195298 2.1890268
0.67112601 -0.95593697 2.1886971
0.66259199 -0.95121598 2.184407
0.65735704 -0.94595701 2.1817369
0.65579498 -0.93963701 2.183017
0.64863896 -0.93529099 2.1796169
0.64696801 -0.93052804 2.1795669
0.59578902 -0.93314904 2.1495571
0.58111501 -0.93285596 2.1414471
0.59387404 -0.92572701 2.1496069
0.63166499 -0.90696096 2.1759069
0.632411 -0.90167505 2.1767771
0.63965201 -0.89491898 2.1827869
0.68672699 -0.97748202 2.1874969
0.67553902 -0.97437894 2.182107
0.66975898 -0.96877199 2.1806269
0.66570503 -0.96329498 2.179477
0.65980798 -0.95772398 2.1772671
0.65786695 -0.95159698 2.176827
0.65647906 -0.94618499 2.177187
0.65612102 -0.94063002 2.178097
0.65152001 -0.93436998 2.176657
0.64521599 -0.92963797 2.1736169
0.60300201 -0.93108398 2.1499069
0.59451199 -0.92884004 2.1464169
0.60356301 -0.92045802 2.1523271
0.63310599 -0.90582603 2.172107
0.63794798 -0.89916903 2.1762869
0.64830202 -0.89218104 2.1836469
0.68976998 -0.99648303 2.1818571
0.68776101 -0.99209505 2.1813271
0.674851 -0.98771399 2.1747971
0.66451895 -0.98144203 2.1706769
0.66417998 -0.975339 2.172487
0.66438699 -0.96925902 2.1734669
0.66244006 -0.96313006 2.1729569
0.658647 -0.95740098 2.172297
0.65735602 -0.95248002 2.171767
0.65815806 -0.94595301 2.173897
0.661237 -0.93800795 2.176677
0.65308601 -0.93298203 2.1727271
0.64774203 -0.92848998 2.170887
0.61791402 -0.92900598 2.154367
0.60273701 -0.92648101 2.1470971
0.61076599 -0.91862297 2.1518068
0.62563097 -0.90869105 2.1627471
0.63057703 -0.90190297 2.1676669
0.65231794 -0.89142603 2.1820371
0.69259596 -1.00199 2.1785369
0.67884904 -0.99855697 2.1718769
0.66507006 -0.99473101 2.1648171
0.66391701 -0.98814601 2.1648669
0.66614199 -0.98126799 2.167237
0.66433996 -0.97520202 2.1681371
0.66509104 -0.96872598 2.1696069
0.66689301 -0.96305496 2.1709869
0.66104203 -0.95759004 2.169167
0.66623497 -0.95007896 2.173317
0.675659 -0.94163001 2.180367
0.67697698 -0.93466496 2.1823668
0.66484803 -0.93055999 2.1760371
0.65261805 -0.92702299 2.169467
0.64046305 -0.92369103 2.1633768
0.61485404 -0.923208 2.1497169
0.61242098 -0.91800398 2.148957
0.62004399 -0.91053396 2.1545269
0.63140398 -0.90231204 2.163857
0.68159503 -1.01095 2.1658869
0.67053497 -1.00572 2.161787
0.66929001 -0.999955 2.1623571
0.66425699 -0.99447995 2.1600771
0.66159701 -0.98928702 2.158917
0.66131103 -0.98347002 2.159977
0.66522104 -0.97654504 2.1637371
0.66482598 -0.96966499 2.165417
0.67107499 -0.96110898 2.170537
0.68332297 -0.95207494 2.1790571
0.67964399 -0.94689298 2.178067
0.66776103 -0.92261595 2.1745069
0.64780295 -0.92155504 2.1632371
0.62845904 -0.92001295 2.1530271
0.61985296 -0.91561401 2.149447
0.61803299 -0.91028506 2.1489069
0.62463599 -0.90422094 2.154567
0.68427002 -1.02854 2.160687
0.68218803 -1.02396 2.1602471
0.66730303 -1.0188401 2.1530671
0.66650599 -1.01218 2.154017
0.66717005 -1.0058 2.156177
0.66415703 -1.00051 2.1548669
0.66474801 -0.99428201 2.1558769
0.66680801 -0.98787302 2.158227
0.66859597 -0.98144799 2.160867
0.68232805 -0.97297204 2.170507
0.65555704 -0.91857803 2.1632569
0.64215302 -0.91647798 2.1564569
0.61880201 -0.91610003 2.144197
0.62208098 -0.90957099 2.1474869
0.61956799 -0.90483302 2.146317
0.68851799 -1.04072 2.1570868
0.68480104 -1.03611 2.1557369
0.66916394 -1.03081 2.148737
0.66755795 -1.02487 2.1488171
0.66653299 -1.0184101 2.148787
0.66442198 -1.01279 2.148757
0.66523904 -1.0068099 2.150337
0.67067003 -0.99966794 2.154027
0.67165399 -0.99319297 2.1560769
0.68141699 -0.98527002 2.1634269
0.67043406 -0.91356397 2.1669071
0.65242201 -0.91345495 2.1578369
0.63444901 -0.91199601 2.1488171
0.61944503 -0.90940905 2.1416471
0.61816901 -0.90402001 2.141427
0.63932496 -0.89309996 2.154007
0.69676101 -1.05144 2.155787
0.69473505 -1.04693 2.155637
0.67148203 -1.0427201 2.144187
0.67034602 -1.03643 2.144397
0.66819298 -1.0303 2.144717
0.66591799 -1.0249 2.143697
0.66328794 -1.01941 2.1426868
0.66866404 -1.0124199 2.1471369
0.66916299 -1.0059201 2.148267
0.682199 -0.99854201 2.156637
0.67674601 -0.911183 2.1665668
0.67160696 -0.90809095 2.1644568
0.64408499 -0.90933901 2.1498771
0.62340099 -0.90877295 2.1395869
0.62264901 -0.90224504 2.1398668
0.64175498 -0.89090401 2.1516671
0.66281098 -0.88080496 2.165077
0.68597502 -1.05214 2.1467571
0.68587899 -1.04748 2.147207
0.67009002 -1.0421 2.139607
0.66507304 -1.03706 2.1374271
0.66646004 -1.03136 2.1392169
0.66482103 -1.0250499 2.139257
0.66905195 -1.01746 2.1431069
0.67653298 -1.01015 2.1483569
0.67766702 -1.00456 2.149857
0.67260903 -0.90686399 2.161267
0.657049 -0.90543997 2.152967
0.62846297 -0.90642703 2.1381769
0.62663001 -0.90089601 2.138027
0.63233697 -0.89359099 2.1419969
0.64677501 -0.88464302 2.1519768
0.68846494 -1.04724 2.1442771
0.67170304 -1.04326 2.1363969
0.668257 -1.03736 2.135437
0.67428899 -1.03099 2.1395769
0.668405 -0.90149599 2.155447
0.64475095 -0.90189004 2.142817
0.63240004 -0.89908999 2.137387
0.62895 -0.893664 2.1353769
0.63613397 -0.88626295 2.1411772
0.66768599 -0.86816496 2.1594169
0.65913999 -0.86652899 2.1555169
0.69085294 -1.0467401 2.142447
0.67647797 -1.0424299 2.1356571
0.67565101 -1.03642 2.1362469
0.64924204 -0.89952904 2.140907
0.63290799 -0.898193 2.132967
0.62743998 -0.89317805 2.1304369
0.628694 -0.88714498 2.132647
0.64253306 -0.87689501 2.141907
0.65748703 -0.86742997 2.151547
0.66480798 -0.89393401 2.145117
0.64623904 -0.89432698 2.135777
0.62602699 -0.89396894 2.1256669
0.62255102 -0.88863701 2.1249671
0.63011199 -0.88049203 2.1305969
0.64234704 -0.87216002 2.1390669
0.654365 -0.891325 2.1356571
0.626643 -0.89368796 2.1216669
0.62278199 -0.88849902 2.1208069
0.62522101 -0.88148004 2.123457
0.62973702 -0.87498999 2.127157
0.65933698 -0.88952398 2.132987
0.63257098 -0.891819 2.120487
0.622365 -0.888726 2.116267
0.61806101 -0.88367301 2.1151371
0.62784803 -0.87476802 2.1216969
0.63054001 -0.86934996 2.1240869
0.68477499 -0.887685 2.1411271
0.66992599 -0.88654 2.134517
0.64209396 -0.88885397 2.1212668
0.62252104 -0.88899398 2.1123769
0.61887598 -0.88399202 2.1112571
0.61303502 -0.87936401 2.1092269
0.61437303 -0.87318999 2.1107969
0.71905798 -0.886235 2.152627
0.69486898 -0.88690203 2.141427
0.67809504 -0.88494402 2.134577
0.65538597 -0.88489604 2.1240571
0.62667102 -0.88646597 2.1104171
0.61324102 -0.88342696 2.1043069
0.61067599 -0.87794197 2.1041169
0.61630499 -0.87098902 2.107877
0.61941302 -0.86620903 2.110507
0.72921598 -0.88943601 2.152477
0.70244598 -0.89091301 2.1400471
0.69565004 -0.88723505 2.138087
0.69133598 -0.88231003 2.1367869
0.672629 -0.880674 2.1288471
0.63958502 -0.88306099 2.112797
0.62131697 -0.88143301 2.1042669
0.61081702 -0.878268 2.1000271
0.61649603 -0.87104601 2.1044669
0.61623001 -0.86636198 2.104857
0.722498 -0.89080298 2.1451669
0.712102 -0.888282 2.1408072
0.70055002 -0.88565499 2.1367469
0.70274299 -0.87913299 2.1382971
0.67445296 -0.88132101 2.125447
0.66564202 -0.87781304 2.122947
0.621903 -0.88057297 2.100347
0.61496496 -0.87711197 2.0979071
0.61430901 -0.87088895 2.0990469
0.62992501 -0.85975504 2.1077769
0.66355002 -0.82426596 2.1296771
0.65417397 -0.82376999 2.1255071
0.72695899 -0.88959903 2.1436269
0.71849996 -0.88695097 2.1400671
0.709737 -0.88303 2.137037
0.70432198 -0.87854898 2.135617
0.62672102 -0.87746298 2.098577
0.61249298 -0.87789297 2.092607
0.61715102 -0.87030101 2.095777
0.62147897 -0.86202902 2.099467
0.64399201 -0.84782499 2.1123371
0.64825201 -0.83956903 2.1154771
0.63267601 -0.83852798 2.1084371
0.64365995 -0.82810897 2.116477
0.66579199 -0.815763 2.1294069
0.73201799 -0.88360602 2.143687
0.72348601 -0.88056505 2.1403871
0.71591002 -0.87667394 2.1378069
0.64011496 -0.87244797 2.1016369
0.61890101 -0.87451899 2.0919569
0.617944 -0.86939102 2.0922768
0.61833102 -0.86325502 2.0934269
0.62634897 -0.85383695 2.099277
0.62710601 -0.84643203 2.1012669
0.62826598 -0.83997703 2.103097
0.63734603 -0.83130097 2.1090469
0.64651603 -0.82287902 2.1151171
0.625278 -0.87173897 2.090867
0.61926603 -0.86814904 2.0891271
0.61482298 -0.86314696 2.087647
0.613837 -0.85828102 2.0887868
0.62064803 -0.84932899 2.0934269
0.62583601 -0.84073603 2.098357
0.640342 -0.82966697 2.1066871
0.65604401 -0.81917101 2.1158669
0.64010203 -0.86634398 2.093837
0.62432498 -0.86681294 2.0871971
0.61805099 -0.86251998 2.085247
0.61710501 -0.85596704 2.086457
0.61877 -0.84927398 2.0884869
0.62603599 -0.84074998 2.0939269
0.64072198 -0.82973897 2.102927
0.649441 -0.862571 2.094867
0.63076299 -0.86462897 2.0865769
0.626414 -0.86059898 2.085247
0.61767799 -0.85634303 2.081897
0.61883998 -0.84889394 2.084707
0.63285398 -0.83818901 2.0935268
0.62695903 -0.86405998 2.0809669
0.62209803 -0.86018205 2.079437
0.61696702 -0.85594398 2.0770469
0.61917704 -0.849356 2.0800469
0.62612897 -0.84169996 2.0854871
0.63556403 -0.86032999 2.080827
0.62051302 -0.86021799 2.074517
0.61319602 -0.857072 2.071537
0.61576802 -0.85053706 2.073827
0.62346601 -0.84307504 2.0796571
0.61876303 -0.85479403 2.070267
0.616638 -0.84907997 2.0702469
0.620224 -0.84359002 2.0737171
0.64302099 -0.85692298 2.0709372
0.637254 -0.83117104 2.0745471
0.656537 -0.85305196 2.074137
0.65943801 -0.847978 2.0735569
0.64121598 -0.93923402 2.185257
0.63839698 -0.93410498 2.1833069
0.64107496 -0.94386202 2.180907
0.62938899 -0.93899804 2.173857
0.61936098 -0.93363404 2.167387
0.63120902 -0.92791098 2.175097
0.64941102 -0.90113801 2.1895771
0.64190501 -0.89744598 2.1845171
0.63597304 -0.94417101 2.1732268
0.61309999 -0.93902296 2.159517
0.60840303 -0.93338895 2.156487
0.61525798 -0.92767 2.161607
0.64416701 -0.92008203 2.179487
0.65806699 -0.91297501 2.1882269
0.63997501 -0.90211898 2.1788568
0.64298499 -0.89693099 2.1813171
0.64566594 -0.89279503 2.1828971
0.66283202 -0.955347 2.1840069
0.655711 -0.94939697 2.180197
0.63568699 -0.94372702 2.168287
0.60382903 -0.93845904 2.1497271
0.59784102 -0.93309897 2.146137
0.60985696 -0.92758101 2.154177
0.63393998 -0.92042196 2.1693871
0.65062696 -0.91297895 2.1803269
0.64827597 -0.90702903 2.179657
0.64697194 -0.90220594 2.1787171
0.64206398 -0.89705801 2.176527
0.65573698 -0.89105201 2.184607
0.67907405 -0.972211 2.1870971
0.66682798 -0.96707201 2.1805871
0.66347098 -0.96125799 2.1792371
0.65750903 -0.95468301 2.176137
0.64820397 -0.94883901 2.1714869
0.64837098 -0.94411904 2.171037
0.63499999 -0.93981695 2.1643269
0.59363604 -0.93279099 2.1398869
0.60675299 -0.92750394 2.148087
0.61863703 -0.92125899 2.1557469
0.63402998 -0.91430199 2.1657369
0.64719802 -0.90744597 2.1748269
0.64284301 -0.90180898 2.172117
0.64654803 -0.89575303 2.174377
0.66430497 -0.88967794 2.1855869
0.67997003 -0.98490304 2.181787
0.67891502 -0.98018801 2.181637
0.66106397 -0.97317904 2.1724069
0.66053003 -0.96686995 2.172507
0.66066802 -0.96025705 2.1730371
0.66205597 -0.95434499 2.1741271
0.656407 -0.94905603 2.1720469
0.66298205 -0.944175 2.1754971
0.65893799 -0.94001406 2.174017
0.60973901 -0.93105906 2.1454668
0.59601098 -0.92778099 2.137537
0.609595 -0.921727 2.145947
0.63116199 -0.91439003 2.1593771
0.63808995 -0.90750295 2.164577
0.64308703 -0.90094203 2.1680369
0.64301401 -0.89611197 2.167697
0.663809 -0.88962996 2.1807671
0.67325801 -0.99694997 2.172797
0.674909 -0.99223703 2.1741171
0.66495901 -0.98530698 2.1694469
0.66021204 -0.97916299 2.167377
0.66068 -0.97286797 2.1678071
0.65846097 -0.96736801 2.167047
0.65982401 -0.96192098 2.168287
0.66317594 -0.95532304 2.1706371
0.66429198 -0.94922096 2.172477
0.68408895 -0.943887 2.1844871
0.58670104 -0.92759299 2.1284471
0.60925096 -0.92155701 2.1412771
0.62033498 -0.91509497 2.1484571
0.62550497 -0.90869695 2.1522169
0.64142096 -0.900998 2.162477
0.64899999 -0.89451104 2.1671369
0.66577005 -0.88867795 2.1774969
0.68844497 -1.00331 2.1773369
0.66722703 -0.99719805 2.1657369
0.66281098 -0.99105906 2.163517
0.66414803 -0.98443496 2.165107
0.662009 -0.97856003 2.164367
0.66216105 -0.97388703 2.1641769
0.66123098 -0.96777803 2.164937
0.66800499 -0.96064794 2.1697471
0.68591797 -0.95465899 2.180567
0.68164903 -0.94943804 2.178987
0.60767198 -0.925062 2.1365969
0.59838796 -0.92120796 2.1306372
0.61065698 -0.91558295 2.1383669
0.61700898 -0.909316 2.142777
0.63935202 -0.901555 2.1564169
0.64305395 -0.89514703 2.1591969
0.66207701 -0.88840401 2.1707771
0.682248 -1.00911 2.168997
0.66984499 -1.00325 2.1627569
0.662974 -0.99705595 2.1590269
0.66045797 -0.99136299 2.1580369
0.66191202 -0.98608702 2.1592371
0.66506797 -0.97969103 2.1618268
0.67141896 -0.97425401 2.1660872
0.60397702 -0.92047095 2.1306069
0.60155898 -0.91596603 2.128747
0.61639804 -0.90925598 2.138047
0.62698901 -0.90249497 2.1447768
0.63658696 -0.89582002 2.1509869
0.65036905 -0.88908798 2.159467
0.66800004 -0.88295603 2.170007
0.693542 -1.02869 2.1699171
0.68474501 -1.02363 2.1649969
0.67667603 -1.01728 2.160727
0.661614 -1.00902 2.1534269
0.66366994 -1.00316 2.155077
0.66332901 -0.99773103 2.1546671
0.66513604 -0.99193197 2.1565669
0.67108899 -0.98578697 2.1607671
0.67798597 -0.97963697 2.1658471
0.60105497 -0.91941297 2.1246769
0.60361898 -0.91479897 2.1256669
0.60812402 -0.90964597 2.128957
0.62057799 -0.90286601 2.1367571
0.63187701 -0.896101 2.143997
0.64221197 -0.88984102 2.1508071
0.64804602 -0.88380402 2.153847
0.67610002 -1.02767 2.1566072
0.66932797 -1.02185 2.153017
0.663131 -1.0149701 2.149617
0.663939 -1.00843 2.1507871
0.66329694 -1.00263 2.150897
0.66914594 -0.99761701 2.1542971
0.67479402 -0.99224901 2.1582069
0.63822401 -0.91617501 2.1406569
0.63113302 -0.91273803 2.137507
0.60802698 -0.90946001 2.1247971
0.61611199 -0.90309995 2.1299369
0.62774396 -0.89614099 2.1372869
0.64197195 -0.88908499 2.146457
0.63738501 -0.88331497 2.1430969
0.66433197 -0.87480599 2.1588969
0.66999298 -0.86906403 2.1622469
0.66931605 -1.0329599 2.1481271
0.66729403 -1.0273 2.147337
0.66609001 -1.0207 2.1471169
0.66222602 -1.0152301 2.145077
0.66343904 -1.01026 2.1460268
0.66456705 -1.00368 2.147737
0.68207705 -0.99814302 2.1583169
0.64778101 -0.91142702 2.1435571
0.62623101 -0.908032 2.131587
0.61704701 -0.902964 2.126297
0.62345999 -0.89644301 2.1303871
0.63334703 -0.889162 2.1369169
0.641985 -0.88218498 2.1416171
0.64547998 -0.87628001 2.144387
0.65307599 -0.870538 2.1492372
0.66814798 -1.03824 2.143167
0.667 -1.03354 2.1428771
0.66365194 -1.0281501 2.1407769
0.66672796 -1.02246 2.142987
0.66643697 -1.01606 2.1435671
0.66808099 -1.0105799 2.145067
0.61188102 -0.902771 2.1198471
0.61889195 -0.89674205 2.1233568
0.62987101 -0.88979799 2.1304069
0.63045198 -0.88418698 2.1316171
0.63850999 -0.87714404 2.1360569
0.647475 -0.87050796 2.142077
0.666677 -0.86387098 2.1534569
0.67641503 -1.04327 2.144007
0.66884303 -1.03857 2.140147
0.66609901 -1.03354 2.1382871
0.6728 -1.0283799 2.1418469
0.673877 -1.02233 2.143297
0.68770301 -1.01697 2.1518371
0.62624598 -0.899405 2.123497
0.62217897 -0.89530504 2.1209371
0.62488604 -0.89018202 2.1231871
0.63136202 -0.88330197 2.1277571
0.63716298 -0.87645799 2.1309571
0.64453501 -0.87031096 2.135957
0.65800202 -0.86426699 2.144557
0.66891199 -1.03817 2.136467
0.667171 -1.03327 2.1349871
0.67832494 -1.02906 2.1412668
0.62099802 -0.89470595 2.1165769
0.621068 -0.89072603 2.1172171
0.62741202 -0.88425905 2.120867
0.63345098 -0.877716 2.1251969
0.634036 -0.871472 2.125567
0.64894402 -0.86448896 2.134737
0.67576104 -1.03818 2.136647
0.68308902 -1.03439 2.1404068
0.645423 -0.891231 2.1255271
0.62934601 -0.88857806 2.1175971
0.62656599 -0.88363701 2.1163871
0.62632 -0.87779999 2.1167572
0.62985903 -0.87088203 2.1190171
0.64781499 -0.86371398 2.1297669
0.66440099 -0.85735101 2.139477
0.70195997 -0.885773 2.1486368
0.64803803 -0.88613296 2.1230869
0.62512702 -0.88311696 2.1116669
0.616265 -0.87818396 2.106957
0.623393 -0.871876 2.1116171
0.63582999 -0.86473501 2.119097
0.65337503 -0.858181 2.1295371
0.69847101 -0.88636398 2.1435571
0.67653197 -0.88408697 2.1331069
0.648579 -0.88119799 2.119597
0.61821401 -0.87850302 2.104177
0.61936301 -0.87266898 2.1052969
0.62498403 -0.86610496 2.1089869
0.63791299 -0.85913903 2.116477
0.660896 -0.82826501 2.130347
0.65326697 -0.82550502 2.1270869
0.704211 -0.88576698 2.1429169
0.69487602 -0.88266701 2.1386271
0.67947197 -0.87955594 2.1310968
0.61963296 -0.878452 2.101207
0.61690104 -0.873694 2.0998571
0.62321997 -0.86683798 2.1037371
0.62617499 -0.86001199 2.105737
0.63936001 -0.85273397 2.1131868
0.65401298 -0.83535898 2.122077
0.63486403 -0.83348393 2.1128271
0.644189 -0.82714301 2.1190369
0.70431101 -0.88523203 2.138747
0.69320297 -0.88202202 2.133847
0.66561502 -0.87948501 2.119477
0.625359 -0.87715304 2.099607
0.62123799 -0.87159801 2.097827
0.62470698 -0.86474001 2.100507
0.62382102 -0.85915494 2.1004369
0.63193899 -0.85281998 2.1056271
0.64767504 -0.84492105 2.114547
0.639296 -0.83890295 2.110877
0.63322496 -0.83411103 2.108067
0.63753599 -0.82826304 2.111717
0.64880896 -0.82202005 2.118577
0.71759599 -0.88421798 2.141077
0.69927001 -0.881791 2.1329169
0.62931597 -0.88047099 2.097177
0.62646699 -0.87599999 2.096437
0.61906397 -0.87183797 2.0922871
0.62025797 -0.86626506 2.0943069
0.62370801 -0.85990304 2.096417
0.62502801 -0.85404503 2.0982871
0.62572896 -0.84747297 2.0992069
0.62873197 -0.83996803 2.1016271
0.63114297 -0.83443201 2.103457
0.63056099 -0.82996202 2.103997
0.648579 -0.822133 2.114567
0.73612702 -0.88276803 2.1470771
0.72727895 -0.87964499 2.1433969
0.63619202 -0.87886399 2.097177
0.62347698 -0.87637198 2.091197
0.63265401 -0.86977696 2.0952768
0.62438703 -0.86496198 2.0923569
0.62807101 -0.85887498 2.0949371
0.62499601 -0.85375506 2.0940869
0.62153196 -0.84794402 2.0922768
0.624991 -0.84183294 2.095737
0.63139498 -0.83491796 2.099957
0.64374495 -0.82768899 2.107317
0.63422799 -0.87436402 2.093317
0.65008199 -0.86664498 2.1005671
0.63211203 -0.86367399 2.0920269
0.624327 -0.85903901 2.0894768
0.62370497 -0.8527 2.0889471
0.61917096 -0.847893 2.087467
0.62234002 -0.84214997 2.0903471
0.64671206 -0.83243895 2.1039071
0.638143 -0.86211401 2.0908768
0.627554 -0.85795999 2.0865171
0.61716902 -0.85336405 2.081557
0.62192202 -0.84711701 2.085207
0.62846398 -0.84077299 2.0895569
0.65181506 -0.85937101 2.093437
0.63032603 -0.85785401 2.0832269
0.61965901 -0.85368299 2.0789671
0.614398 -0.84904599 2.077287
0.62139201 -0.84258699 2.0809069
0.64059997 -0.86022204 2.0837069
0.63248003 -0.85682702 2.0801771
0.62576097 -0.85308295 2.078187
0.62101901 -0.847417 2.076247
0.62387198 -0.84104204 2.078007
0.643318 -0.83397299 2.088347
0.64919698 -0.85880095 2.083997
0.64821297 -0.85460001 2.083807
0.62397099 -0.85271502 2.0735369
0.61958098 -0.84740096 2.0710268
0.617163 -0.842269 2.071017
0.635037 -0.83495104 2.080677
0.65317702 -0.85762101 2.082067
0.65366203 -0.85293996 2.0823171
0.625678 -0.85213304 2.0702071
0.62512404 -0.83642697 2.0714869
0.65759599 -0.85170996 2.080317
0.63959301 -0.83241498 2.0738969
0.66063499 -0.85035002 2.0775771
0.64314103 -0.82704401 2.072577
0.68967199 -0.91657996 2.189827
0.70103401 -0.92903799 2.187047
0.696455 -0.94146401 2.187747
0.69718301 -0.955603 2.186377
0.69467199 -0.96878999 2.1869369
0.68159103 -0.90370595 2.185607
0.69108599 -0.91531801 2.1808569
0.69448197 -0.92877299 2.1816769
0.69517702 -0.94239503 2.1797972
0.69805604 -0.95592099 2.1786871
0.69869101 -0.96686798 2.179327
0.69297999 -0.97961402 2.179827
0.68684095 -0.992221 2.180887
0.693084 -0.88142097 2.171067
0.68592399 -0.89244199 2.1751668
0.69318998 -0.90348196 2.1739168
0.69507498 -0.91398299 2.1722071
0.68834996 -0.92724001 2.1753271
0.681517 -0.94008696 2.1771069
0.68305498 -0.95601404 2.1770971
0.69511801 -0.96779406 2.1736169
0.68687898 -0.98085701 2.1741669
0.69194901 -0.99280298 2.1718469
0.68958098 -1.00532 2.171947
0.69907403 -0.87959296 2.163137
0.70419604 -0.88876897 2.1626971
0.69196403 -0.90153295 2.1663671
0.68704396 -0.91528398 2.1685669
0.67817998 -0.92636901 2.1715269
0.68531501 -0.97143799 2.1693571
0.68739599 -0.98402601 2.1668971
0.68989503 -0.99464798 2.165637
0.69522905 -1.00605 2.163167
0.70270401 -1.01896 2.160147
0.68559802 -1.03414 2.163727
0.68171602 -0.87971705 2.161787
0.69507003 -0.88864404 2.1581571
0.69632101 -0.90014398 2.1567869
0.68787801 -0.912139 2.1602969
0.67281306 -0.98549598 2.1653571
0.69234198 -0.99544299 2.158237
0.69585097 -1.00805 2.1554971
0.69838899 -1.0197899 2.1549571
0.69785005 -1.03277 2.1546969
0.68134904 -1.04562 2.1587269
0.692837 -0.879655 2.1509669
0.697137 -0.89022797 2.1495771
0.69621301 -0.90143502 2.1501269
0.68077904 -0.91043198 2.153177
0.67071897 -0.996629 2.1592569
0.68720597 -1.00822 2.1523771
0.69041705 -1.02086 2.1500771
0.696904 -1.0326999 2.148077
0.68889505 -1.04529 2.1502569
0.67994499 -1.05541 2.1525869
0.69193196 -0.87874395 2.1437571
0.68932098 -0.88783503 2.144187
0.68826795 -0.89995402 2.144537
0.667005 -0.910281 2.149277
0.68435597 -1.02249 2.1457269
0.69186097 -1.03333 2.142787
0.69165397 -1.04448 2.142957
0.68866998 -0.87862998 2.137507
0.68272001 -0.88895601 2.1379669
0.67726701 -0.90088701 2.1402769
0.65349197 -0.91003096 2.1463969
0.670627 -1.03615 2.1437171
0.678011 -1.0463901 2.1412668
0.68222201 -0.877487 2.1307769
0.68152899 -0.88662302 2.1301169
0.67614502 -0.89837193 2.132477
0.67531198 -0.86625397 2.1252968
0.68007398 -0.87530404 2.123667
0.67323095 -0.88720399 2.1251869
0.64839995 -0.89996499 2.1304269
0.58746898 -0.92263198 2.1449471
0.57762098 -0.93379098 2.147337
0.66405195 -0.85299498 2.1195171
0.67170095 -0.86328399 2.118397
0.67576402 -0.87488198 2.117337
0.66040802 -0.88798404 2.1209869
0.64229101 -0.90043503 2.1247671
0.62123102 -0.915829 2.1301169
0.596138 -0.93141699 2.1370668
0.58744901 -0.94201106 2.138617
0.66774696 -0.85326105 2.1125669
0.67422998 -0.86347097 2.1100368
0.66319501 -0.87614602 2.1138968
0.65410399 -0.88822699 2.115397
0.63704199 -0.901869 2.119087
0.61612099 -0.91587901 2.123697
0.60439402 -0.92886806 2.128377
0.58926201 -0.94140297 2.131767
0.56572497 -0.952546 2.137537
0.67351896 -0.852795 2.102937
0.67383599 -0.86262494 2.1021969
0.65946501 -0.87497902 2.107537
0.65018201 -0.88800102 2.108757
0.628757 -0.90178901 2.113807
0.62001497 -0.91398203 2.1160069
0.59613401 -0.93060499 2.1230369
0.58575404 -0.94197899 2.125457
0.67412102 -0.85164595 2.095207
0.67183095 -0.86072302 2.095567
0.65970099 -0.87378401 2.0992169
0.637595 -0.88786799 2.104337
0.61346602 -0.90026301 2.1109669
0.57056403 -0.92573303 2.1239469
0.56997699 -0.93452203 2.123827
0.57213902 -0.94311303 2.1230171
0.67534399 -0.85098803 2.0870771
0.66106302 -0.86295199 2.0911269
0.643327 -0.876118 2.096087
0.63169199 -0.88683999 2.097997
0.67917395 -0.84825104 2.0777969
0.675547 -0.85699302 2.079097
0.632263 -0.87689203 2.0912571
0.62492198 -0.887025 2.0900869
0.664042 -0.839495 2.0747569
0.67373198 -0.847422 2.0723269
0.67559302 -0.85539901 2.0708969
0.61928004 -0.87932801 2.0849869
0.61515498 -0.88818902 2.0850871
0.61048698 -0.89621598 2.086247
0.59981 -0.87916899 2.0813971
0.61735201 -0.88744795 2.078197
0.60420501 -0.89602202 2.0807672
0.59911996 -0.87922895 2.075027
0.59843701 -0.88745201 2.075577
0.59701699 -0.89594597 2.075537
0.59364301 -0.87961096 2.071357
0.59043097 -0.88815904 2.0719368
0.69895303 -0.92711604 2.187547
0.69922501 -0.93945098 2.1860371
0.699646 -0.95222801 2.1864369
0.69267601 -0.96308297 2.1867971
0.68792099 -0.97520697 2.1866469
0.67779601 -0.90156305 2.186837
0.688501 -0.91210902 2.1826069
0.692433 -0.925659 2.182307
0.69152606 -0.93833804 2.1804171
0.692307 -0.95206398 2.181417
0.69073701 -0.965451 2.1797972
0.697065 -0.978486 2.1767771
0.68845099 -0.99073702 2.178627
0.682046 -1.00395 2.1790171
0.68696803 -0.90204203 2.1760871
0.69312501 -0.91189104 2.172467
0.68773699 -0.923976 2.175837
0.68791497 -0.93611801 2.1747971
0.68834901 -0.95280403 2.174927
0.68572199 -0.96649599 2.1739571
0.69432503 -0.97720098 2.1715469
0.69343495 -0.99018306 2.170557
0.69357598 -1.0034 2.170017
0.67949796 -1.01579 2.1729369
0.696298 -0.89013702 2.163187
0.69538301 -0.90099299 2.164417
0.695355 -0.91161299 2.1648171
0.68620199 -0.921893 2.1681969
0.68472296 -0.96727896 2.168077
0.69182402 -0.979105 2.164747
0.69689399 -0.99202901 2.161727
0.69147104 -1.00283 2.1641769
0.69585198 -1.0159301 2.161427
0.67794603 -1.02897 2.165787
0.67151397 -1.0399801 2.166327
0.68415999 -0.87665999 2.158967
0.69550902 -0.88859701 2.156987
0.69029099 -0.89951301 2.1584971
0.68853599 -0.91103101 2.1597168
0.67897201 -0.92022204 2.1622469
0.67728102 -0.98017198 2.162267
0.68988198 -0.99175501 2.1569769
0.69294196 -1.00484 2.1557469
0.695719 -1.01802 2.1539071
0.69884801 -1.0283999 2.1536071
0.68903804 -1.03985 2.1548769
0.67951697 -0.87537402 2.1543069
0.68472099 -0.88490099 2.1527472
0.690364 -0.89652097 2.1520469
0.68382001 -0.90805602 2.153157
0.67849803 -0.91842496 2.1543169
0.67677003 -0.99267501 2.154557
0.68089402 -1.0042601 2.1520171
0.68953496 -1.01745 2.148757
0.69049102 -1.02993 2.1488969
0.69293296 -1.04159 2.145787
0.679654 -1.05055 2.150017
0.68239403 -0.87567902 2.146657
0.69454199 -0.88534498 2.143157
0.68227696 -0.895841 2.146817
0.67160004 -0.90805197 2.1490068
0.66528296 -0.917068 2.1506269
0.67229104 -1.00437 2.149097
0.678527 -1.0171701 2.145757
0.690121 -1.03088 2.141537
0.69061899 -1.0423501 2.140197
0.68439901 -0.87542605 2.1378469
0.68221498 -0.88490504 2.139977
0.68027002 -0.89639699 2.1393871
0.65184897 -0.90616304 2.1476371
0.66332299 -1.03088 2.1439168
0.68850404 -1.04179 2.1360269
0.68237096 -0.87385696 2.130887
0.681027 -0.88377297 2.131887
0.674573 -0.89492303 2.1328571
0.65230101 -0.859281 2.1304669
0.67605001 -0.87164396 2.124727
0.67317098 -0.88382202 2.1262569
0.66502196 -0.894629 2.1258569
0.58900398 -0.92435205 2.1428869
0.64948404 -0.83061796 2.123127
0.65655196 -0.84192705 2.1212969
0.658436 -0.85690004 2.122617
0.66764098 -0.868029 2.119457
0.66851699 -0.88179398 2.1193171
0.65282601 -0.89441901 2.121367
0.63062102 -0.90707499 2.1272271
0.60942 -0.92200696 2.1321571
0.59790498 -0.93330103 2.134707
0.58924198 -0.94247496 2.1365769
0.64574403 -0.81912595 2.1183369
0.653099 -0.82963401 2.116437
0.67220801 -0.84186 2.1109171
0.67177999 -0.85525399 2.1116869
0.670277 -0.86923897 2.111547
0.65990305 -0.88202596 2.113657
0.64972997 -0.89330596 2.115087
0.63482201 -0.90512395 2.119267
0.61921799 -0.91846102 2.1232672
0.60246801 -0.931611 2.127507
0.59495199 -0.94204104 2.128937
0.65503305 -0.820948 2.110167
0.66329402 -0.83189201 2.1072769
0.67116898 -0.84423202 2.105077
0.668585 -0.85695601 2.1044769
0.67104697 -0.87071198 2.1042271
0.65207601 -0.88144898 2.1081669
0.64202797 -0.89399099 2.110177
0.62315899 -0.906501 2.115047
0.60537499 -0.920793 2.1201069
0.59462798 -0.93339401 2.1232069
0.58857203 -0.94221705 2.124557
0.64991701 -0.83112502 2.1039169
0.67282504 -0.84460098 2.0970669
0.67913103 -0.85669297 2.094557
0.66734201 -0.86838502 2.097517
0.64316297 -0.88080299 2.1026771
0.62848598 -0.89323997 2.106137
0.62017101 -0.90531802 2.108757
0.57476103 -0.93264604 2.122967
0.66629899 -0.84352094 2.0905371
0.67072403 -0.85596001 2.0900569
0.65390998 -0.86806703 2.0928669
0.62693197 -0.87985003 2.0990171
0.620538 -0.89078403 2.100177
0.640836 -0.83038104 2.087357
0.66278702 -0.84177101 2.082377
0.66063499 -0.85486299 2.0835671
0.63864702 -0.86822402 2.0893569
0.62243003 -0.87911499 2.0923371
0.617154 -0.88853896 2.0921171
0.64718103 -0.83139998 2.0800772
0.66441703 -0.84272301 2.0751069
0.66508204 -0.854195 2.074177
0.63192797 -0.86671203 2.0833569
0.61715502 -0.8793 2.0863471
0.61041903 -0.88786906 2.0859971
0.60588902 -0.87955803 2.0819471
0.59257597 -0.888035 2.0826271
0.59122896 -0.88044298 2.0779269
0.59008497 -0.88815802 2.077157
0.57610601 -0.88821703 2.075557
0.70473397 -0.924124 2.1873171
0.69949895 -0.93575305 2.188427
0.698713 -0.94818705 2.1892271
0.69702005 -0.95989197 2.187887
0.68733299 -0.908171 2.1864369
0.70343697 -0.921884 2.181087
0.70643097 -0.933375 2.1795371
0.69751406 -0.94553202 2.1815269
0.69314498 -0.95974404 2.1817269
0.70016801 -0.97257799 2.178947
0.69139802 -0.98549104 2.179307
0.69763398 -0.999376 2.175447
0.67637604 -0.89604497 2.1836669
0.68623102 -0.90685499 2.1783569
0.70087504 -0.92088801 2.1751571
0.69548696 -0.93329501 2.175447
0.69143504 -0.94767195 2.1753168
0.68992501 -0.961483 2.174907
0.693295 -0.974271 2.1740971
0.68658996 -0.98821902 2.174417
0.70113897 -1.00207 2.168617
0.68600899 -1.01122 2.172447
0.70670998 -0.88704699 2.1635969
0.69479698 -0.89689696 2.168937
0.68833804 -0.90647501 2.170567
0.68698305 -0.91852206 2.1713669
0.68606901 -0.93287301 2.1713769
0.66715795 -0.94459897 2.1769569
0.679425 -0.959629 2.172437
0.69024003 -0.97256106 2.1685369
0.68520701 -0.98512101 2.168787
0.69228995 -0.99999499 2.164717
0.69776398 -1.01319 2.1625772
0.69337499 -1.02431 2.1623869
0.71490502 -0.875175 2.1536269
0.71973395 -0.88628697 2.153017
0.69947195 -0.89444101 2.1602569
0.694592 -0.90630203 2.161427
0.67794698 -0.91680396 2.167027
0.68545502 -0.97447401 2.1640971
0.68464994 -0.98928595 2.1614869
0.69072604 -1.0020601 2.157567
0.69323504 -1.01237 2.157197
0.694848 -1.0255101 2.155057
0.686598 -1.03593 2.1563871
0.70411497 -0.87310702 2.1509469
0.71681398 -0.88369697 2.1479371
0.70247704 -0.89418298 2.151747
0.68862998 -0.90448403 2.155647
0.68512702 -0.91373706 2.157207
0.68534899 -1.00295 2.1529469
0.69150102 -1.01486 2.1499472
0.69714999 -1.0280499 2.1467869
0.69906306 -1.03775 2.1466072
0.69813001 -1.04693 2.145237
0.69890505 -0.87292397 2.1458671
0.69730598 -0.88148803 2.146837
0.69343495 -0.89240897 2.1455369
0.69475698 -0.90365303 2.1469369
0.685233 -1.01516 2.1453469
0.69292998 -1.02727 2.1418171
0.69545305 -1.03862 2.140867
0.69080001 -0.88046205 2.1397569
0.69165498 -0.89180803 2.138907
0.69007498 -0.90091002 2.1390569
0.678864 -1.02624 2.1406469
0.69023001 -1.0383 2.1365669
0.67654997 -0.85511804 2.1349969
0.67982298 -0.865538 2.134717
0.685031 -0.87717104 2.1331971
0.68976897 -0.89041299 2.1321871
0.67987096 -0.89969498 2.132957
0.67799205 -0.85442805 2.1286771
0.68173599 -0.865812 2.1280968
0.686575 -0.87811601 2.125767
0.68577105 -0.89094198 2.1248369
0.65982002 -0.89959002 2.129827
0.639292 -0.83386397 2.130867
0.65548897 -0.84687597 2.1267271
0.68169898 -0.86397004 2.1203871
0.68525803 -0.87826896 2.1183569
0.67310303 -0.88984495 2.1203771
0.64958501 -0.899647 2.1251268
0.63111699 -0.90972704 2.1300771
0.61610901 -0.92366701 2.131907
0.59307998 -0.93504602 2.137517
0.58499503 -0.94412303 2.1392169
0.66164804 -0.83848196 2.118737
0.67348099 -0.85123706 2.1144369
0.68485099 -0.86605299 2.1119471
0.67999899 -0.87815398 2.1119769
0.65987396 -0.88852501 2.1163871
0.65021598 -0.89925694 2.117897
0.62660003 -0.90994501 2.124207
0.61044699 -0.92257899 2.126657
0.59869099 -0.934021 2.1306069
0.59200597 -0.94373202 2.1314771
0.65804702 -0.83877897 2.111537
0.67752099 -0.85193998 2.105247
0.67633402 -0.86443299 2.1061568
0.67080706 -0.87810099 2.1066771
0.65381402 -0.88858706 2.111057
0.63789904 -0.89852798 2.1142168
0.62270099 -0.910393 2.117337
0.60571402 -0.921489 2.121027
0.599868 -0.93414301 2.1232269
0.58157802 -0.94307297 2.126967
0.66269994 -0.83885801 2.1025071
0.67099899 -0.84957701 2.099947
0.67681998 -0.86159301 2.0986369
0.67303395 -0.87394798 2.098587
0.64967501 -0.88579202 2.1042869
0.63364798 -0.89781499 2.1074171
0.61562502 -0.90962404 2.1123469
0.60176301 -0.92382896 2.1169271
0.58824402 -0.935 2.1201971
0.58621001 -0.94432998 2.1199369
0.66582799 -0.84862196 2.093667
0.66499901 -0.85975194 2.093857
0.65738195 -0.87334299 2.094537
0.63573396 -0.88456595 2.0995171
0.625525 -0.89521402 2.101517
0.66968805 -0.84214103 2.085397
0.67187202 -0.85134101 2.0849671
0.67019898 -0.86268896 2.084337
0.64120001 -0.87278903 2.091047
0.62521899 -0.88361502 2.094847
0.61862499 -0.891617 2.094547
0.66536105 -0.85046798 2.078577
0.65999496 -0.86023402 2.079797
0.59328401 -0.87185895 2.0937371
0.62064803 -0.88290703 2.088217
0.60712099 -0.88944799 2.0893869
0.66338205 -0.856906 2.0701971
0.60472101 -0.88216001 2.0840669
0.59876996 -0.889597 2.0832469
0.596219 -0.88175005 2.0780571
0.59472299 -0.88888299 2.0776069
0.58112001 -0.87975901 2.0758469
0.58547699 -0.88839799 2.074497
0.69142997 -0.92729402 2.1897471
0.70073402 -0.94274199 2.1862171
0.69297099 -0.96606302 2.187067
0.68156302 -0.90147299 2.187587
0.69142604 -0.91500503 2.183357
0.68866301 -0.92654902 2.183007
0.694924 -0.94081199 2.1809669
0.69134498 -0.95336699 2.1823668
0.68760598 -0.96557504 2.180917
0.69314402 -0.97973394 2.177717
0.68505698 -0.990646 2.179147
0.67776495 -0.898853 2.1808071
0.69419998 -0.91265297 2.1745269
0.68689597 -0.92326403 2.1773269
0.68339401 -0.93533301 2.1779668
0.68813598 -0.954036 2.1756868
0.690292 -0.969459 2.1727471
0.690974 -0.98101401 2.1715069
0.69177902 -0.993141 2.1698971
0.68963099 -1.00525 2.169637
0.68435204 -1.01833 2.168067
0.70904899 -0.89034796 2.1609669
0.69234705 -0.90028101 2.1680369
0.69191003 -0.91105795 2.1667371
0.68830198 -0.92174399 2.1697071
0.68604398 -0.96928 2.168077
0.69112295 -0.9817 2.165087
0.69305497 -0.99546099 2.1616471
0.689825 -1.00746 2.1626971
0.69278699 -1.02189 2.1588171
0.67997396 -1.03058 2.161907
0.71682501 -0.86823601 2.152607
0.71802002 -0.87940902 2.1525369
0.712475 -0.88854301 2.153897
0.69757301 -0.89966697 2.1583169
0.67916197 -0.90769696 2.163867
0.67894 -0.91736799 2.1644568
0.68920195 -0.98310304 2.1591768
0.68368101 -0.99609596 2.1576269
0.68889201 -1.00945 2.1549571
0.69263297 -1.02351 2.151737
0.69201696 -1.03406 2.151947
0.68251902 -1.04152 2.1546869
0.72423303 -0.86913699 2.1445971
0.71381402 -0.87692904 2.147397
0.70486903 -0.888309 2.1500471
0.69871801 -0.89874703 2.149647
0.67820197 -0.90585798 2.1574471
0.68311799 -1.00964 2.149677
0.68955904 -1.02239 2.1460371
0.69080704 -1.0342801 2.1449571
0.687406 -1.04293 2.1465371
0.69948602 -0.86309505 2.1453271
0.686854 -0.87021202 2.146807
0.70097804 -0.88626802 2.1435969
0.69086403 -0.89593595 2.1443169
0.68745697 -0.90593302 2.1451271
0.68334901 -1.02257 2.1415269
0.69151706 -1.03416 2.137907
0.68507797 -1.04252 2.139987
0.69063795 -0.86096495 2.1393669
0.68348199 -0.86891198 2.1405969
0.69075501 -0.883452 2.137867
0.68435699 -0.895814 2.1393571
0.68234706 -0.90435797 2.1381769
0.66729105 -1.03082 2.139647
0.67383695 -0.85644996 2.1364269
0.68396103 -0.86889601 2.133127
0.68631101 -0.88178903 2.1307969
0.68504697 -0.89460403 2.1311769
0.661511 -0.89931101 2.136497
0.677562 -0.856754 2.1271369
0.68189502 -0.87006104 2.1253669
0.685866 -0.88396299 2.1239769
0.67356104 -0.89243597 2.125397
0.60139596 -0.92301399 2.1395869
0.597956 -0.93521601 2.1404569
0.58640599 -0.94301802 2.1433671
0.66046697 -0.83858401 2.122937
0.66285402 -0.84925401 2.1225369
0.68325698 -0.86638904 2.1170471
0.67704695 -0.87971199 2.118367
0.66553903 -0.89025903 2.1191871
0.64641297 -0.899813 2.1233768
0.62955797 -0.91343695 2.126667
0.61973 -0.92451501 2.128947
0.604837 -0.93429494 2.1329069
0.59176099 -0.942936 2.1357069
0.66075897 -0.83920503 2.116967
0.67408097 -0.85258901 2.1125469
0.67765403 -0.866409 2.110827
0.67209297 -0.87935603 2.1111169
0.65361297 -0.88977206 2.1144869
0.63470298 -0.90130895 2.1194069
0.61919099 -0.913113 2.1233969
0.61304796 -0.92511594 2.125067
0.60101199 -0.93487799 2.1272171
0.58926797 -0.94319201 2.129097
0.66643095 -0.84150004 2.1074569
0.67903298 -0.85520303 2.1040468
0.67261201 -0.86578399 2.104327
0.66050202 -0.87684196 2.1061671
0.65005797 -0.88726503 2.1073868
0.63690001 -0.89802498 2.1110969
0.62813097 -0.91051 2.1141469
0.60823298 -0.92355299 2.1202369
0.59350699 -0.93461001 2.123137
0.58462 -0.94294405 2.1245971
0.66443801 -0.84025496 2.098917
0.67208505 -0.852763 2.098217
0.66831803 -0.86476701 2.097507
0.65694898 -0.87625903 2.0992169
0.63712901 -0.886015 2.103107
0.62035596 -0.89523202 2.1079569
0.59906501 -0.89888602 2.111207
0.65599602 -0.83763003 2.093817
0.66853797 -0.85142797 2.090167
0.66906095 -0.86595297 2.0898669
0.64319801 -0.87311602 2.094877
0.63464499 -0.88413203 2.095727
0.62286401 -0.89308602 2.099117
0.66133398 -0.83914298 2.085217
0.67339498 -0.85181397 2.080467
0.66377997 -0.86262602 2.0831671
0.64081496 -0.873169 2.088177
0.62778902 -0.88370901 2.091557
0.61731398 -0.89075106 2.0939469
0.66364306 -0.84015501 2.0761569
0.67148501 -0.85244298 2.074157
0.66376096 -0.86146301 2.0747972
0.62463999 -0.88232398 2.086997
0.69978696 -0.92971003 2.1863968
0.70276701 -0.94491696 2.185827
0.70404601 -0.95821601 2.1850169
0.70041299 -0.971241 2.182627
0.68722296 -0.98249 2.184417
0.69559097 -0.90507007 2.184617
0.69919199 -0.91668504 2.1806269
0.70023501 -0.929452 2.1792769
0.69572997 -0.94178003 2.179487
0.70048499 -0.95799696 2.178417
0.69612098 -0.97109395 2.1763871
0.69770104 -0.98508501 2.175277
0.684798 -0.994654 2.177927
0.68708903 -1.00893 2.1739771
0.697698 -0.90510005 2.1753168
0.69700301 -0.91442102 2.173367
0.69392896 -0.92689103 2.173897
0.68250394 -0.93822306 2.1748269
0.69677597 -0.95804602 2.1709571
0.69183195 -0.97033501 2.1709869
0.69905698 -0.98452699 2.167737
0.69146401 -0.99741602 2.168977
0.692716 -1.01262 2.165417
0.67581701 -1.02068 2.169477
0.72291702 -0.88454401 2.1573172
0.71798497 -0.89441103 2.158577
0.70128602 -0.90398198 2.1652071
0.69469398 -0.91495496 2.1671569
0.68963504 -0.92638898 2.1668971
0.67738998 -0.93568099 2.1693668
0.67580396 -0.948982 2.1703169
0.69287801 -0.97149694 2.164377
0.697882 -0.98857802 2.160737
0.70082998 -1.00293 2.1583569
0.69935 -1.01473 2.1560671
0.696136 -1.0268199 2.156477
0.68833703 -1.03733 2.1572371
0.73051101 -0.88602304 2.1497769
0.72256202 -0.89276606 2.151407
0.702025 -0.899243 2.1570771
0.69474 -0.91276801 2.159107
0.67750299 -0.92246103 2.163727
0.651775 -0.92907202 2.1721969
0.68904096 -0.98545504 2.157907
0.69782901 -1.00251 2.1525369
0.69356298 -1.0137 2.151387
0.70041603 -1.0272599 2.1480269
0.69741994 -1.0406801 2.147157
0.68349296 -1.0486 2.1502769
0.72476995 -0.88451105 2.1450469
0.71569097 -0.89210701 2.1462469
0.69664103 -0.89932299 2.1509171
0.68578798 -0.90877098 2.1530471
0.69125903 -1.01605 2.1453168
0.69978404 -1.0312101 2.140167
0.69794101 -1.04281 2.139457
0.70306897 -0.87893796 2.1428368
0.70172799 -0.88929802 2.1430368
0.68706203 -0.89637494 2.145617
0.68355906 -0.90527606 2.1446671
0.68854499 -1.02863 2.136807
0.69258201 -1.03974 2.1350269
0.68472701 -0.87287694 2.138947
0.69318604 -0.88607806 2.1378369
0.68383104 -0.89502603 2.138407
0.67425501 -0.90215796 2.1399369
0.66210097 -1.02337 2.138417
0.67144895 -1.03477 2.1357069
0.68524694 -0.87238294 2.1302071
0.68065906 -0.882604 2.1323071
0.66261399 -0.89029294 2.1360471
0.68310404 -0.87019801 2.123337
0.67798501 -0.87998098 2.123817
0.66521895 -0.890706 2.127037
0.63537002 -0.89682096 2.1335268
0.62468702 -0.90848505 2.134177
0.61542702 -0.92083704 2.1348171
0.60271299 -0.93360496 2.1368668
0.58959699 -0.94247198 2.1397469
0.664294 -0.82087302 2.1214972
