# .PCD v0.7 - Point Cloud Data file format
VERSION 0.7
FIELDS x y z
SIZE 4 4 4
TYPE F F F
COUNT 1 1 1
WIDTH 328
HEIGHT 1
VIEWPOINT 0 0 0 1 0 0 0
POINTS 328
DATA ascii
0.66875398 -0.82348096 1.916057
0.67284101 -0.82060099 1.9173869
0.648619 -0.75533599 1.932137
0.65342498 -0.76926303 1.930547
0.66264802 -0.77823997 1.927977
0.66447997 -0.79309303 1.929947
0.64195198 -0.77267098 1.929947
0.65946299 -0.780689 1.9185569
0.65783095 -0.80060995 1.924847
0.63947797 -0.77614403 1.9215569
0.66670305 -0.78039098 1.933947
0.65157598 -0.75624102 1.928407
0.659486 -0.768556 1.924547
0.66745901 -0.77963096 1.9204171
0.63532698 -0.76192999 1.9310471
0.646052 -0.77020103 1.923597
0.659778 -0.77871805 1.9149671
0.63848501 -0.76336503 1.916087
0.63466901 -0.77567595 1.922657
0.65627199 -0.767326 1.934117
0.66202599 -0.77985704 1.9303269
0.64535004 -0.77025002 1.932227
0.66495597 -0.77866995 1.915957
0.66528803 -0.79160798 1.9190469
0.66221803 -0.80645698 1.925827
0.65372199 -0.77030897 1.934957
0.657368 -0.78222394 1.931257
0.64762396 -0.77139604 1.928877
0.65644801 -0.78151298 1.921937
0.66037297 -0.79272103 1.920137
0.66214401 -0.806472 1.920997
0.63539296 -0.77431899 1.928347
0.65227896 -0.78273398 1.9159269
0.65514803 -0.75982803 1.9356971
0.66132104 -0.78520799 1.933287
0.655123 -0.77199399 1.927487
0.66186899 -0.78422201 1.9194169
0.66302299 -0.79782701 1.921207
0.65655297 -0.81191903 1.9290669
0.65654504 -0.77297801 1.9152969
0.65853995 -0.80904198 1.916777
0.63891202 -0.72900999 1.936167
0.65021896 -0.73938799 1.9341969
0.65010297 -0.75116897 1.9334171
0.64729601 -0.74081701 1.926857
0.65292704 -0.74910003 1.924857
0.65132898 -0.74129099 1.917917
0.65469706 -0.748694 1.915427
0.66153604 -0.750067 1.9365669
0.63912797 -0.73196298 1.933737
0.65123498 -0.74147695 1.9316471
0.66017503 -0.75134301 1.9300771
0.66427696 -0.75956804 1.9279469
0.64576602 -0.74285698 1.924897
0.65872705 -0.75064903 1.922417
0.66441101 -0.75887799 1.919597
0.65101194 -0.74380302 1.9160171
0.64889902 -0.73837 1.936727
0.65425903 -0.74927694 1.935917
0.65517503 -0.76002502 1.9345371
0.63689899 -0.74178201 1.931417
0.65094703 -0.749825 1.929467
0.64882499 -0.762137 1.928427
0.62751096 -0.77865195 1.931847
0.64711797 -0.75136399 1.9215469
0.65306997 -0.75907999 1.9199871
0.64536595 -0.73607099 1.935047
0.65947098 -0.74568903 1.933457
0.66074204 -0.75866997 1.932137
0.64821601 -0.77241403 1.934517
0.64543098 -0.73655504 1.9284869
0.65565699 -0.74669403 1.926167
0.65723002 -0.75941199 1.923947
0.65331 -0.76998198 1.926067
0.646622 -0.73927903 1.9205569
0.66096705 -0.74752504 1.917037
0.66659302 -0.75766098 1.916307
0.64635497 -0.77072996 1.918497
0.64850801 -0.741431 1.934417
0.65588796 -0.75191498 1.9324369
0.65700698 -0.76105201 1.931987
0.64194196 -0.74170196 1.928257
0.65574801 -0.75128603 1.925197
0.65672201 -0.76063597 1.924667
0.64310896 -0.74369502 1.9202271
0.66522598 -0.75007403 1.9161971
0.65674597 -0.759857 1.9168669
0.60791999 -0.814987 1.930737
0.602727 -0.81153196 1.9293669
0.60116404 -0.805318 1.930087
0.59752798 -0.80106401 1.930817
0.59374803 -0.79548299 1.931197
0.60488099 -0.815988 1.9253169
0.60005498 -0.81310701 1.924547
0.59648496 -0.808828 1.925177
0.59851098 -0.79959297 1.9272369
0.59910196 -0.79083198 1.929227
0.61138999 -0.81270498 1.923407
0.603863 -0.81173897 1.921937
0.60158598 -0.80525398 1.922637
0.60661298 -0.79441202 1.925647
0.60549599 -0.78763396 1.927097
0.62246698 -0.76980799 1.9339169
0.60532701 -0.81559801 1.9180471
0.60314202 -0.81085998 1.9178571
0.59770197 -0.807226 1.917637
0.61058402 -0.792 1.9228669
0.62389201 -0.77634203 1.928877
0.60671103 -0.81411099 1.914237
0.606673 -0.80887705 1.915087
0.603598 -0.80376297 1.9155569
0.61388999 -0.78993398 1.919167
0.62282699 -0.77845901 1.9238271
0.60635602 -0.81444097 1.9102969
0.60750097 -0.807935 1.911467
0.61102301 -0.79745299 1.913857
0.61609 -0.78789902 1.916337
0.62192899 -0.77911299 1.919037
0.61431903 -0.78886706 1.9122769
0.630885 -0.77312499 1.917627
0.56294203 -0.80273598 1.9264669
0.552154 -0.80692804 1.9203269
0.57528704 -0.792274 1.928547
0.56515902 -0.79661906 1.922737
0.59233797 -0.77824301 1.9319969
0.60384899 -0.77195901 1.933077
0.601215 -0.80314302 1.930757
0.601107 -0.79808801 1.931667
0.59714299 -0.79324996 1.930757
0.59437299 -0.78731596 1.930657
0.59627604 -0.78055298 1.9322369
0.61477202 -0.80427098 1.930367
0.60014898 -0.80362397 1.9271569
0.60086 -0.79776102 1.927857
0.59564996 -0.79245496 1.9271269
0.59495699 -0.78735495 1.9270669
0.59999102 -0.779966 1.929747
0.60928601 -0.77141798 1.933147
0.62079799 -0.802558 1.9285671
0.60430503 -0.80219001 1.925107
0.60306597 -0.79721397 1.9247071
0.60018003 -0.79152399 1.9246969
0.60787898 -0.78322405 1.928017
0.61311102 -0.77636999 1.930107
0.62602401 -0.80164397 1.926407
0.60780501 -0.80090898 1.922367
0.60126597 -0.79664904 1.921147
0.601659 -0.79131299 1.9213271
0.60963899 -0.78333503 1.924917
0.635961 -0.77111703 1.933567
0.63221002 -0.80037498 1.9248869
0.61192697 -0.80059403 1.9196969
0.60359299 -0.79614902 1.918027
0.6092 -0.78838897 1.9204469
0.61150903 -0.78276801 1.9222569
0.62874198 -0.80075401 1.9204669
0.60762697 -0.80046099 1.915047
0.602121 -0.79605103 1.913757
0.60383803 -0.79045099 1.9152271
0.61358702 -0.783324 1.9190969
0.629498 -0.80042297 1.9172369
0.615825 -0.79943901 1.913887
0.60443902 -0.79673499 1.911087
0.603414 -0.79099405 1.911237
0.61192298 -0.78440499 1.9148171
0.63127303 -0.79952902 1.9146171
0.61189002 -0.79939401 1.909687
0.66212404 -0.79236394 1.933277
0.64342302 -0.78186601 1.9287869
0.66196197 -0.79096901 1.927047
0.66508698 -0.80225301 1.9258369
0.64646006 -0.81268203 1.928407
0.63969004 -0.78137898 1.921537
0.66130501 -0.79211098 1.9194471
0.66393697 -0.804061 1.9186569
0.64617896 -0.81276 1.921207
0.64187503 -0.78066802 1.9147869
0.65377998 -0.78971499 1.912937
0.66573501 -0.80107695 1.9110969
0.64438796 -0.81121004 1.914657
0.65231496 -0.78551 1.928647
0.660438 -0.79574305 1.9262869
0.65898299 -0.78835195 1.918927
0.66572601 -0.79638499 1.917827
0.65306395 -0.78833801 1.911407
0.66482806 -0.79666603 1.911117
0.64596397 -0.777511 1.9318069
0.656663 -0.79261297 1.927857
0.65646601 -0.80343902 1.928797
0.65088302 -0.81240702 1.927847
0.66378301 -0.79356599 1.919337
0.65762603 -0.80385 1.9203169
0.64599901 -0.81133699 1.9211869
0.663665 -0.80299002 1.9114771
0.64807403 -0.810431 1.913537
0.64879799 -0.77769601 1.932007
0.65646398 -0.78986096 1.9304069
0.66202199 -0.80410796 1.928907
0.65196604 -0.81410301 1.9305271
0.64901495 -0.77884901 1.924147
0.65945101 -0.79252797 1.9227271
0.65880501 -0.80425799 1.921687
0.64788401 -0.81163698 1.9220771
0.64083999 -0.776577 1.9174969
0.66093302 -0.79295802 1.9145371
0.66199201 -0.80533302 1.9133769
0.638448 -0.80856496 1.916557
0.66531897 -0.80164599 1.9308569
0.659208 -0.788306 1.925377
0.66492999 -0.80191201 1.9231169
0.66121501 -0.810866 1.9234771
0.66020399 -0.79084098 1.916497
0.66245103 -0.80150706 1.915737
0.66073096 -0.81043601 1.9157469
0.62227702 -0.80452597 1.928277
0.62003303 -0.796776 1.9306169
0.63778704 -0.80339795 1.931017
0.63001996 -0.79960704 1.927967
0.62404299 -0.79415804 1.9239571
0.61991102 -0.78721601 1.928007
0.63837898 -0.80225897 1.922137
0.62872499 -0.79944903 1.914517
0.62327802 -0.79435301 1.9120171
0.62483698 -0.78468299 1.923317
0.62251496 -0.77611399 1.9312069
0.65875506 -0.80380201 1.929507
0.65030998 -0.80161595 1.9230969
0.63874501 -0.80025399 1.913627
0.634148 -0.776869 1.9296069
0.666924 -0.79873598 1.9300369
0.65936303 -0.79683095 1.924147
0.63433301 -0.77756399 1.917107
0.66899699 -0.79648805 1.9223571
0.65878797 -0.79523498 1.913607
0.67733002 -0.79086405 1.9238969
0.66945601 -0.78937799 1.9173869
0.68200898 -0.78694898 1.9209869
0.62536699 -0.80135697 1.931577
0.621077 -0.79575598 1.930867
0.61237001 -0.785092 1.930217
0.62531602 -0.799393 1.921657
0.61973399 -0.79431897 1.918447
0.61643797 -0.789177 1.921577
0.61568999 -0.78142196 1.9253869
0.62275398 -0.79321098 1.9108969
0.62023103 -0.78574699 1.9162469
0.62291902 -0.77603602 1.927547
0.62297201 -0.76854205 1.9335871
0.63984102 -0.79642195 1.9177569
0.62843204 -0.77434194 1.924547
0.617235 -0.79252195 1.9313271
0.62331796 -0.79639602 1.926367
0.62044901 -0.79016602 1.9245571
0.61842096 -0.78495699 1.9282269
0.61768699 -0.77844203 1.930847
0.63578302 -0.79828799 1.932277
0.62803799 -0.79353797 1.9215869
0.62513101 -0.78720397 1.921797
0.621647 -0.78252196 1.9229871
0.62464803 -0.77451104 1.9306771
0.62357897 -0.767829 1.9334669
0.640522 -0.79625899 1.9266471
0.62569803 -0.78019303 1.918327
0.631432 -0.77096605 1.931077
0.65110296 -0.79716903 1.9292669
0.63938802 -0.79548299 1.9129469
0.649041 -0.79693902 1.9136471
0.65824997 -0.79373497 1.915997
0.585899 -0.72599405 1.931687
0.58787102 -0.73500198 1.9202369
0.62942404 -0.79988098 1.9326069
0.63352901 -0.79864901 1.9299769
0.66945505 -0.789406 1.9269071
0.66756898 -0.788454 1.918517
0.66740602 -0.79736602 1.9185671
0.652776 -0.809946 1.9319071
0.66257501 -0.78881204 1.912287
0.63936001 -0.80917501 1.920647
0.66669601 -0.76806396 1.934507
0.66875297 -0.78027999 1.9289169
0.66515505 -0.79215795 1.933257
0.65686399 -0.75076598 1.9336569
0.66180199 -0.76504999 1.927477
0.67116201 -0.77944803 1.915117
0.66401201 -0.793401 1.9230969
0.65308601 -0.75092298 1.926677
0.66237396 -0.76565397 1.914937
0.64621902 -0.75178301 1.9223869
0.67326403 -0.76120597 1.9361569
0.67604798 -0.77587801 1.9334069
0.67590302 -0.78868502 1.9321871
0.67050797 -0.77034897 1.9269071
0.67141998 -0.78564906 1.924367
0.66513604 -0.79739702 1.925807
0.65959603 -0.80979502 1.929597
0.65399802 -0.74243402 1.9337269
0.662696 -0.75714797 1.925107
0.66845399 -0.77285695 1.9162669
0.66597503 -0.78638399 1.9172471
0.66125298 -0.79758298 1.918907
0.64905602 -0.75225902 1.9273469
0.63959098 -0.74718904 1.9276969
0.673365 -0.77352303 1.9310969
0.66993898 -0.78463095 1.929247
0.66507697 -0.79795802 1.930847
0.66446406 -0.75569504 1.9299769
0.66716796 -0.77016294 1.925097
0.67062402 -0.787072 1.917037
0.66799498 -0.79938102 1.917967
0.65292799 -0.73637497 1.931447
0.656322 -0.75256896 1.926657
0.63082904 -0.87938696 1.9226069
0.64562696 -0.74569505 1.923317
0.68162203 -0.78405297 1.9326669
0.67445099 -0.75438398 1.935047
0.671314 -0.76814497 1.9350771
0.67712402 -0.78488296 1.9242771
0.66659498 -0.797656 1.9297971
0.66251403 -0.73259401 1.937747
0.65947896 -0.74557 1.936187
0.667835 -0.76541299 1.9269071
0.67449206 -0.78220594 1.914137
0.66814005 -0.79592401 1.918087
0.65118897 -0.72785896 1.937107
0.652152 -0.74262202 1.932037
0.66255301 -0.761648 1.9191871
0.638107 -0.80082804 1.9324969
0.641065 -0.73669702 1.933937
