# .PCD v0.7 - Point Cloud Data file format
VERSION 0.7
FIELDS x y z
SIZE 4 4 4
TYPE F F F
COUNT 1 1 1
WIDTH 1498
HEIGHT 1
VIEWPOINT 0 0 0 1 0 0 0
POINTS 1498
DATA ascii
0.73723394 -0.81849897 1.7330871
0.74959999 -0.83096397 1.7273469
0.74850303 -0.84265602 1.7289771
0.74982905 -0.85485703 1.7305169
0.75279999 -0.86622101 1.7309369
0.72139096 -0.64319605 1.7230469
0.69078904 -0.698452 1.7485471
0.70383799 -0.70775801 1.7394971
0.70518798 -0.71966302 1.7397971
0.70222098 -0.73287696 1.7426571
0.70983803 -0.74762297 1.738577
0.709831 -0.76082999 1.7410769
0.70431799 -0.773803 1.747957
0.712152 -0.78448302 1.740587
0.70972902 -0.79787201 1.745327
0.73096001 -0.80748296 1.729377
0.746319 -0.81786901 1.7193869
0.744564 -0.831671 1.721807
0.74341005 -0.84537202 1.723537
0.746104 -0.85687798 1.7245871
0.75764197 -0.86268502 1.716647
0.72507697 -0.65091002 1.7135071
0.69846398 -0.68063301 1.732927
0.71026498 -0.69358397 1.726387
0.71283799 -0.70577794 1.7245771
0.71089 -0.71985602 1.728217
0.71713996 -0.73350304 1.7244769
0.71478599 -0.74590898 1.726217
0.71293801 -0.75817001 1.729157
0.71382403 -0.77098799 1.730997
0.71747595 -0.78213602 1.7267771
0.72649598 -0.79459196 1.722567
0.73966599 -0.80656505 1.713757
0.74273103 -0.81937599 1.712337
0.73792803 -0.83378798 1.7163169
0.73900801 -0.84517503 1.7172869
0.73807603 -0.85564697 1.7196569
0.70505995 -0.63375002 1.7175769
0.71956199 -0.65128303 1.709447
0.70864898 -0.66556299 1.717327
0.70333099 -0.680861 1.722177
0.70656604 -0.69382006 1.7199469
0.71191299 -0.70526201 1.716827
0.70701897 -0.71821505 1.720407
0.71300006 -0.73181897 1.718107
0.71776605 -0.74310303 1.7159669
0.71740699 -0.75511903 1.716337
0.71868104 -0.76902497 1.716617
0.73010498 -0.78180498 1.7078869
0.73500097 -0.79524595 1.7061169
0.73541099 -0.80862296 1.706787
0.72863001 -0.82303101 1.7128071
0.72978401 -0.834117 1.7131571
0.73115098 -0.84528297 1.7138971
0.722417 -0.85740304 1.720307
0.69470102 -0.63248801 1.7158771
0.70636004 -0.65414101 1.7090671
0.69948 -0.66957301 1.715217
0.702335 -0.68183196 1.7143271
0.69941103 -0.69247299 1.7154371
0.70309305 -0.70537204 1.7142071
0.70164198 -0.71921504 1.7145771
0.70573801 -0.731888 1.7131469
0.70971 -0.74553496 1.712007
0.72071898 -0.75752294 1.705027
0.72660798 -0.76994205 1.699857
0.731812 -0.78074801 1.697227
0.729693 -0.79237998 1.6998371
0.73289001 -0.804591 1.6984669
0.733118 -0.81736201 1.6995871
0.72859102 -0.83252996 1.7058671
0.71080899 -0.85026497 1.7206769
0.71537399 -0.85903198 1.718017
0.69224405 -0.62952 1.707787
0.70437402 -0.64027399 1.701507
0.70462698 -0.65207899 1.699887
0.69928598 -0.66596001 1.704847
0.69411498 -0.68068498 1.7113471
0.69190902 -0.693681 1.713457
0.68571699 -0.70945501 1.7187171
0.68366098 -0.72154504 1.720467
0.69023496 -0.73232102 1.716357
0.70170701 -0.74500602 1.709057
0.71646005 -0.75786799 1.6983371
0.73278397 -0.76917195 1.685307
0.72672796 -0.782269 1.6919769
0.72927004 -0.794442 1.6916369
0.72776002 -0.80611503 1.692907
0.71384203 -0.82016897 1.7046469
0.69954002 -0.60138601 1.690657
0.70487398 -0.61515802 1.688257
0.702452 -0.62885398 1.692847
0.69899297 -0.64082903 1.6950971
0.69592798 -0.65335798 1.697207
0.69466501 -0.66459101 1.6992968
0.69124103 -0.67853105 1.705157
0.69975901 -0.75606102 1.7040069
0.72808599 -0.79340202 1.683547
0.72192401 -0.80526 1.6885669
0.70293999 -0.590873 1.680567
0.69997001 -0.62726998 1.684137
0.69349599 -0.64141899 1.690307
0.68927103 -0.65201598 1.693707
0.69213301 -0.63763601 1.6818869
0.65221494 -0.74208999 1.8239371
0.65336901 -0.73647201 1.8235269
0.65012902 -0.73943198 1.8207669
0.652556 -0.73507798 1.820147
0.66448301 -0.74077696 1.8207269
0.64971197 -0.73884004 1.8167169
0.65230799 -0.73460501 1.816577
0.65791494 -0.73370498 1.816607
0.64949 -0.73907602 1.8126069
0.65186995 -0.73446798 1.8126168
0.65929604 -0.73476499 1.8118671
0.64862198 -0.73802805 1.8086771
0.65397698 -0.73616701 1.8080468
0.66284698 -0.73794401 1.807367
0.65009004 -0.73905295 1.804417
0.65780294 -0.73973393 1.8036669
0.66907501 -0.74370599 1.8031769
0.65582198 -0.74469298 1.800087
0.65857595 -0.74008101 1.7990869
0.67121202 -0.74551696 1.7994471
0.65467399 -0.74347901 1.795487
0.65965897 -0.74155295 1.7944369
0.66581202 -0.740403 1.7954669
0.65611899 -0.745148 1.791007
0.65693903 -0.73918897 1.789907
0.66482496 -0.73995799 1.7909269
0.65438199 -0.743613 1.786667
0.65685999 -0.73931998 1.785737
0.66397005 -0.739088 1.786007
0.65352201 -0.74235702 1.7822571
0.65959096 -0.74100304 1.781487
0.659742 -0.73414397 1.7818869
0.65837699 -0.74705201 1.777207
0.66109902 -0.74235702 1.777007
0.66013396 -0.73434699 1.7779269
0.65444601 -0.743846 1.773037
0.65941596 -0.74183404 1.7726769
0.66447997 -0.73942 1.7734571
0.65658796 -0.746185 1.769017
0.65709502 -0.739748 1.768327
0.66460603 -0.74010694 1.768387
0.65418798 -0.74324697 1.764897
0.66078299 -0.742764 1.764087
0.66190398 -0.73641998 1.763597
0.65585798 -0.74430704 1.760347
0.66162801 -0.74241096 1.7593271
0.66112298 -0.73461401 1.759587
0.655792 -0.74421799 1.755237
0.66401702 -0.74445504 1.754707
0.66478205 -0.73708099 1.7551069
0.65593499 -0.74519897 1.7509869
0.66264999 -0.74404603 1.7505569
0.667207 -0.73941201 1.751097
0.67930901 -0.74183297 1.749697
0.66039801 -0.74963599 1.746667
0.66801697 -0.74900299 1.745587
0.66995001 -0.74107003 1.7467771
0.68189204 -0.74207497 1.745207
0.69557405 -0.74775594 1.7449069
0.66891098 -0.75788003 1.741737
0.67430705 -0.75523001 1.7406571
0.67346001 -0.74367994 1.7421869
0.68217498 -0.74114096 1.7408069
0.694116 -0.74364901 1.740817
0.70335799 -0.72553098 1.7396569
0.69539702 -0.709988 1.7404871
0.68674397 -0.69230902 1.7415171
0.688537 -0.68362898 1.741557
0.69286501 -0.67703795 1.741187
0.68871999 -0.77830803 1.735707
0.69634902 -0.77796096 1.7342371
0.67534798 -0.74445701 1.737787
0.68229401 -0.74108905 1.7363269
0.68987101 -0.73792702 1.7367669
0.70327795 -0.74048698 1.736547
0.69419801 -0.71875298 1.736917
0.68725097 -0.70088798 1.7380871
0.68375605 -0.687397 1.7389771
0.68494105 -0.67857695 1.738507
0.687213 -0.670048 1.738517
0.69317001 -0.66719902 1.738237
0.69691801 -0.78657097 1.7299869
0.69691801 -0.77740896 1.729967
0.681225 -0.75065804 1.7324671
0.68142402 -0.74043101 1.7326269
0.68696803 -0.73535597 1.732437
0.689946 -0.72673202 1.733587
0.69315302 -0.719643 1.7328571
0.68851995 -0.70477796 1.733667
0.68657202 -0.69110703 1.734607
0.67768306 -0.67288899 1.734917
0.68254697 -0.66707498 1.735007
0.68420196 -0.65869302 1.7354569
0.69447899 -0.65869695 1.7345669
0.69571602 -0.78555 1.7255468
0.70177805 -0.78342199 1.7250971
0.69227797 -0.76246697 1.7268469
0.68290901 -0.741754 1.7287171
0.68253195 -0.730088 1.728107
0.68974996 -0.72640699 1.729187
0.68705595 -0.71293998 1.7292269
0.69080001 -0.70501405 1.729177
0.68381 -0.68662202 1.7305069
0.679097 -0.67179197 1.731127
0.68499398 -0.66857499 1.731047
0.68063003 -0.656322 1.731737
0.67996806 -0.64585602 1.731997
0.68463206 -0.63883203 1.7312671
0.69504601 -0.63592499 1.730417
0.70981199 -0.63915402 1.729337
0.70096898 -0.79043901 1.720437
0.703179 -0.78461403 1.720667
0.695346 -0.76622599 1.721577
0.68352801 -0.74163103 1.7237469
0.68267 -0.72909498 1.723907
0.68522 -0.72155702 1.7251669
0.68899399 -0.71463096 1.7247169
0.70174301 -0.71708298 1.7240869
0.70120299 -0.70504701 1.7255771
0.69375503 -0.68586701 1.726447
0.68421501 -0.66673601 1.7273169
0.67833102 -0.65131301 1.727937
0.67660004 -0.63999003 1.728277
0.67659599 -0.63073301 1.7281768
0.68208802 -0.62612998 1.7283471
0.70013201 -0.63144201 1.727327
0.71244794 -0.63308299 1.7261969
0.69960099 -0.78871804 1.715907
0.70117301 -0.78142798 1.716507
0.697007 -0.76612699 1.7167969
0.68527901 -0.744169 1.718837
0.68660796 -0.73413599 1.7194971
0.68812501 -0.72457498 1.720497
0.696365 -0.72346801 1.7195569
0.70054901 -0.68139601 1.722437
0.68277603 -0.65620697 1.723797
0.67670095 -0.64164299 1.724617
0.67488503 -0.63100201 1.724787
0.67938906 -0.62463403 1.7243969
0.69221497 -0.62497401 1.724247
0.70915002 -0.629996 1.723407
0.71460801 -0.62423098 1.7221869
0.72262901 -0.62123102 1.7212671
0.70442396 -0.79401606 1.7119269
0.70540398 -0.78586501 1.711987
0.69895399 -0.76881599 1.7126471
0.68681198 -0.74581903 1.714247
0.686396 -0.73518205 1.7152569
0.69137496 -0.72896498 1.715307
0.71367204 -0.74129099 1.713237
0.70004702 -0.67329198 1.7196569
0.67120397 -0.634718 1.721017
0.66944504 -0.62440103 1.7214969
0.67335296 -0.61866498 1.7205468
0.692213 -0.62493801 1.7199469
0.704 -0.62426603 1.7196671
0.71012497 -0.61917901 1.718907
0.716905 -0.61658597 1.7188071
0.69969398 -0.76846296 1.708817
0.68662202 -0.74605298 1.7104069
0.691001 -0.73861504 1.7099969
0.69845098 -0.73484498 1.709657
0.67920995 -0.639705 1.715737
0.671597 -0.62574404 1.7171469
0.67759103 -0.62169802 1.716277
0.68344903 -0.617769 1.716597
0.70490998 -0.62625498 1.715627
0.70422095 -0.61606497 1.7155069
0.71476698 -0.61536199 1.7154269
0.72624606 -0.617423 1.7145169
0.68466699 -0.74189901 1.7066071
0.687289 -0.73497498 1.7054371
0.70002699 -0.73705399 1.704507
0.71965599 -0.74739099 1.7033771
0.67915702 -0.63959903 1.7125469
0.67943197 -0.63244998 1.712657
0.67519498 -0.62095201 1.713277
0.68241096 -0.61725599 1.712437
0.69168299 -0.61525702 1.7127771
0.70160401 -0.61404002 1.7114869
0.711788 -0.61331701 1.711447
0.68461305 -0.73941004 1.701707
0.69292903 -0.73844802 1.7002771
0.69739699 -0.73340499 1.7003769
0.71662104 -0.74446297 1.6993769
0.67851198 -0.62123102 1.708937
0.67907 -0.61368799 1.708937
0.68785894 -0.61141998 1.708527
0.70589995 -0.61575001 1.707587
0.71338797 -0.61431599 1.706967
0.684075 -0.73815399 1.696597
0.69256401 -0.73791999 1.695797
0.69772398 -0.73438203 1.696427
0.71094 -0.738756 1.6952671
0.68750298 -0.62621397 1.7038369
0.68069506 -0.613711 1.7049869
0.68235606 -0.60601103 1.7046869
0.69855601 -0.61011702 1.7040869
0.68918902 -0.743819 1.6913971
0.68966299 -0.73639601 1.6916369
0.69727796 -0.73371696 1.691967
0.71080703 -0.73830396 1.690647
0.68418801 -0.61576802 1.7008671
0.68349999 -0.60765302 1.700917
0.68653196 -0.60129797 1.701057
0.69152296 -0.59698999 1.7011169
0.68860495 -0.74275297 1.6869571
0.69035202 -0.73710799 1.6873571
0.69555199 -0.733226 1.6873571
0.71084601 -0.73803103 1.6858969
0.690175 -0.61185002 1.6966671
0.698147 -0.751809 1.680577
0.69362998 -0.73891097 1.682717
0.70462799 -0.73866701 1.6816971
0.71423602 -0.73889804 1.680477
0.68861699 -0.64005798 1.7294269
0.69227403 -0.635342 1.7293869
0.704108 -0.63745201 1.728727
0.68527496 -0.636383 1.7261969
0.69020897 -0.63288599 1.726377
0.70019096 -0.63393998 1.7262368
0.70310205 -0.62640595 1.725557
0.69262999 -0.60739601 1.7262671
0.68155295 -0.633421 1.7219269
0.68871099 -0.63188499 1.7223871
0.69799596 -0.63096601 1.7227169
0.699633 -0.62261003 1.722007
0.69612098 -0.61067796 1.7223871
0.67615598 -0.62814802 1.7181768
0.68032801 -0.62399298 1.718237
0.69584799 -0.62877399 1.718477
0.69423103 -0.61648899 1.7183069
0.69647002 -0.61038899 1.7176871
0.6742 -0.62577099 1.7138971
0.68082899 -0.62348598 1.7136371
0.68573701 -0.61828703 1.7148371
0.68928599 -0.61132503 1.714187
0.68432504 -0.59845197 1.714157
0.66990399 -0.62172902 1.710057
0.67324096 -0.61668599 1.7098269
0.68226504 -0.61469001 1.710557
0.687828 -0.60944599 1.709747
0.66876799 -0.620188 1.7062671
0.67466903 -0.61740899 1.705027
0.67732596 -0.60903597 1.706057
0.674591 -0.624982 1.701897
0.67673302 -0.61810797 1.701077
0.67938304 -0.61144 1.7010269
0.68175298 -0.61236596 1.6968369
0.65051699 -0.723589 1.826147
0.66127801 -0.72961503 1.8265271
0.67438501 -0.73304999 1.824537
0.74752897 -0.88241601 1.8119268
0.65666097 -0.720869 1.819857
0.66524398 -0.72720599 1.8186669
0.67466402 -0.73288 1.816707
0.74621302 -0.88368499 1.806177
0.75387603 -0.88825798 1.806167
0.65839899 -0.72065806 1.8116971
0.669276 -0.72582495 1.8110369
0.677733 -0.73234499 1.808717
0.74715501 -0.883412 1.798967
0.74939299 -0.89223099 1.7993569
0.655186 -0.72227895 1.8037571
0.67216796 -0.72544801 1.8029269
0.67976898 -0.73450202 1.8003869
0.74145299 -0.88497901 1.7918171
0.74895501 -0.892555 1.791057
0.74634099 -0.91099602 1.7906768
0.66416705 -0.72987998 1.7956369
0.67944002 -0.73571801 1.793627
0.68145204 -0.74810898 1.791857
0.69363403 -0.753986 1.790437
0.71496099 -0.88512999 1.783277
0.73762298 -0.88531303 1.7837671
0.75125998 -0.89073098 1.7838669
0.74851996 -0.90605903 1.783327
0.67049003 -0.74138701 1.7859368
0.68040705 -0.74869204 1.785257
0.691989 -0.75439298 1.7849469
0.731812 -0.874888 1.776467
0.73831296 -0.88379306 1.776257
0.74502504 -0.89419997 1.7770669
0.74644202 -0.90898299 1.775517
0.66152602 -0.74702299 1.7777069
0.68277198 -0.74764299 1.777197
0.687199 -0.75591302 1.7777569
0.73067498 -0.87133497 1.767827
0.73398203 -0.88289595 1.769327
0.744151 -0.89266402 1.7690271
0.74325299 -0.91075599 1.768687
0.68295097 -0.74675798 1.7687368
0.68551904 -0.75608706 1.768627
0.70375198 -0.82290804 1.759837
0.726071 -0.85762805 1.7604669
0.73515099 -0.86640501 1.761227
0.73202795 -0.88210505 1.762067
0.73021203 -0.89884901 1.762127
0.66611999 -0.74105299 1.760287
0.68671399 -0.74499398 1.760287
0.68474799 -0.75698602 1.7606571
0.71843004 -0.81473196 1.7541569
0.72231501 -0.82544404 1.7545371
0.72034502 -0.84297502 1.754717
0.731745 -0.84967005 1.7539371
0.72933799 -0.86691999 1.7551169
0.72617894 -0.88517898 1.756377
0.63669103 -0.74006301 1.7539669
0.66295505 -0.740834 1.7533969
0.69758201 -0.73899698 1.7518868
0.68989599 -0.754049 1.753327
0.73049301 -0.80609804 1.747097
0.72501504 -0.82213098 1.7482269
0.72317296 -0.83830202 1.7486371
0.73164499 -0.84717697 1.7477069
0.62460899 -0.73390996 1.7490869
0.64622098 -0.73519796 1.748477
0.67784399 -0.733594 1.745667
0.69853503 -0.73859298 1.743817
0.69729799 -0.75021201 1.7452469
0.72434598 -0.79551297 1.7407969
0.72956198 -0.80312896 1.739767
0.73518896 -0.81407094 1.741147
0.71788299 -0.83799005 1.7415671
0.70970702 -0.85593396 1.7411969
0.69325101 -0.66549897 1.737727
0.69331706 -0.68017501 1.737397
0.69497198 -0.69499296 1.737397
0.70069098 -0.708646 1.737757
0.69738001 -0.72550797 1.7382071
0.70645601 -0.734662 1.735947
0.70392305 -0.74901301 1.7362671
0.70985901 -0.78426397 1.732667
0.72485602 -0.79029101 1.733447
0.73855299 -0.795973 1.7327069
0.733769 -0.81206495 1.733407
0.68878096 -0.62606096 1.732527
0.68808699 -0.63835698 1.732757
0.69284701 -0.65049797 1.7326269
0.69063795 -0.666888 1.732787
0.69349802 -0.67904603 1.731127
0.700212 -0.69295001 1.731617
0.70785201 -0.704274 1.731387
0.70985603 -0.71754801 1.730927
0.71748197 -0.72852403 1.7288669
0.71421504 -0.74536699 1.728067
0.705001 -0.76400203 1.728097
0.72508401 -0.77315599 1.7271171
0.731121 -0.78530097 1.7263269
0.73295701 -0.79848295 1.725787
0.73384303 -0.80895895 1.7255468
0.68928903 -0.61132997 1.7264569
0.69363505 -0.621225 1.7262368
0.69218999 -0.63541001 1.7274569
0.69293296 -0.64809901 1.726187
0.69114703 -0.66387099 1.7260269
0.68934995 -0.67896897 1.7244071
0.69447303 -0.69262099 1.7241769
0.70527494 -0.70541799 1.724607
0.713893 -0.71759397 1.723677
0.71939498 -0.73000997 1.7213769
0.71434194 -0.74730599 1.720457
0.71636003 -0.76051801 1.7213269
0.72892302 -0.77038801 1.719807
0.73525202 -0.78248495 1.719057
0.72894096 -0.79815805 1.719017
0.69202101 -0.61022002 1.720717
0.70365405 -0.61644101 1.719337
0.689219 -0.63563502 1.7201871
0.69134599 -0.64994103 1.7200171
0.67864603 -0.66894096 1.719197
0.68523002 -0.68315297 1.718937
0.686737 -0.69613802 1.718477
0.69819397 -0.70538694 1.7181469
0.71718496 -0.71586502 1.7167469
0.72455299 -0.72762001 1.7139771
0.727997 -0.73879403 1.714057
0.73164201 -0.75253701 1.7136071
0.73413301 -0.76714897 1.712217
0.725775 -0.78442198 1.7119769
0.69938904 -0.60686702 1.7128971
0.71003199 -0.613958 1.712507
0.698156 -0.629583 1.713197
0.69084704 -0.64614302 1.713557
0.72781801 -0.72575998 1.707927
0.72815496 -0.73969597 1.706127
0.72974402 -0.75485003 1.705917
0.732844 -0.76513702 1.7047369
0.696603 -0.60274398 1.704567
0.711173 -0.611036 1.7062269
0.72594297 -0.72922099 1.6996869
0.73139298 -0.73775804 1.6972671
0.73097396 -0.75151998 1.698477
0.72860497 -0.76278299 1.697047
0.69560099 -0.59941602 1.6984669
0.70104599 -0.61131501 1.6999469
0.70538694 -0.62199199 1.7008771
0.72927999 -0.72800499 1.6915671
0.73844904 -0.733666 1.689907
0.73781604 -0.74545896 1.6903369
0.73312497 -0.72609401 1.683197
0.73717797 -0.73504502 1.682777
0.73552901 -0.74586999 1.6824969
0.64912105 -0.72609597 1.826447
0.66328794 -0.73214304 1.8269268
0.68489099 -0.73595703 1.8249469
0.67232299 -0.75092697 1.827077
0.65924203 -0.72241998 1.8199271
0.68186206 -0.72557801 1.8193271
0.681678 -0.73666102 1.817687
0.679896 -0.74825501 1.818017
0.73760802 -0.88548601 1.806707
0.74754697 -0.89110398 1.805537
0.65710902 -0.72220498 1.812457
0.68124098 -0.72520202 1.811177
0.68026704 -0.738832 1.8108371
0.68088305 -0.74862099 1.810737
0.74306703 -0.88351703 1.8008569
0.74596101 -0.89308 1.800077
0.66591597 -0.71931803 1.8043869
0.67804801 -0.72580397 1.8029269
0.68665701 -0.734945 1.803057
0.68282402 -0.74728203 1.8038369
0.74134499 -0.88272399 1.793577
0.74787199 -0.89112699 1.793517
0.73898596 -0.90936399 1.7929471
0.66163003 -0.72087997 1.797477
0.67450303 -0.72562701 1.796867
0.686993 -0.73292804 1.795007
0.69333601 -0.74168199 1.795797
0.73189795 -0.88539296 1.7864969
0.75100797 -0.88728601 1.785857
0.75225902 -0.901344 1.784977
0.67953199 -0.72550201 1.7897769
0.69572401 -0.730959 1.7870169
0.69602096 -0.74054605 1.786917
0.73604894 -0.88220805 1.778367
0.75018001 -0.88995004 1.7784369
0.75419897 -0.90087897 1.777737
0.68094599 -0.72794098 1.781667
0.70058405 -0.73078799 1.7797869
0.69497496 -0.74161202 1.7792771
0.711887 -0.87801695 1.770997
0.73983401 -0.87697405 1.7703071
0.74039495 -0.89111197 1.771687
0.74879301 -0.90234494 1.771227
0.69808996 -0.73205703 1.773147
0.70083702 -0.73963404 1.771727
0.70561999 -0.82107496 1.762897
0.706397 -0.86709505 1.7652469
0.729765 -0.86704201 1.764327
0.73938698 -0.87458503 1.763487
0.74257004 -0.88873202 1.764897
0.74184996 -0.90781999 1.7653171
0.69752699 -0.73282796 1.764447
0.70345199 -0.73863602 1.764187
0.72540098 -0.81180602 1.7577671
0.73227501 -0.82005095 1.757207
0.73230004 -0.83546799 1.756747
0.72753799 -0.85401607 1.7581869
0.73948699 -0.86034203 1.757507
0.73183 -0.87675399 1.757717
0.70095706 -0.731489 1.7558969
0.70158696 -0.739223 1.7569369
0.721596 -0.81126195 1.751987
0.73118895 -0.81759906 1.7514371
0.73722196 -0.82930398 1.7507669
0.73693705 -0.84553903 1.7509971
0.73289704 -0.86059499 1.7510669
0.69739503 -0.73169196 1.748677
0.70535398 -0.73686999 1.748347
0.71978897 -0.79745793 1.7434571
0.72762299 -0.80628097 1.7443869
0.731821 -0.81852895 1.743747
0.74029195 -0.83002698 1.744607
0.72591698 -0.84820002 1.7444571
0.66835505 -0.68431997 1.7405369
0.68379301 -0.691145 1.740347
0.67879599 -0.70456201 1.740097
0.67630094 -0.71755999 1.7393869
0.71188301 -0.72526002 1.7412469
0.71540201 -0.73503703 1.739337
0.71993697 -0.78272498 1.736297
0.72704005 -0.79217601 1.737307
0.73753303 -0.80123401 1.737357
0.74193603 -0.81212306 1.7367771
0.73506796 -0.82868403 1.7379471
0.68610495 -0.63625902 1.7354871
0.686988 -0.64647001 1.7356269
0.69577795 -0.65548795 1.735467
0.69222295 -0.67330098 1.735007
0.69131899 -0.68811899 1.7345771
0.68924302 -0.70278901 1.7346569
0.70440298 -0.71371198 1.7342371
0.71348798 -0.72560698 1.7335471
0.71649599 -0.73719198 1.7324868
0.70047998 -0.75401604 1.731727
0.698107 -0.77004999 1.7297471
0.726026 -0.77712899 1.730137
0.73072898 -0.78990197 1.731307
0.73811096 -0.79997599 1.731167
0.72629499 -0.81872398 1.7318271
0.692904 -0.62081903 1.7291169
0.697568 -0.630252 1.7294769
0.69652003 -0.64288598 1.730867
0.69143504 -0.65771598 1.729697
0.69289804 -0.67010999 1.728467
0.69250506 -0.68433404 1.728277
0.691019 -0.70067197 1.7270269
0.70052803 -0.71242201 1.7271469
0.71526802 -0.72190696 1.726567
0.71861702 -0.735403 1.7258869
0.70681 -0.75359702 1.7256269
0.722184 -0.76361299 1.7236969
0.72214997 -0.77686501 1.723707
0.73159897 -0.78530002 1.7238669
0.70186895 -0.616844 1.723407
0.70199698 -0.62791598 1.7232871
0.69734901 -0.64189601 1.7243969
0.69159299 -0.65728205 1.7230771
0.69034302 -0.67216402 1.7227271
0.69254702 -0.68839997 1.7217771
0.69097704 -0.70252901 1.719797
0.69711095 -0.71302301 1.7194571
0.70988703 -0.72159404 1.7196869
0.722583 -0.731583 1.7181768
0.72600698 -0.74664003 1.718087
0.72118497 -0.76347703 1.716247
0.72854894 -0.77334398 1.7171869
0.730874 -0.78197306 1.7152569
0.69160402 -0.60417801 1.7148269
0.71212 -0.60931897 1.7162368
0.71079904 -0.621611 1.7169369
0.69810301 -0.63971597 1.7175571
0.68481398 -0.65916097 1.717677
0.67131799 -0.70847398 1.7144971
0.68784499 -0.71663398 1.7126371
0.70846999 -0.72414297 1.711937
0.73175699 -0.72882497 1.711257
0.72435206 -0.74401301 1.7102671
0.72942495 -0.75688601 1.7096469
0.72703397 -0.77181298 1.7092869
0.72465402 -0.78272796 1.7080671
0.69755095 -0.60133499 1.708987
0.71420097 -0.60855299 1.710917
0.703664 -0.62268502 1.710867
0.70777202 -0.72548598 1.7036569
0.727835 -0.73137903 1.7041169
0.72488296 -0.74703902 1.702867
0.72451502 -0.76069903 1.702787
0.72696501 -0.77036303 1.702477
0.70000803 -0.59850401 1.7023871
0.71040606 -0.607072 1.704267
0.71005994 -0.72650498 1.694647
0.72165704 -0.732939 1.6957871
0.730111 -0.74232298 1.6963071
0.72104299 -0.758645 1.6951871
0.699651 -0.59591299 1.696187
0.69727999 -0.60620701 1.6964669
0.70678598 -0.72743696 1.686847
0.721228 -0.73268598 1.6878769
0.72360802 -0.744793 1.688167
0.71411103 -0.75926596 1.686967
0.72367799 -0.73025495 1.681227
0.66086096 -0.73141199 1.8281469
0.66967303 -0.737562 1.8261969
0.66218001 -0.74865401 1.8274069
0.65791297 -0.71936095 1.8183271
0.66934502 -0.72692704 1.8188369
0.68509299 -0.733477 1.818557
0.662817 -0.71779406 1.812477
0.66508102 -0.72629404 1.812367
0.67923898 -0.73399806 1.810817
0.67480105 -0.74583703 1.8110369
0.65706497 -0.71973801 1.805907
0.66720301 -0.72608596 1.8057071
0.680906 -0.73491096 1.802627
0.68411601 -0.74443102 1.802937
0.72852206 -0.90513098 1.7928571
0.672683 -0.72668403 1.7973571
0.68951696 -0.73362803 1.7952468
0.68910003 -0.74446195 1.7953769
0.68844104 -0.75386298 1.7952468
0.73550004 -0.90202302 1.785907
0.66661698 -0.72967005 1.789567
0.68838 -0.73344499 1.788837
0.69433701 -0.74245203 1.7888269
0.68764299 -0.75394994 1.7881269
0.73338401 -0.88989097 1.7799869
0.73904097 -0.89919698 1.7782871
0.73562896 -0.91485494 1.7789371
0.696482 -0.73186201 1.7812369
0.69226193 -0.74279898 1.782007
0.68986702 -0.75248998 1.780827
0.72420096 -0.87892896 1.772467
0.73610801 -0.88685995 1.7726471
0.74048102 -0.89703298 1.771697
0.74090302 -0.91026801 1.771867
0.69929099 -0.73161298 1.7738471
0.69295198 -0.741615 1.773887
0.71055704 -0.85619199 1.764827
0.714504 -0.86672205 1.7653069
0.72387004 -0.87801003 1.766577
0.73809099 -0.88612503 1.7667968
0.73672998 -0.89932299 1.7665671
0.69786906 -0.73214895 1.766717
0.69554704 -0.74023002 1.765017
0.71956706 -0.81080705 1.7594571
0.72650301 -0.818753 1.7587869
0.72478998 -0.83241498 1.7591071
0.72526097 -0.84724098 1.759277
0.72748101 -0.85877001 1.759667
0.71989602 -0.87366998 1.760347
0.73106694 -0.88559604 1.7615371
0.693618 -0.73334998 1.758217
0.69711703 -0.73962402 1.7577671
0.71862102 -0.81099898 1.754097
0.73272496 -0.816513 1.752847
0.72756201 -0.83079302 1.7538669
0.73300797 -0.84098601 1.752957
0.72351503 -0.85687101 1.7537971
0.70412999 -0.72992796 1.7496769
0.69872701 -0.73991996 1.7502871
0.731682 -0.80573404 1.746917
0.73063302 -0.81662595 1.745977
0.73221898 -0.828255 1.747267
0.72796899 -0.84111398 1.747007
0.70672697 -0.72602099 1.742397
0.70972002 -0.73640299 1.7422271
0.69510198 -0.75008202 1.7424769
0.72497594 -0.79381895 1.7377969
0.72237897 -0.80523401 1.7394971
0.73589402 -0.81146204 1.7395771
0.73443705 -0.82419997 1.739607
0.68343902 -0.637097 1.737437
0.69234198 -0.64560997 1.7368469
0.69654101 -0.65914398 1.7362869
0.69576699 -0.67238402 1.7362869
0.70384806 -0.68319601 1.735817
0.69980597 -0.69875699 1.735037
0.70224601 -0.71357501 1.7361969
0.70830804 -0.72420698 1.7359869
0.71418798 -0.73534304 1.734377
0.70612603 -0.748927 1.7346869
0.727126 -0.78956395 1.731207
0.73066401 -0.801094 1.733187
0.72944504 -0.812976 1.7324671
0.72423899 -0.82472396 1.731837
0.69230795 -0.62281001 1.731317
0.693313 -0.63380796 1.7318569
0.69294095 -0.64694506 1.731107
0.69745904 -0.65966499 1.730707
0.70109397 -0.67193902 1.731277
0.70191598 -0.68531305 1.730707
0.71076399 -0.69464993 1.729377
0.69761497 -0.71239305 1.729597
0.71458799 -0.72205597 1.728927
0.72328597 -0.73186499 1.7275171
0.71072799 -0.74796897 1.7273871
0.70745301 -0.76252902 1.726217
0.72230202 -0.77507895 1.7250071
0.724536 -0.78763199 1.724877
0.72753406 -0.80001098 1.725787
0.72620201 -0.812163 1.7255771
0.69939798 -0.60937196 1.725027
0.69559801 -0.62058103 1.725177
0.69548601 -0.63374901 1.7256269
0.69107801 -0.64631796 1.724867
0.69288599 -0.65794098 1.7242869
0.69773597 -0.670389 1.725107
0.7015 -0.68374395 1.724597
0.69769895 -0.70000601 1.722837
0.70513397 -0.71230203 1.7230569
0.71641803 -0.72196698 1.7219269
0.72524399 -0.73348504 1.720757
0.710908 -0.75118101 1.7208371
0.72677398 -0.76047498 1.7192969
0.721533 -0.77698195 1.719047
0.726484 -0.78819901 1.7193069
0.721053 -0.800367 1.7187469
0.70130503 -0.60824603 1.719267
0.70726097 -0.61649698 1.7180569
0.69632894 -0.63023299 1.7191169
0.69498497 -0.64344198 1.718647
0.68771005 -0.657462 1.717847
0.69179201 -0.67215699 1.719157
0.68456197 -0.68992597 1.718217
0.68337703 -0.70349401 1.7169369
0.70236897 -0.71322405 1.7162869
0.72535795 -0.72091401 1.7152069
0.72856796 -0.73248595 1.7129871
0.72379899 -0.74713701 1.713967
0.72666901 -0.75893599 1.7117169
0.72754097 -0.77138704 1.7126269
0.72269201 -0.78621697 1.712917
0.70991302 -0.80142599 1.7125469
0.70871598 -0.604285 1.7113669
0.70990598 -0.61567903 1.7112869
0.70115995 -0.62903899 1.712507
0.686979 -0.643462 1.7117771
0.72661 -0.72143996 1.707567
0.732081 -0.73175699 1.7060471
0.731875 -0.74458003 1.7063971
0.73356402 -0.75632006 1.705477
0.72953695 -0.76820296 1.7055069
0.70451403 -0.602126 1.704217
0.71255702 -0.61275798 1.705537
0.70475996 -0.62573701 1.705657
0.72193199 -0.72360903 1.6985669
0.733612 -0.730223 1.6995871
0.73755997 -0.74071699 1.6999869
0.73383003 -0.75429398 1.6991071
0.72583902 -0.76643896 1.6977069
0.70165706 -0.60047698 1.6983169
0.70383203 -0.61363703 1.699797
0.691818 -0.62680101 1.699537
0.71820903 -0.72399902 1.6908069
0.73580801 -0.729289 1.692217
0.73724902 -0.74095297 1.6932471
0.73078799 -0.75384402 1.691147
0.71041703 -0.725972 1.684217
0.73483104 -0.72878802 1.6845568
0.73843497 -0.73989302 1.685567
0.72355902 -0.754372 1.682547
0.65086997 -0.72174203 1.8272671
0.67092204 -0.72858101 1.827087
0.68197501 -0.73769403 1.825797
0.666026 -0.75031602 1.826767
0.66635805 -0.719078 1.8210471
0.67401004 -0.72779703 1.819387
0.686508 -0.736597 1.8186669
0.66630501 -0.749816 1.8193769
0.66618598 -0.71864599 1.8139169
0.67672205 -0.72588098 1.8116971
0.68237704 -0.73674697 1.811517
0.668989 -0.74938303 1.8117169
0.66380203 -0.71911901 1.805907
0.680884 -0.726551 1.804787
0.69116098 -0.73562205 1.803907
0.67825103 -0.74809402 1.803387
0.7313 -0.90242898 1.794577
0.73622 -0.91341698 1.7938669
0.66196996 -0.71973604 1.798777
0.67666 -0.72580999 1.798447
0.68895799 -0.73599404 1.796947
0.68020302 -0.74906403 1.7965671
0.68983704 -0.75596499 1.795047
0.71948701 -0.89609003 1.789917
0.74113798 -0.89908701 1.7874169
0.74338603 -0.91001201 1.7882471
0.68060994 -0.72703499 1.790777
0.69772601 -0.73507798 1.7890869
0.69228899 -0.74690199 1.789827
0.69238096 -0.75588202 1.787657
0.73940003 -0.88780701 1.780977
0.74001998 -0.89860499 1.7811371
0.74629998 -0.90882897 1.7810969
0.67645204 -0.72918504 1.783637
0.698879 -0.73361295 1.7830271
0.69265097 -0.74611801 1.7822571
0.69014394 -0.75616896 1.780287
0.71410799 -0.88011003 1.7741671
0.74006701 -0.88375002 1.7738971
0.74350405 -0.89642096 1.7747869
0.74758005 -0.90959197 1.773967
0.695333 -0.73613095 1.7764969
0.69496298 -0.74616897 1.7745569
0.67007202 -0.75948602 1.773977
0.71421099 -0.83706498 1.7665869
0.72602099 -0.84621298 1.766867
0.73542297 -0.85865301 1.7675171
0.73288596 -0.87247396 1.767817
0.73444003 -0.88544196 1.768517
0.73371905 -0.901667 1.769327
0.734375 -0.91546702 1.7689869
0.69290602 -0.73818296 1.7685471
0.69231695 -0.74606597 1.7671469
0.72041804 -0.824498 1.761547
0.73200601 -0.832829 1.7614169
0.73522496 -0.84570295 1.7621869
0.73285204 -0.85863799 1.761517
0.72390604 -0.87253302 1.761117
0.69785303 -0.73614097 1.7601371
0.68862396 -0.74500394 1.7597369
0.70363504 -0.81719595 1.756187
0.73125601 -0.81986201 1.755497
0.73757797 -0.82957703 1.7545871
0.73416901 -0.84433198 1.7553369
0.73117304 -0.85770696 1.754577
0.70980597 -0.87282896 1.7541671
0.701455 -0.73420197 1.752697
0.70741796 -0.74047303 1.7520871
0.73035896 -0.80838698 1.7491269
0.73650903 -0.81763703 1.7480069
0.73508906 -0.83205003 1.748327
0.73180997 -0.84568602 1.7488071
0.71898401 -0.85872704 1.748497
0.67164099 -0.65874296 1.745307
0.67819196 -0.66680801 1.744617
0.71023005 -0.73077101 1.745097
0.71395105 -0.73962998 1.743347
0.72564006 -0.79772794 1.742327
0.73784602 -0.80425 1.7419571
0.74251503 -0.81376505 1.741107
0.74036199 -0.82660204 1.7416269
0.73667997 -0.840617 1.7427069
0.68378901 -0.64450598 1.7398469
0.69298798 -0.65389299 1.740037
0.69741094 -0.66404802 1.7394071
0.70616895 -0.67501098 1.7386371
0.70863295 -0.68995398 1.737337
0.70709199 -0.70380896 1.737007
0.71197999 -0.71714103 1.737587
0.71464503 -0.72956103 1.738417
0.71168703 -0.74032801 1.7366569
0.71012002 -0.752464 1.7350769
0.71842104 -0.78490901 1.734157
0.73173898 -0.79273301 1.734877
0.73563105 -0.80401498 1.7356769
0.733217 -0.81621903 1.7356869
0.73116201 -0.82943803 1.7368869
0.68840301 -0.61848402 1.732597
0.69961601 -0.626535 1.732807
0.69437301 -0.64075202 1.733847
0.70148695 -0.65276003 1.7334869
0.70563799 -0.66568804 1.7332071
0.71108496 -0.67834395 1.732767
0.71990997 -0.68857497 1.732507
0.70675904 -0.70341301 1.7316871
0.71238601 -0.715482 1.7317569
0.71290606 -0.72785598 1.731557
0.71522498 -0.74143404 1.729797
0.70825499 -0.75510001 1.729437
0.71820605 -0.76578301 1.728237
0.726614 -0.78029704 1.7288071
0.73607904 -0.78865099 1.728147
0.73202902 -0.80133402 1.728447
0.70254999 -0.616943 1.7274868
0.70037597 -0.627877 1.7276169
0.70704299 -0.63984299 1.7275171
0.71246904 -0.64990401 1.727227
0.71109003 -0.66141403 1.7269169
0.70877296 -0.67611903 1.726387
0.71245003 -0.68921798 1.7267669
0.70859003 -0.70308703 1.724537
0.70897102 -0.71578401 1.7255369
0.71841002 -0.72767097 1.7240272
0.72906196 -0.73890501 1.722527
0.71283603 -0.75458395 1.7234269
0.73488897 -0.76252294 1.721467
0.730901 -0.77771103 1.7221069
0.73249602 -0.79000902 1.721897
0.73070395 -0.79877299 1.720287
0.70907503 -0.60346001 1.718767
0.71113294 -0.61354601 1.720327
0.70292002 -0.62476301 1.721537
0.70373899 -0.635791 1.720987
0.70553803 -0.64925104 1.721467
0.692572 -0.66623801 1.721257
0.693865 -0.67884398 1.720847
0.69580495 -0.69159698 1.720287
0.70124197 -0.70591003 1.7180569
0.71670699 -0.715581 1.717977
0.72892702 -0.72682899 1.716767
0.73728997 -0.737391 1.715887
0.72889 -0.750898 1.716647
0.73773801 -0.76031405 1.7148371
0.73490405 -0.77357203 1.714637
0.72998202 -0.78802299 1.714727
0.72658503 -0.79791605 1.7136869
0.70819998 -0.60277998 1.7134368
0.71291494 -0.61134398 1.713497
0.70565903 -0.62346697 1.7151169
0.69768697 -0.63573599 1.714867
0.70922697 -0.71759599 1.711187
0.72492301 -0.72497702 1.7108569
0.73701304 -0.73479599 1.709657
0.73784697 -0.74817395 1.7094369
0.73414904 -0.76222003 1.7083371
0.73482299 -0.77493894 1.708287
0.71823603 -0.789684 1.708197
0.70858198 -0.60189497 1.7070169
0.72113401 -0.609644 1.706897
0.70812696 -0.62140399 1.7083271
0.733962 -0.72578001 1.703477
0.73557401 -0.73789704 1.7026169
0.73573703 -0.75036794 1.7028069
0.73198503 -0.76295501 1.702517
0.71773905 -0.77868795 1.7027771
0.69877404 -0.599316 1.6997769
0.70512497 -0.608742 1.7003769
0.72986197 -0.72766197 1.695397
0.73921502 -0.73508906 1.6950369
0.73546499 -0.747401 1.696347
0.702416 -0.59658402 1.6945871
0.70254099 -0.60846198 1.6955771
0.73729402 -0.72688299 1.6881571
0.74399298 -0.73395503 1.687797
0.73874301 -0.74337196 1.688627
0.72916704 -0.727705 1.680267
0.74957103 -0.73201102 1.681837
0.74231905 -0.741772 1.680907
0.662907 -0.72575897 1.8287671
0.66760397 -0.73372197 1.827527
0.679618 -0.742917 1.827757
0.66815299 -0.724145 1.821147
0.67544699 -0.733459 1.819847
0.686194 -0.74218202 1.8197271
0.64845598 -0.71680099 1.8155069
0.66660798 -0.72391701 1.814477
0.67924005 -0.732867 1.811857
0.68078303 -0.74310094 1.8122669
0.67300904 -0.72330397 1.807537
0.68416399 -0.73214102 1.804317
0.68128401 -0.74359 1.8049569
0.665429 -0.75437105 1.8058569
0.71922702 -0.90042502 1.7945371
0.67636704 -0.72343099 1.799597
0.689776 -0.73115802 1.797367
0.68985397 -0.74189901 1.797117
0.68075699 -0.75267404 1.798517
0.72187203 -0.899737 1.7895569
0.73436898 -0.906555 1.788857
0.68655998 -0.723212 1.7919971
0.69419897 -0.73168099 1.7912869
0.69874901 -0.74081999 1.7898669
0.69648695 -0.75047702 1.7898169
0.73119795 -0.89703202 1.783197
0.74569505 -0.90570903 1.783327
0.67121398 -0.72442198 1.786697
0.697209 -0.73162806 1.784927
0.701074 -0.741808 1.7830468
0.69742203 -0.75077796 1.7820771
0.73258001 -0.87002403 1.774727
0.73561203 -0.88271797 1.7762369
0.72988296 -0.894485 1.776297
0.74127501 -0.90547204 1.777347
0.704647 -0.73293406 1.776517
0.70689398 -0.74163103 1.776347
0.68922305 -0.75077903 1.7758771
0.71412003 -0.86003703 1.769187
0.72946501 -0.86780196 1.7691671
0.73694605 -0.87946701 1.770607
0.724904 -0.89245903 1.770787
0.69771105 -0.733042 1.769437
0.703017 -0.74000502 1.769347
0.71383202 -0.84669298 1.763247
0.73448402 -0.85403997 1.763347
0.74238098 -0.86308897 1.762977
0.73253602 -0.87671697 1.764547
0.70132601 -0.73186702 1.7627771
0.70371699 -0.73831701 1.760977
0.727723 -0.83129305 1.756377
0.732903 -0.84165603 1.757097
0.73822099 -0.852301 1.7570169
0.72541398 -0.86527902 1.757557
0.70529199 -0.73070395 1.7552271
0.714068 -0.73665297 1.7530271
0.71413904 -0.820934 1.749617
0.73533094 -0.82886398 1.750137
0.738536 -0.84057295 1.7509369
0.74292803 -0.84925199 1.7502469
0.68932199 -0.66777498 1.745877
0.67896599 -0.67900902 1.745557
0.70685995 -0.72906303 1.7470469
0.71986699 -0.73742795 1.745067
0.73260802 -0.805022 1.742727
0.73946297 -0.81594396 1.7439569
0.74588799 -0.82541198 1.744007
0.74497801 -0.83660007 1.7442969
0.73362195 -0.84800303 1.7437869
0.67606103 -0.64113897 1.7403369
0.697142 -0.64954698 1.740397
0.70057505 -0.66262496 1.7406769
0.70335996 -0.67589402 1.7404571
0.70055801 -0.68901396 1.740087
0.69911301 -0.70357805 1.7394571
0.69129097 -0.71812499 1.740157
0.71489996 -0.72766095 1.7394071
0.71774697 -0.739649 1.738757
0.70449799 -0.75077903 1.7380469
0.70709503 -0.78263497 1.735947
0.73543406 -0.789675 1.736127
0.72768503 -0.802876 1.7365869
0.732297 -0.81348097 1.737767
0.73150396 -0.82582605 1.738497
0.73151201 -0.83814299 1.7390271
0.69845802 -0.617203 1.733907
0.69339997 -0.62634301 1.734707
0.69433898 -0.638197 1.7352771
0.70240802 -0.65027499 1.7351871
0.70739603 -0.66326898 1.7344971
0.707129 -0.67604798 1.733947
0.69987297 -0.68848199 1.7342269
0.70135301 -0.70062399 1.734367
0.71095103 -0.71345198 1.7338871
0.72338301 -0.72520602 1.732067
0.71901399 -0.73865998 1.732657
0.71377701 -0.75024498 1.7328571
0.70934898 -0.76233 1.7313972
0.72886598 -0.77590501 1.730777
0.73957098 -0.78569001 1.730237
0.73759496 -0.797966 1.730347
0.73269099 -0.81048697 1.730927
0.702456 -0.61531103 1.728277
0.69927698 -0.62580299 1.729637
0.70387495 -0.63781703 1.7286869
0.70556504 -0.65110803 1.7289569
0.711869 -0.66085702 1.727807
0.70989096 -0.673163 1.727927
0.70286596 -0.68681997 1.7277969
0.70211101 -0.70159602 1.727357
0.71623701 -0.71408403 1.727097
0.72289199 -0.72441298 1.7255969
0.727696 -0.73668402 1.7252771
0.71221101 -0.75140703 1.7263669
0.72577006 -0.76329201 1.725037
0.738455 -0.77471399 1.7245469
0.74315697 -0.78612399 1.7241269
0.73306298 -0.79900301 1.723757
0.72610497 -0.80905896 1.723527
0.71558702 -0.60275 1.7207669
0.71068496 -0.61217099 1.721427
0.71073306 -0.62374002 1.7226169
0.70916098 -0.63552701 1.721387
0.70389199 -0.64857501 1.7219369
0.69644797 -0.66218102 1.7220569
0.690382 -0.67734301 1.722697
0.68974704 -0.69123298 1.7220569
0.69581598 -0.70436996 1.7202771
0.72469002 -0.71372598 1.7203768
0.72963095 -0.72550303 1.7196569
0.73654997 -0.736606 1.7179471
0.73144501 -0.75016099 1.718887
0.73071897 -0.76432198 1.718187
0.74207199 -0.77517301 1.718447
0.73358595 -0.78734201 1.717757
0.71887803 -0.79986703 1.717667
0.70844102 -0.60266298 1.715067
0.71254206 -0.61293501 1.715907
0.70056295 -0.62489301 1.7158371
0.69734001 -0.63679004 1.715537
0.68490404 -0.64955598 1.715927
0.710908 -0.71551806 1.713537
0.726668 -0.72583395 1.712677
0.74158698 -0.73647904 1.7114071
0.73378301 -0.74779099 1.712067
0.73598397 -0.75928098 1.711587
0.73448503 -0.77339399 1.712097
0.71876901 -0.78854299 1.7125571
0.701186 -0.59853196 1.707217
0.71261901 -0.60965997 1.709487
0.70434999 -0.62118697 1.7099169
0.66972899 -0.64056897 1.710557
0.72515196 -0.72546095 1.7063169
0.73513705 -0.73546201 1.7046869
0.74070901 -0.74715698 1.7056869
0.72976094 -0.75906801 1.7043769
0.70098197 -0.59625602 1.700847
0.70639503 -0.60691601 1.7027069
0.72835898 -0.727135 1.6989371
0.73394203 -0.73543197 1.697397
0.73960096 -0.74568903 1.6980069
0.72122902 -0.75738698 1.6967169
0.69912499 -0.59528601 1.6946969
0.73133302 -0.72762197 1.6920569
0.73688203 -0.73589796 1.6909469
0.73934305 -0.74509698 1.6904969
0.72983706 -0.72806197 1.684967
0.74370104 -0.73514003 1.683717
0.73329598 -0.74479401 1.683377
0.71083397 -0.91006696 1.760047
0.72083604 -0.892362 1.760797
0.70829904 -0.91258597 1.7559369
0.70752603 -0.90232003 1.756317
0.72044402 -0.88313103 1.7575971
0.72720397 -0.915007 1.752807
0.71407205 -0.91468596 1.751647
0.70839202 -0.90894204 1.751897
0.70689303 -0.90122002 1.7524469
0.70699 -0.89220804 1.752727
0.702721 -0.88609594 1.752847
0.71698195 -0.91191298 1.7479069
0.71129602 -0.90732002 1.7476571
0.70389003 -0.90266502 1.748107
0.70858198 -0.88966298 1.748747
0.70064199 -0.88636297 1.7486371
0.706146 -0.87311 1.7496271
0.69595999 -0.87252402 1.748517
0.71221298 -0.90592796 1.743187
0.70652604 -0.90180898 1.7438971
0.704386 -0.892456 1.7440869
0.69801801 -0.88711703 1.744527
0.69541001 -0.880077 1.7449369
0.68598998 -0.87898302 1.744017
0.72115898 -0.906349 1.7373168
0.72057998 -0.89888 1.7385669
0.70910698 -0.89856499 1.739607
0.70780599 -0.88923204 1.739207
0.69708604 -0.88735998 1.7404871
0.679676 -0.89065397 1.7394571
0.674555 -0.88742697 1.7396469
0.735964 -0.89604598 1.735267
0.72626406 -0.89562106 1.735497
0.71209604 -0.895329 1.7354871
0.70954299 -0.88744599 1.7353369
0.69929004 -0.88658094 1.7361771
0.65140504 -0.91046202 1.7344269
0.65119696 -0.90508902 1.735037
0.72031999 -0.87992501 1.7329669
0.71529198 -0.87610102 1.7333069
0.74965596 -0.90379602 1.8055069
0.74158996 -0.90852797 1.8013669
0.74056 -0.90893203 1.792007
0.64475995 -0.79257303 1.7967969
0.74428701 -0.91222703 1.788457
0.76287299 -0.89570898 1.791037
0.66536695 -0.78287804 1.7957569
0.64768898 -0.79094595 1.794307
0.76944703 -0.89739996 1.7883569
0.66648805 -0.78226095 1.792347
0.64961195 -0.789729 1.790867
0.73287398 -0.918791 1.777457
0.68279999 -0.77910501 1.787957
0.66706705 -0.78359103 1.7877469
0.64889902 -0.79103398 1.785917
0.731888 -0.91046202 1.7735471
0.69169998 -0.78328699 1.782917
0.67133498 -0.78891599 1.7827671
0.65947098 -0.78913999 1.7827069
0.646523 -0.79212499 1.781377
0.73177004 -0.90226799 1.7703171
0.68648499 -0.79367501 1.7784669
0.67493796 -0.79491597 1.7779069
0.65840399 -0.79723197 1.7777569
0.65178597 -0.79388297 1.777967
0.648965 -0.78975701 1.7774769
0.72599298 -0.90346301 1.766047
0.74762899 -0.88644701 1.769087
0.68260694 -0.79614097 1.7745169
0.67276198 -0.79654604 1.773217
0.66242105 -0.79609102 1.7738169
0.65269995 -0.793796 1.773537
0.644485 -0.79308897 1.7731071
0.71173698 -0.91047597 1.7606769
0.70954698 -0.90347999 1.7607471
0.72911102 -0.88520598 1.7623371
0.67804301 -0.79864997 1.7698469
0.67374903 -0.794909 1.769327
0.66061997 -0.79628998 1.769407
0.65216601 -0.794047 1.769237
0.648395 -0.79046303 1.7693671
0.73787397 -0.92065102 1.7572571
0.71794403 -0.92321503 1.756117
0.71049696 -0.91169405 1.7567968
0.70734 -0.90474403 1.756727
0.70558798 -0.89798498 1.7571969
0.69126803 -0.89918703 1.7557071
0.68114305 -0.78867996 1.766597
0.66659105 -0.79227698 1.765867
0.65136003 -0.79490399 1.7651269
0.64662099 -0.79161906 1.7649469
0.73897302 -0.91069198 1.7537369
0.72154897 -0.91240501 1.752677
0.708318 -0.91187304 1.752757
0.70372397 -0.90612197 1.752177
0.69847399 -0.90079695 1.7525669
0.69412905 -0.89687204 1.752527
0.66280901 -0.79284501 1.761297
0.65063304 -0.79440904 1.7603971
0.73214102 -0.90525496 1.749657
0.71332097 -0.90762901 1.7487671
0.70796996 -0.90146399 1.748747
0.70248103 -0.89753199 1.7490271
0.69359803 -0.89715302 1.7488769
0.70918602 -0.853917 1.750387
0.70430201 -0.85124701 1.7503971
0.664469 -0.79040003 1.7566971
0.65223098 -0.79324698 1.756227
0.64719599 -0.79059196 1.755757
0.728315 -0.89823699 1.7456369
0.712623 -0.89945 1.744977
0.705899 -0.89586097 1.745607
0.68314397 -0.90370101 1.7444071
0.704849 -0.856062 1.7470469
0.699664 -0.85367799 1.747147
0.69262999 -0.85294896 1.7470871
0.65673101 -0.79511201 1.751907
0.65249199 -0.79200697 1.7522271
0.644315 -0.79217499 1.7512369
0.72487605 -0.89160895 1.7413471
0.70803499 -0.895289 1.741647
0.69682801 -0.86123705 1.7424469
0.69923103 -0.85389704 1.743837
0.69951797 -0.848005 1.743907
0.66009599 -0.79271501 1.747607
0.65049696 -0.79321504 1.7476871
0.64353502 -0.79180396 1.7469971
0.73812598 -0.88308603 1.738187
0.71979105 -0.88849401 1.738097
0.693685 -0.86373597 1.737507
0.69603503 -0.85569197 1.7394871
0.69181603 -0.85162002 1.7388071
0.656308 -0.79594398 1.742637
0.64703798 -0.79501897 1.742977
0.64592797 -0.78935099 1.743297
0.72602302 -0.88446403 1.735217
0.67700899 -0.88080299 1.732597
0.69469804 -0.86418605 1.7332871
0.69348395 -0.85658097 1.734607
0.70769095 -0.84018207 1.7351069
0.68004698 -0.78668702 1.7390571
0.66149801 -0.79414803 1.738247
0.65415704 -0.79107904 1.7388569
0.64234596 -0.79218102 1.7389669
0.68614799 -0.87538904 1.729447
0.69291097 -0.86556602 1.7293171
0.69284105 -0.858051 1.730047
0.69672894 -0.84709901 1.7308569
0.71029299 -0.83166295 1.7316769
0.69446403 -0.78553003 1.734117
0.68271899 -0.78657603 1.7346869
0.65830499 -0.79562402 1.7339771
0.64931601 -0.79299402 1.734617
0.64278603 -0.79133201 1.7347369
0.699076 -0.866431 1.7260071
0.698816 -0.859896 1.725907
0.69833505 -0.85196298 1.7263169
0.69444704 -0.84669799 1.7264569
0.69025004 -0.78803003 1.7307471
0.67831302 -0.78950995 1.730407
0.65966004 -0.79473299 1.729417
0.65359497 -0.79065806 1.730637
0.64848298 -0.78710502 1.7307669
0.71176696 -0.85099405 1.7226871
0.69377297 -0.85573798 1.722327
0.69326103 -0.84775299 1.7222869
0.69968599 -0.83410698 1.7219471
0.70347899 -0.82190001 1.7216671
0.67809099 -0.79554099 1.726447
0.67317301 -0.79241997 1.7261771
0.66193998 -0.79283303 1.725457
0.656066 -0.78833503 1.7261169
0.658319 -0.77941597 1.7267169
0.70214897 -0.84805399 1.718457
0.701783 -0.84037805 1.718617
0.69690597 -0.83575797 1.7181171
0.696141 -0.82682502 1.718187
0.70687795 -0.81107002 1.718837
0.66946197 -0.79415298 1.721817
0.66222703 -0.79086095 1.7216769
0.65943998 -0.78500801 1.722097
0.65645599 -0.78084898 1.7222571
0.71637803 -0.836474 1.714447
0.70176005 -0.839643 1.714797
0.69672203 -0.83439302 1.7143469
0.699494 -0.82333201 1.7140671
0.69722295 -0.81650001 1.7149869
0.711694 -0.79971099 1.7156171
0.67327696 -0.79138201 1.7171869
0.66005498 -0.79390699 1.717267
0.65805101 -0.78626901 1.717847
0.66977602 -0.76978898 1.717867
0.70103896 -0.837919 1.7107871
0.70037496 -0.83028501 1.710417
0.69493794 -0.82547301 1.7097369
0.69566 -0.81715894 1.7109771
0.689951 -0.81256598 1.710887
0.683761 -0.79207605 1.7106971
0.66866994 -0.79441804 1.7123871
0.664226 -0.78876096 1.7131369
0.66350198 -0.78047699 1.7134269
0.66619402 -0.77177596 1.7136869
0.69854599 -0.83009499 1.706077
0.69239503 -0.82623702 1.7056769
0.69239801 -0.81759906 1.706597
0.69126701 -0.80856597 1.706537
0.70143402 -0.79372102 1.707247
0.68766803 -0.79247499 1.7071469
0.67344999 -0.79292297 1.7077271
0.66370201 -0.79118103 1.7089771
0.66493303 -0.78132403 1.709137
0.66575998 -0.77268898 1.709317
0.70955104 -0.82118106 1.701727
0.70104301 -0.82027799 1.7019169
0.69166398 -0.81884301 1.702457
0.68832296 -0.81128001 1.702337
0.68825305 -0.80102801 1.7032269
0.68211198 -0.79489797 1.7034669
0.67244697 -0.79335296 1.7039169
0.66984701 -0.78664297 1.7046069
0.66309196 -0.78181803 1.7046069
0.67300397 -0.76705801 1.704537
0.71292394 -0.81067902 1.698127
0.69273597 -0.81626803 1.6981769
0.68762398 -0.81032699 1.6979871
0.68226898 -0.80635399 1.699047
0.68101603 -0.79785895 1.6992371
0.67457199 -0.791951 1.699827
0.666444 -0.78762197 1.700087
0.667063 -0.77834296 1.700217
0.68158996 -0.760598 1.700477
0.70012802 -0.80991399 1.6942869
0.69228601 -0.80693704 1.6941971
0.6825 -0.80498499 1.695007
0.67848802 -0.79746598 1.694677
0.66874397 -0.79438001 1.695747
0.668374 -0.78580803 1.695737
0.67102897 -0.77606601 1.695757
0.696091 -0.80296099 1.690477
0.68406701 -0.80296302 1.6907669
0.67993599 -0.79632401 1.689887
0.67280501 -0.79181504 1.6914968
0.67050695 -0.78449601 1.691277
0.67166901 -0.77665704 1.6908669
0.68414998 -0.80128896 1.686357
0.68129402 -0.79465503 1.685307
0.67489898 -0.790241 1.686937
0.67174006 -0.78366798 1.686837
0.682118 -0.76908201 1.6868271
0.68615097 -0.797575 1.6811371
0.67524695 -0.79847902 1.681517
0.67453498 -0.79026604 1.6820669
0.66952795 -0.78553498 1.6830369
0.624906 -0.79844397 1.829157
0.61931902 -0.79516298 1.8289969
0.61602998 -0.79055601 1.829187
0.62478602 -0.79874498 1.825327
0.62115002 -0.79551101 1.825327
0.61799502 -0.78981596 1.825817
0.63090801 -0.773947 1.8285969
0.62172598 -0.80007398 1.821347
0.61839098 -0.79600698 1.821177
0.62018001 -0.78679198 1.822117
0.63562304 -0.76986098 1.8258069
0.63922399 -0.76230001 1.8262368
0.62030602 -0.80015296 1.8170971
0.620776 -0.79371595 1.8178769
0.61982203 -0.78723902 1.817717
0.63585699 -0.769943 1.8220069
0.64351898 -0.75924599 1.823017
0.62347502 -0.79842901 1.813537
0.61963004 -0.79491895 1.813717
0.61547697 -0.78973997 1.8130469
0.63679004 -0.76895696 1.817947
0.64138299 -0.76015997 1.8191971
0.62499499 -0.79694396 1.8100171
0.61601102 -0.79621905 1.8095568
0.61675799 -0.78899199 1.8093868
0.62947798 -0.77370697 1.812657
0.63894099 -0.76167506 1.8154269
0.62436098 -0.79722506 1.8055871
0.61965001 -0.79427695 1.8063269
0.61664903 -0.78941101 1.8057269
0.61874002 -0.780393 1.806877
0.62151003 -0.772641 1.808777
0.62927604 -0.79425001 1.8025171
0.62101197 -0.79315597 1.802197
0.61863798 -0.78647399 1.8027569
0.61866003 -0.77954203 1.803387
0.61593604 -0.77533895 1.8033371
0.62487799 -0.79700798 1.798067
0.61890101 -0.79421699 1.7978669
0.61492503 -0.79000503 1.798707
0.61537498 -0.78195196 1.799397
0.61524099 -0.77479303 1.7993469
0.63102198 -0.75901604 1.8018069
0.660505 -0.78389901 1.7968869
0.63727599 -0.791574 1.795097
0.62436402 -0.79232001 1.794717
0.61734796 -0.78842902 1.7951169
0.61762697 -0.77973294 1.795657
0.61829001 -0.77212602 1.7963569
0.63697201 -0.75482005 1.7992669
0.659904 -0.783732 1.7939969
0.63648599 -0.791192 1.7915869
0.62223399 -0.79202795 1.791347
0.62001497 -0.78579104 1.791517
0.62399501 -0.775581 1.7926871
0.62170798 -0.77047402 1.7935071
0.73759598 -0.91895503 1.782887
0.65271205 -0.78795999 1.7893869
0.63555402 -0.79201299 1.7871869
0.62697297 -0.78927803 1.788157
0.62453198 -0.78315103 1.788227
0.62878603 -0.77356005 1.789677
0.73970002 -0.91823602 1.779407
0.69124603 -0.78349 1.785867
0.68551302 -0.780402 1.7860969
0.65409797 -0.78932405 1.7846271
0.63173997 -0.79442495 1.782727
0.631387 -0.78684306 1.784637
0.62778497 -0.782161 1.784487
0.703273 -0.78300798 1.783127
