# .PCD v0.7 - Point Cloud Data file format
VERSION 0.7
FIELDS x y z
SIZE 4 4 4
TYPE F F F
COUNT 1 1 1
WIDTH 1498
HEIGHT 1
VIEWPOINT 0 0 0 1 0 0 0
POINTS 1498
DATA ascii
0.71688199 -0.65410101 1.6261569
0.69747299 -0.67590797 1.62043
0.69252604 -0.66284102 1.6099579
0.69690001 -0.65530199 1.60897
0.71401805 -0.65970397 1.620643
0.72129899 -0.65804899 1.6226169
0.69881701 -0.67660201 1.6141
0.69482696 -0.66319001 1.6033771
0.70414597 -0.66043401 1.608308
0.71859497 -0.66397595 1.6176291
0.73621804 -0.67184305 1.6307669
0.70101196 -0.67785001 1.6073599
0.69730204 -0.66611701 1.598989
0.70422202 -0.66208804 1.601131
0.72811204 -0.672391 1.6198621
0.73958999 -0.67396796 1.6271671
0.70222396 -0.67979401 1.600504
0.70211405 -0.670829 1.597314
0.70905995 -0.66762495 1.5979229
0.74129701 -0.68224502 1.627587
0.70519996 -0.68316805 1.5968109
0.70542002 -0.67472297 1.5927349
0.71165299 -0.67145205 1.5931289
0.72211504 -0.67317301 1.600286
0.70646501 -0.68431199 1.5910159
0.70855796 -0.67735499 1.5876489
0.71818298 -0.67786002 1.592921
0.71040398 -0.68980199 1.586996
0.71276903 -0.681297 1.584661
0.72204 -0.68276495 1.589348
0.72171402 -0.71563697 1.599097
0.71275103 -0.69535899 1.5831641
0.71599799 -0.68684304 1.581297
0.73320395 -0.69492203 1.594451
0.71490198 -0.71703798 1.588828
0.71836901 -0.71104896 1.5881469
0.71473199 -0.696652 1.5779419
0.71790802 -0.68974298 1.5756351
0.70919502 -0.71173203 1.5743099
0.71505499 -0.70806801 1.577336
0.71933198 -0.70166701 1.575038
0.72740602 -0.70026803 1.5772229
0.70949501 -0.71229696 1.5673419
0.71544898 -0.70894301 1.5694431
0.72580802 -0.7076 1.5733249
0.73731595 -0.70954806 1.5794079
0.71453202 -0.71662694 1.5646491
0.72493303 -0.71663302 1.5701801
0.73492301 -0.71558297 1.574609
0.719437 -0.72157699 1.561017
0.72380996 -0.71761298 1.5628009
0.74041295 -0.71386498 1.570027
0.72644997 -0.71992499 1.5575391
0.70778102 -0.59193802 1.6708069
0.70662802 -0.60707402 1.677137
0.70260298 -0.60700399 1.669407
0.702007 -0.59293902 1.658287
0.69339699 -0.61032599 1.6639169
0.69072801 -0.596892 1.6553071
0.693762 -0.608917 1.6531869
0.697653 -0.62044901 1.6510471
0.68457103 -0.60079896 1.6493671
0.69510496 -0.61049002 1.643947
0.70268798 -0.621041 1.638907
0.70717102 -0.63042802 1.6378571
0.67526495 -0.60544997 1.6465271
0.69264799 -0.61194801 1.6363971
0.70644301 -0.62000901 1.627757
0.71143401 -0.63026899 1.6268469
0.70976502 -0.64134902 1.6298169
0.68416101 -0.615879 1.6331171
0.70036101 -0.620637 1.623817
0.708359 -0.63073003 1.6196131
0.71506798 -0.64105499 1.616425
0.69417101 -0.62627399 1.6190851
0.70988798 -0.63366401 1.6101309
0.70503896 -0.64841104 1.614391
0.70466501 -0.66024899 1.6149549
0.68941903 -0.62905198 1.6144589
0.68734097 -0.64166802 1.6172949
0.70349002 -0.65047699 1.6081531
0.70114499 -0.66483498 1.610043
0.71425003 -0.67191803 1.602312
0.73743701 -0.67810702 1.588421
0.73690397 -0.69292802 1.5904269
0.70003599 -0.66888702 1.6037281
0.72197306 -0.67344004 1.5901599
0.74066705 -0.67709804 1.580022
0.74162698 -0.68922698 1.5812201
0.75160599 -0.69995797 1.5759799
0.71384203 -0.67775297 1.5878369
0.73637199 -0.68037301 1.5751801
0.73988402 -0.692788 1.5749331
0.753995 -0.69917899 1.566689
0.75582397 -0.71292502 1.5675409
0.71664202 -0.69054604 1.5788488
0.74246597 -0.69221997 1.5643029
0.75064498 -0.70372397 1.560828
0.76280898 -0.71083802 1.5555271
0.73739505 -0.69511002 1.558841
0.74655199 -0.70388198 1.5543649
0.738361 -0.70886803 1.551195
0.70545 -0.60458803 1.678967
0.69996399 -0.60703802 1.6736771
0.69493794 -0.62199503 1.6784869
0.697146 -0.59435797 1.6639569
0.69618303 -0.609474 1.666037
0.683716 -0.62672698 1.6779571
0.68789703 -0.63468301 1.676407
0.690633 -0.59726298 1.659287
0.69901395 -0.60679901 1.653227
0.68985498 -0.623348 1.662977
0.68994105 -0.59608001 1.650357
0.69524002 -0.606897 1.646217
0.70410103 -0.61736 1.642077
0.702573 -0.63023299 1.6442969
0.68885303 -0.59852999 1.641637
0.693304 -0.61032504 1.6391369
0.70354897 -0.61860198 1.633917
0.70828301 -0.628263 1.6320568
0.70998496 -0.64038104 1.6308169
0.68684196 -0.61177504 1.6353369
0.70215499 -0.62013102 1.6266268
0.70460802 -0.63260502 1.6262369
0.71447504 -0.64140803 1.619092
0.71023399 -0.65234494 1.623817
0.68885803 -0.625453 1.6267371
0.70338798 -0.63319099 1.618521
0.71552199 -0.64207804 1.609417
0.719356 -0.65150595 1.6089499
0.700665 -0.63625598 1.611004
0.71610999 -0.64339304 1.600379
0.71606696 -0.65371495 1.6026371
0.713067 -0.66695398 1.604337
0.70856303 -0.64688796 1.5966089
0.71622199 -0.65579695 1.593497
0.70623702 -0.67190695 1.6001819
0.707506 -0.68022501 1.600727
0.70779604 -0.64851403 1.5884601
0.71024203 -0.65766799 1.588552
0.71509498 -0.667454 1.587357
0.71756601 -0.67666703 1.5868561
0.70322996 -0.66049695 1.5862679
0.71251297 -0.66799599 1.582088
0.717565 -0.67654401 1.580109
0.71324599 -0.598472 1.674807
0.70545304 -0.601246 1.671577
0.70349902 -0.61445302 1.6734771
0.70165902 -0.62824899 1.6781769
0.70337194 -0.60319102 1.6635669
0.69300795 -0.61900502 1.6718969
0.68852997 -0.63173097 1.6776069
0.69740403 -0.60106701 1.6583869
0.69810301 -0.61373901 1.6585071
0.69735497 -0.62710202 1.658967
0.69233298 -0.60286999 1.6526669
0.69617301 -0.61516398 1.649937
0.70533502 -0.62614602 1.6428571
0.693762 -0.63966101 1.652457
0.68832803 -0.60449702 1.6461869
0.69603801 -0.61616498 1.6403869
0.70122802 -0.62720901 1.636637
0.71224505 -0.63622499 1.630947
0.69641703 -0.64852202 1.644807
0.685188 -0.60775298 1.639207
0.690786 -0.61907899 1.6346271
0.70200598 -0.62937599 1.6281869
0.71628499 -0.63745803 1.61966
0.723544 -0.64662802 1.61432
0.66729105 -0.623169 1.6425171
0.68096495 -0.629605 1.6341971
0.72140402 -0.63829601 1.6077719
0.72838801 -0.64771104 1.603024
0.73230904 -0.65772402 1.600718
0.72276002 -0.67130095 1.606989
0.654625 -0.63440299 1.644407
0.72039199 -0.64016998 1.5990741
0.72347903 -0.64798599 1.598752
0.72946703 -0.65783 1.595309
0.73144203 -0.67001998 1.5937229
0.69939697 -0.64622903 1.6052469
0.724424 -0.64991599 1.590376
0.72392797 -0.66244906 1.5907769
0.73164803 -0.67305493 1.5846061
0.71703398 -0.69000399 1.5954361
0.70626199 -0.70592797 1.60274
0.717314 -0.713274 1.59629
0.72490001 -0.66440904 1.581987
0.73023397 -0.67478597 1.577188
0.729074 -0.68689901 1.5796911
0.72724897 -0.70016599 1.583251
0.73904997 -0.71046996 1.5755649
0.71608198 -0.67900801 1.579491
0.73089105 -0.68597394 1.57043
0.73529702 -0.69871497 1.5698111
0.74566704 -0.71062601 1.563814
0.71898198 -0.68881798 1.571604
0.73030096 -0.69720101 1.56555
0.73983401 -0.70845801 1.5607581
0.70260501 -0.613078 1.6794571
0.69754702 -0.60147899 1.6739969
0.69842005 -0.61511999 1.673707
0.69599998 -0.62836498 1.676657
0.69263101 -0.60477799 1.6674069
0.68440199 -0.61890298 1.673667
0.67981797 -0.63062102 1.6784669
0.68783301 -0.60323203 1.660427
0.69009203 -0.61507899 1.6606171
0.69339502 -0.62653899 1.6574469
0.686593 -0.603001 1.651407
0.69104302 -0.61543101 1.6500369
0.70225602 -0.626885 1.641297
0.69896102 -0.63797998 1.6433371
0.68122703 -0.60531896 1.6462369
0.68747902 -0.61443502 1.6432769
0.69818604 -0.62548399 1.6358271
0.70621401 -0.63749099 1.629917
0.70586801 -0.64876002 1.629867
0.68720198 -0.61724001 1.6348871
0.70044404 -0.62878203 1.625157
0.70711797 -0.63861501 1.621001
0.71101195 -0.648422 1.6187689
0.71610606 -0.65968806 1.614182
0.69824302 -0.62968498 1.618668
0.70529801 -0.64035898 1.614
0.71473294 -0.65063399 1.608077
0.72386903 -0.66043097 1.6009979
0.73535597 -0.67096299 1.59314
0.72988701 -0.68539298 1.5959948
0.69463205 -0.64293402 1.611914
0.71560597 -0.65151298 1.5984579
0.72817802 -0.66247803 1.5903369
0.73400003 -0.67256898 1.5872629
0.73573405 -0.683882 1.585654
0.72867799 -0.697873 1.590219
0.711559 -0.65260398 1.5917411
0.72038597 -0.66255099 1.586517
0.72936094 -0.67348599 1.582355
0.732014 -0.68580496 1.5788541
0.73144603 -0.69843501 1.580876
0.72782207 -0.71243697 1.5831109
0.71165198 -0.65380204 1.58419
0.71229398 -0.66396898 1.5837719
0.724778 -0.674788 1.5759311
0.72926599 -0.68730497 1.5718989
0.73653102 -0.69766802 1.5687571
0.74040496 -0.70974195 1.567598
0.70049798 -0.67835701 1.584289
0.71931899 -0.68832803 1.571399
0.72569704 -0.69985199 1.566844
0.74192703 -0.709041 1.557587
0.70212603 -0.70560098 1.5740891
0.72779 -0.71203303 1.5579629
0.70703006 -0.71653605 1.564294
0.71012801 -0.60143799 1.676347
0.707744 -0.61317998 1.677567
0.70784402 -0.60254401 1.669717
0.70155096 -0.61431003 1.673207
0.69517195 -0.62569696 1.6770871
0.69998199 -0.60280102 1.665427
0.693946 -0.61553001 1.669497
0.68493497 -0.62567598 1.6755871
0.69454002 -0.601381 1.658497
0.69235498 -0.614604 1.661037
0.67404801 -0.625018 1.674767
0.69005996 -0.60132802 1.651897
0.69357401 -0.61342096 1.6496469
0.70390803 -0.62421799 1.6419671
0.70294702 -0.6365 1.6391671
0.68725097 -0.60323799 1.6449469
0.68949699 -0.61290801 1.6436771
0.69923896 -0.62520701 1.636297
0.71474999 -0.63764399 1.6236271
0.711896 -0.648965 1.6251669
0.67427599 -0.60588503 1.645667
0.69464403 -0.61553198 1.631817
0.70370001 -0.62840998 1.624007
0.71825898 -0.63823599 1.6138879
0.72216201 -0.64935499 1.6107001
0.71962303 -0.66244698 1.6120691
0.71972704 -0.67469805 1.6102819
0.69332606 -0.62892199 1.6227969
0.71550006 -0.63889301 1.607446
0.72374099 -0.65026498 1.6006259
0.73180604 -0.66128099 1.59646
0.734653 -0.672418 1.5949249
0.73381597 -0.68413401 1.593233
0.71136594 -0.63897598 1.602344
0.71474504 -0.64937204 1.59875
0.72542197 -0.66061598 1.5914731
0.73389602 -0.67306101 1.586594
0.75048101 -0.68491697 1.5742209
0.74936098 -0.69693202 1.57502
0.74545598 -0.71011001 1.576113
0.71231496 -0.64197403 1.593848
0.72041601 -0.65302199 1.586893
0.72677803 -0.66456902 1.581785
0.73617697 -0.67625397 1.5754111
0.74931997 -0.68665099 1.5668451
0.752442 -0.69632399 1.5663279
0.75585198 -0.70818001 1.563098
0.71778196 -0.665663 1.579423
0.729693 -0.67516601 1.5710859
0.73573703 -0.68657404 1.567076
0.75034201 -0.69808996 1.558924
0.755952 -0.70923799 1.555271
0.71120799 -0.67780995 1.575354
0.73174399 -0.685628 1.5621099
0.73688298 -0.69794601 1.558094
0.74748594 -0.71089798 1.5522839
0.71776098 -0.68915498 1.5640759
0.71091902 -0.70150596 1.5671589
0.73837501 -0.71102697 1.549997
0.68477994 -0.59560001 1.658897
0.68713301 -0.597588 1.6549869
0.68817401 -0.59852403 1.650847
0.69961303 -0.595842 1.6499671
0.68948799 -0.600088 1.646427
0.68998098 -0.59446698 1.6479069
0.70307803 -0.59916198 1.645527
0.68994904 -0.60075003 1.642637
0.69127899 -0.59647101 1.643167
0.69152397 -0.60257304 1.638417
0.69703203 -0.601969 1.636897
0.69715101 -0.60785198 1.6323669
0.70259595 -0.60704899 1.6310871
0.71216202 -0.62660497 1.6244571
0.70259005 -0.61314303 1.626947
0.71331298 -0.61553597 1.625067
0.71505094 -0.63851601 1.6170709
0.70644999 -0.62380099 1.621416
0.70902097 -0.61919397 1.621998
0.71858299 -0.61957401 1.6209311
0.717246 -0.64164102 1.612525
0.70782304 -0.62716502 1.6167679
0.71742898 -0.64199501 1.608542
0.708565 -0.62954402 1.61146
0.71141797 -0.63769102 1.605598
0.71139503 -0.63215399 1.606495
0.73418599 -0.66574997 1.592991
0.71609002 -0.64325798 1.598989
0.71360803 -0.63419497 1.6018389
0.73322099 -0.67472702 1.587768
0.72172797 -0.65698195 1.592212
0.71896696 -0.646725 1.593699
0.71601999 -0.63716596 1.5965101
0.72690803 -0.67013496 1.5855401
0.72343397 -0.65896797 1.587558
0.71683294 -0.64492399 1.5901111
0.71862704 -0.639494 1.5910128
0.728701 -0.67979205 1.579438
0.72507304 -0.66908598 1.581283
0.719989 -0.65517098 1.5844699
0.71955901 -0.64656198 1.586048
0.72804099 -0.64747703 1.584527
0.72919101 -0.68239504 1.5740259
0.72571701 -0.67080706 1.5763071
0.72530997 -0.66190499 1.578581
0.72503698 -0.65315104 1.580408
0.743361 -0.707138 1.563821
0.72875899 -0.68428701 1.56978
0.73019201 -0.67672896 1.5707279
0.73297697 -0.66987503 1.571918
0.744802 -0.70913804 1.5585071
0.73526603 -0.69050002 1.563998
0.737315 -0.68274301 1.565063
0.74703902 -0.68208802 1.564045
0.74308604 -0.70873594 1.554382
0.74408203 -0.69979304 1.5567
0.745314 -0.71055394 1.5499882
0.69406503 -0.59658003 1.6606171
0.67989099 -0.59852701 1.6514469
0.68235999 -0.60053802 1.646857
0.685184 -0.59755003 1.6470569
0.68798697 -0.60645598 1.6413569
0.69196701 -0.60441202 1.641167
0.69229698 -0.61023998 1.636117
0.69360197 -0.605699 1.6362469
0.69364899 -0.612647 1.6313269
0.70281196 -0.61559796 1.629037
0.70800298 -0.635616 1.621053
0.70432001 -0.62411302 1.623647
0.71229398 -0.625292 1.622267
0.70396203 -0.631984 1.6183538
0.70635003 -0.62682998 1.619168
0.71661299 -0.63040298 1.6173639
0.70725995 -0.63621402 1.613812
0.70263499 -0.62442404 1.6160989
0.708808 -0.63832903 1.6103408
0.682751 -0.60243899 1.634447
0.69385201 -0.601282 1.628147
0.69314599 -0.61384499 1.6260669
0.68258005 -0.63004798 1.6236271
0.69978994 -0.60175401 1.6200579
0.69552696 -0.61351699 1.6196508
0.69541395 -0.625346 1.6188279
0.68507105 -0.63877797 1.618114
0.68817598 -0.60699499 1.6121811
0.69990098 -0.61239499 1.612496
0.704853 -0.62237096 1.6120551
0.71690202 -0.62808996 1.6123639
0.68010598 -0.62108201 1.6039701
0.70126605 -0.62472701 1.6041849
0.70845395 -0.63346404 1.603654
0.69496596 -0.62778199 1.597597
0.70492995 -0.63678199 1.5962909
0.73040098 -0.63987803 1.596301
0.73476303 -0.65333295 1.5929409
0.68662399 -0.64125097 1.5902671
0.73152101 -0.64396399 1.5889469
0.73855299 -0.654387 1.5871561
0.741952 -0.66564596 1.585941
0.73658597 -0.68141001 1.582961
0.73139197 -0.647017 1.581463
0.74321097 -0.65235496 1.5814999
0.74774498 -0.66347903 1.58069
0.75747705 -0.672014 1.5806009
0.74930799 -0.68915999 1.5764191
0.74129999 -0.65438402 1.574295
0.74809504 -0.66345197 1.573314
0.75019801 -0.67712402 1.572323
0.75482696 -0.69024801 1.5700129
0.73346901 -0.71212196 1.5660598
0.74456102 -0.66654402 1.564979
0.75154996 -0.67562598 1.5647479
0.75591004 -0.68826699 1.563712
0.74475598 -0.70792097 1.5610199
0.73026496 -0.67453498 1.5559421
0.74575305 -0.67846602 1.556831
0.75555003 -0.68655503 1.557054
0.75770599 -0.70047402 1.554989
0.73840797 -0.68222898 1.550303
0.751531 -0.69034106 1.5497079
0.75615901 -0.70209801 1.547659
0.76641196 -0.711119 1.5476581
0.76405698 -0.70072997 1.5421929
0.76900899 -0.71185094 1.539701
0.78595597 -0.717758 1.53957
0.763834 -0.70454496 1.5332901
0.77915198 -0.70932996 1.53321
0.694552 -0.59400797 1.6500171
0.69872302 -0.59400797 1.6429669
0.70577401 -0.601098 1.642917
0.69901901 -0.59391397 1.6365371
0.70534599 -0.60199797 1.635617
0.70415604 -0.59538698 1.629087
0.708552 -0.60271299 1.6281971
0.69747001 -0.60049498 1.620423
0.71124601 -0.604518 1.6206821
0.708758 -0.60746104 1.613636
0.70408499 -0.61806899 1.6108209
0.71394801 -0.61761099 1.6054511
0.71386904 -0.62898397 1.602291
0.72122401 -0.61954397 1.597558
0.72810698 -0.62808603 1.5965469
0.71231496 -0.64372003 1.593964
0.69780296 -0.659244 1.5912491
0.70931506 -0.62436301 1.589308
0.72979498 -0.62736696 1.5906199
0.73141801 -0.63862097 1.589774
0.723535 -0.65262002 1.58775
0.73366404 -0.66315299 1.58517
0.71723002 -0.63201302 1.583382
0.73664701 -0.636262 1.584417
0.72611099 -0.65387201 1.580934
0.738033 -0.66336799 1.5800791
0.74253601 -0.67506105 1.5782551
0.74692595 -0.68653399 1.5769699
0.722781 -0.64311999 1.5769159
0.72498804 -0.65671098 1.5739011
0.73494005 -0.66601896 1.573369
0.75115997 -0.67429298 1.5728769
0.75352305 -0.68498701 1.5723571
0.74985099 -0.69597298 1.5710361
0.73448503 -0.66713697 1.566653
0.75271696 -0.67284799 1.5669769
0.75682998 -0.68407202 1.5659339
0.76169097 -0.69409299 1.5656658
0.74364197 -0.67726499 1.559603
0.75454402 -0.68422502 1.5594571
0.76286203 -0.69479501 1.558116
0.76847702 -0.70732301 1.5580239
0.75712305 -0.68659103 1.5529339
0.766927 -0.69480205 1.5517911
0.77099901 -0.70647001 1.550663
0.79317498 -0.72459501 1.5503659
0.76696295 -0.69652998 1.545621
0.77161002 -0.70709604 1.5426111
0.76225901 -0.70055097 1.537814
0.76452798 -0.710675 1.5351011
0.78077596 -0.71578902 1.536075
0.70308095 -0.59669 1.638227
0.70549303 -0.597574 1.6326571
0.70731795 -0.60837501 1.6301169
0.70792198 -0.60060197 1.6252469
0.71707606 -0.60923499 1.624037
0.71007204 -0.61863899 1.622987
0.70999199 -0.60236001 1.6170191
0.71331596 -0.60987902 1.6178089
0.71981001 -0.61906797 1.616468
0.69973701 -0.60541701 1.609041
0.71597397 -0.61097598 1.610522
0.72749197 -0.62028903 1.6095841
0.724935 -0.63047099 1.60832
0.712623 -0.61279798 1.6027631
0.72478503 -0.61970699 1.603689
0.73104697 -0.63041198 1.602193
0.72636598 -0.64060599 1.6014071
0.70529699 -0.616445 1.594709
0.72438598 -0.62193799 1.5961081
0.73657 -0.63164002 1.5952469
0.74043602 -0.64040399 1.5953408
0.70924795 -0.62631202 1.587881
0.73071098 -0.632267 1.588546
0.73651296 -0.64275599 1.587775
0.72406405 -0.656739 1.584758
0.71946406 -0.636087 1.581264
0.73383403 -0.64307702 1.581569
0.73646402 -0.65516603 1.5793579
0.73405504 -0.66762102 1.5774319
0.73332703 -0.64663297 1.5746109
0.74407899 -0.656111 1.5729461
0.747549 -0.66598201 1.572621
0.73910499 -0.67987704 1.569957
0.73808402 -0.69060701 1.5678619
0.73921895 -0.657628 1.567132
0.74935603 -0.66617602 1.5666211
0.74835604 -0.67752701 1.565676
0.74355906 -0.690781 1.5625879
0.73310602 -0.67027998 1.5597229
0.74774301 -0.67992699 1.559113
0.73969197 -0.69542503 1.5549021
0.75312304 -0.70351601 1.5552781
0.73269796 -0.698156 1.548427
0.75681502 -0.70322305 1.5498661
0.75074899 -0.70633799 1.542778
0.70377702 -0.59557402 1.6414771
0.70011401 -0.60563397 1.639807
0.71004099 -0.59702301 1.6355469
0.71191496 -0.60543597 1.6349969
0.705643 -0.59956402 1.627157
0.70985603 -0.60720801 1.6279471
0.71653199 -0.61457098 1.6280271
0.706393 -0.600227 1.620085
0.707102 -0.60777801 1.6209799
0.71836996 -0.61608201 1.620598
0.69210702 -0.60266995 1.612658
0.70749497 -0.60944301 1.6139151
0.72257102 -0.61821002 1.613456
0.722498 -0.62624002 1.6131641
0.69994795 -0.61143601 1.6068139
0.72648001 -0.61750299 1.608217
0.72675794 -0.628398 1.6061389
0.72796094 -0.62032598 1.6008499
0.74044603 -0.62967801 1.600112
0.73222804 -0.64179605 1.59812
0.73236603 -0.65419 1.595847
0.720429 -0.62369001 1.5926919
0.73869103 -0.63013101 1.593873
0.73890299 -0.64026904 1.593488
0.74022597 -0.65239 1.5915951
0.73054397 -0.664698 1.589332
0.731318 -0.63255 1.5866071
0.74033093 -0.64195198 1.5867169
0.74943805 -0.65213996 1.586327
0.74686098 -0.66282099 1.5848939
0.74174005 -0.67224503 1.584075
0.73832202 -0.64360297 1.578933
0.74508905 -0.65370798 1.579288
0.75232202 -0.66330701 1.579046
0.75425905 -0.67166704 1.578482
0.728365 -0.64654803 1.57103
0.73931396 -0.65426099 1.571641
0.75255305 -0.66420501 1.5723401
0.75191396 -0.67524904 1.5701261
0.72118795 -0.65683901 1.564343
0.74598396 -0.66494697 1.5654089
0.75553 -0.67568702 1.5644089
0.750211 -0.687006 1.561792
0.75483596 -0.67697197 1.5581659
0.75237298 -0.68810302 1.556017
0.75009 -0.69940805 1.554298
0.72653902 -0.68659103 1.5447971
0.75049698 -0.68996203 1.5487039
0.75588202 -0.69984299 1.548895
0.74696505 -0.69224405 1.5416629
0.756607 -0.70034301 1.542233
0.75095904 -0.70295602 1.5351169
0.704135 -0.59232801 1.6437269
0.70789999 -0.59541899 1.635847
0.70816499 -0.597902 1.629097
0.70609999 -0.60673201 1.6280469
0.71177697 -0.59907103 1.6232269
0.71154195 -0.60829496 1.6224769
0.70550597 -0.61820704 1.6210279
0.70332199 -0.60076803 1.615298
0.71760005 -0.60896301 1.616333
0.71987998 -0.61904097 1.6159669
0.71119004 -0.62808102 1.614616
0.71721494 -0.61055398 1.609374
0.71822405 -0.619012 1.6096579
0.72694802 -0.62893301 1.608786
0.71397799 -0.61319 1.602362
0.72404295 -0.62081403 1.6033969
0.73234594 -0.63121104 1.601617
0.73017997 -0.63923901 1.601316
0.724374 -0.623586 1.596512
0.73907202 -0.63235301 1.5961231
0.74105799 -0.64144796 1.595058
0.74039 -0.63447702 1.589866
0.74334198 -0.64370596 1.588859
0.74409795 -0.65482104 1.587132
0.73801303 -0.66723996 1.5846859
0.73339897 -0.63720298 1.581841
0.74439001 -0.64551401 1.582462
0.75084096 -0.65661597 1.581684
0.75108701 -0.66632301 1.581624
0.75652003 -0.67663902 1.580327
0.73129404 -0.64713502 1.5747299
0.75542098 -0.65603995 1.5760989
0.75665396 -0.66796899 1.5756439
0.75685602 -0.67938697 1.574133
0.750907 -0.68740404 1.573355
0.74342597 -0.65783399 1.5686619
0.75490999 -0.66780996 1.5686059
0.75965399 -0.67907798 1.5683951
0.75783402 -0.68932098 1.5674609
0.74072897 -0.67017198 1.560797
0.76230401 -0.67917299 1.562096
0.76096803 -0.689601 1.5615851
0.760737 -0.70193499 1.559381
0.74421203 -0.68224901 1.5535309
0.76437402 -0.69167101 1.5549539
0.769418 -0.70237899 1.5545419
0.75769097 -0.69358301 1.546779
0.77027601 -0.70333505 1.54844
0.74891001 -0.69633299 1.5384049
0.77303296 -0.70303702 1.5414129
0.80060202 -0.73342496 1.541635
0.76552099 -0.70509803 1.5338291
0.71661001 -0.72356302 1.560842
0.71115404 -0.72778505 1.558566
0.70941705 -0.729065 1.555075
0.71160203 -0.73483902 1.550076
0.71063697 -0.73577303 1.5456231
0.713561 -0.72682798 1.545071
0.71701205 -0.73153901 1.540743
0.67216599 -0.63320398 1.678317
0.65805 -0.63865799 1.6791071
0.66312701 -0.63468599 1.6759369
0.67975599 -0.62567401 1.6351669
0.66131103 -0.63396597 1.636777
0.667436 -0.63532299 1.632957
0.663939 -0.63247102 1.6335269
0.67512 -0.63676202 1.628477
0.66825402 -0.63615102 1.628857
0.66523099 -0.631666 1.629337
0.68149 -0.641738 1.622467
0.66964304 -0.64282399 1.624637
0.66860002 -0.635934 1.6249069
0.66643697 -0.63061899 1.624927
0.67478102 -0.64714301 1.619523
0.66777802 -0.64421999 1.6212219
0.67383796 -0.63192099 1.620692
0.67986101 -0.61991602 1.6203171
0.68048102 -0.65130401 1.614424
0.67453694 -0.64885694 1.6156241
0.67292506 -0.64277494 1.616187
0.687325 -0.65662694 1.608524
0.66986001 -0.66170502 1.611266
0.67347503 -0.65085196 1.6116339
0.66932899 -0.647246 1.6114329
0.67552298 -0.66499901 1.6064749
0.67273802 -0.65907896 1.607733
0.67233396 -0.65175402 1.607419
0.67891198 -0.640441 1.6062689
0.68925303 -0.66317099 1.6005828
0.67950404 -0.66375399 1.6015171
0.671767 -0.66051 1.6037799
0.67637604 -0.64986396 1.6031079
0.699476 -0.66616797 1.59407
0.68426102 -0.66882598 1.5967569
0.68188798 -0.66285205 1.597404
0.67777395 -0.65827101 1.598398
0.70213896 -0.67362601 1.5894439
0.69026101 -0.67388099 1.591647
0.68312299 -0.67085403 1.5931281
0.67969495 -0.66530901 1.5938629
0.68743104 -0.65290099 1.592605
0.70435095 -0.68170702 1.585048
0.68800598 -0.68457901 1.587774
0.69194394 -0.67377198 1.587805
0.682428 -0.67209899 1.5894361
0.68589598 -0.66170901 1.58901
0.70690298 -0.68905097 1.5805991
0.69425005 -0.68974 1.582785
0.68757105 -0.68607497 1.583509
0.68656504 -0.677867 1.584847
0.69066 -0.66709 1.584307
0.70156199 -0.69360703 1.577721
0.69223702 -0.69140899 1.578862
0.68709701 -0.68649697 1.5797589
0.68429297 -0.68108398 1.5805889
0.72255206 -0.69933504 1.569183
0.70585704 -0.70083201 1.572572
0.69709605 -0.69743204 1.5742309
0.693555 -0.69156504 1.574375
0.68879503 -0.686257 1.5755649
0.70054603 -0.67144698 1.573573
0.73148102 -0.709692 1.563792
0.71575701 -0.711658 1.5666559
0.71250898 -0.70490402 1.5680259
0.70335406 -0.70200998 1.5690939
0.69677597 -0.69701302 1.570394
0.69204497 -0.69219202 1.570851
0.69430298 -0.68315101 1.5707159
0.71648598 -0.72015405 1.5626841
0.71101898 -0.715195 1.5636929
0.70707601 -0.70904297 1.565068
0.69962096 -0.70588702 1.565281
0.70102799 -0.69558698 1.5653939
0.702007 -0.68659502 1.5654361
0.70987201 -0.72582102 1.5598661
0.70829999 -0.71877098 1.560172
0.70722699 -0.70978498 1.560396
0.69894302 -0.70578003 1.5614239
0.71129 -0.68960297 1.55969
0.71370596 -0.73086303 1.5549829
0.70578301 -0.72736001 1.5568719
0.71177298 -0.71526903 1.555334
0.709337 -0.70778102 1.555506
0.71423203 -0.69663 1.5549399
0.71339303 -0.73258001 1.550743
0.70987201 -0.72554201 1.5517389
0.71029299 -0.71591496 1.551452
0.72171599 -0.70063299 1.549659
0.718539 -0.71975404 1.546277
0.72543997 -0.70632696 1.545525
0.65112901 -0.63356096 1.6774369
0.65339202 -0.62513697 1.676767
0.65023696 -0.62099999 1.677027
0.659042 -0.62680399 1.673237
0.64955598 -0.62750399 1.673777
0.65330201 -0.61831099 1.673277
0.66056997 -0.60617501 1.6721569
0.65854502 -0.61970901 1.6698771
0.655316 -0.61473799 1.6695169
0.66076899 -0.60426199 1.6685871
0.65973097 -0.61013103 1.6655569
0.65884399 -0.60379297 1.6654969
0.67348295 -0.60002899 1.6606669
0.64856696 -0.60969698 1.662477
0.65582198 -0.627644 1.6433371
0.64751506 -0.62649202 1.6443671
0.64365995 -0.620547 1.645497
0.658553 -0.62607104 1.640357
0.64713305 -0.62710798 1.641457
0.64214498 -0.62251699 1.6413668
0.64559603 -0.63430804 1.638227
0.64473504 -0.62864602 1.6376871
0.64308095 -0.62245297 1.6373971
0.64151603 -0.615924 1.638327
0.66299599 -0.63322496 1.630717
0.65049398 -0.633026 1.6330771
0.64594197 -0.62791002 1.6335471
0.64837301 -0.61884099 1.6334369
0.66128403 -0.60470796 1.6324069
0.66767097 -0.63683802 1.627117
0.65864402 -0.636136 1.628217
0.65008104 -0.63339198 1.6293271
0.65225303 -0.62382001 1.629377
0.66262299 -0.61044496 1.6287671
0.68181604 -0.63621199 1.6210639
0.660954 -0.64188695 1.6240469
0.65507799 -0.63828897 1.6249369
0.65919501 -0.62764299 1.6250769
0.66362602 -0.61679 1.625447
0.66692495 -0.64521599 1.6193039
0.66273397 -0.64093596 1.62008
0.65233099 -0.64023501 1.6216769
0.67947304 -0.64614999 1.6132239
0.67075205 -0.64529002 1.614628
0.66463 -0.64205199 1.615692
0.66210294 -0.636949 1.6160769
0.67453402 -0.64889699 1.6108329
0.66812205 -0.64671403 1.611398
0.66443998 -0.64192498 1.611818
0.67751801 -0.628411 1.610261
0.66770101 -0.65390402 1.6074899
0.669433 -0.64601701 1.6072431
0.67332602 -0.63717699 1.6070819
0.69273597 -0.65546399 1.5991849
0.67534697 -0.65826696 1.601956
0.67338097 -0.65168405 1.602706
0.67155701 -0.64587504 1.6032269
0.718831 -0.65753305 1.591732
0.70140803 -0.66082299 1.5940421
0.68031901 -0.66366202 1.597513
0.67589897 -0.65811801 1.598524
0.67878199 -0.64901298 1.598634
0.69015998 -0.63598096 1.5974981
0.698457 -0.66824096 1.5915461
0.68272001 -0.67005098 1.5933051
0.677827 -0.66439003 1.5943451
0.66827798 -0.66266096 1.5960541
0.71108198 -0.66909897 1.5850129
0.687325 -0.67523903 1.588948
0.67863899 -0.67307997 1.5895489
0.67412001 -0.66817397 1.5910071
0.67060095 -0.66375196 1.5912509
0.69111603 -0.67964995 1.584747
0.68309194 -0.67796797 1.585573
0.67292702 -0.67643404 1.5866131
0.67056501 -0.67030996 1.587386
0.67570394 -0.66112602 1.586216
0.71355498 -0.68547499 1.575811
0.70415002 -0.68389899 1.5773211
0.68928701 -0.68241304 1.580461
0.67929703 -0.67954904 1.5824649
0.67521101 -0.67461401 1.5828559
0.67920303 -0.66506696 1.5824869
0.68184501 -0.65728498 1.5822229
0.72045195 -0.68959099 1.5712149
0.702519 -0.69182605 1.574438
0.69478798 -0.68834394 1.5757331
0.68938601 -0.68357599 1.5762919
0.68350703 -0.67854398 1.5778329
0.68429804 -0.67059404 1.5779361
0.71671098 -0.69939697 1.5677921
0.70431 -0.69857597 1.570311
0.70069295 -0.69283503 1.571148
0.68886203 -0.69092697 1.5728689
0.68656194 -0.68460298 1.5732061
0.69083703 -0.67535502 1.57301
0.72390503 -0.70573598 1.562032
0.70578694 -0.70581704 1.5660791
0.70063901 -0.70033997 1.56699
0.691751 -0.696518 1.568882
0.69277102 -0.68903899 1.568404
0.69597 -0.68050104 1.568161
0.73433799 -0.71418899 1.5569751
0.717556 -0.71576202 1.5598019
0.71038902 -0.71143305 1.5612838
0.70319003 -0.70679498 1.563096
0.70099902 -0.70129305 1.562753
0.69690299 -0.69532096 1.563918
0.69779998 -0.68766505 1.5640091
0.72525197 -0.71850401 1.555427
0.71184897 -0.71849501 1.55724
0.70298797 -0.71540296 1.558967
0.70439202 -0.70732003 1.55887
0.70477402 -0.69899005 1.5586319
0.71422601 -0.68711001 1.5573879
0.70962501 -0.72704697 1.55378
0.71092004 -0.71982199 1.5532901
0.70244199 -0.71614701 1.5553141
0.70803201 -0.70517099 1.554512
0.70921797 -0.69650298 1.554943
0.71254206 -0.733329 1.548902
0.716923 -0.72338599 1.5485181
0.70253503 -0.72262102 1.551455
0.70402604 -0.71591401 1.5508319
0.71414298 -0.72675598 1.54487
0.71342498 -0.71900004 1.5452631
0.72140902 -0.70958298 1.543394
0.71915102 -0.72353101 1.540215
0.72952402 -0.712102 1.538458
0.73368204 -0.71664298 1.534364
0.65337896 -0.62953901 1.679917
0.65698504 -0.61506999 1.679787
0.66221398 -0.606552 1.679307
0.66618502 -0.62217098 1.6758771
0.64831197 -0.62563002 1.676917
0.65733397 -0.61519504 1.6762869
0.65362501 -0.60948396 1.676087
0.66275001 -0.61706299 1.672947
0.65665299 -0.61300302 1.672637
0.65402102 -0.60778803 1.6723871
0.66098297 -0.610493 1.6694471
0.65359998 -0.60831499 1.6695569
0.65873802 -0.60412699 1.6661371
0.66601098 -0.60706902 1.644487
0.67206597 -0.61055201 1.6401169
0.64706904 -0.61612803 1.642957
0.65156096 -0.61977404 1.6388769
0.64676803 -0.61619097 1.639727
0.64056802 -0.61329603 1.6407471
0.65224403 -0.62700999 1.634037
0.64437503 -0.624942 1.6353369
0.64791399 -0.617185 1.636037
0.63962102 -0.61576903 1.6367669
0.64823198 -0.62960202 1.6315069
0.643861 -0.62602103 1.632037
0.64319098 -0.62006599 1.632717
0.65311098 -0.61031401 1.631707
0.69226301 -0.62359601 1.622497
0.66667002 -0.62874001 1.625587
0.64766097 -0.63017797 1.628517
0.64770401 -0.62410802 1.6285269
0.64890099 -0.61769903 1.6287971
0.67235702 -0.63252497 1.621824
0.66374606 -0.63142502 1.6224469
0.655958 -0.62783796 1.6239669
0.651577 -0.62326401 1.624897
0.68971497 -0.63188398 1.6150769
0.66670996 -0.63588101 1.618562
0.66491699 -0.63056302 1.6190209
0.66371804 -0.62487298 1.6197659
0.66820395 -0.64101797 1.61448
0.66966105 -0.63452703 1.614625
0.65764898 -0.633802 1.616557
0.67778897 -0.64518899 1.60864
0.66548103 -0.644512 1.610744
0.66438502 -0.63869101 1.6113479
0.66493696 -0.63270903 1.611398
0.68261099 -0.64916903 1.604641
0.66934198 -0.64907998 1.606758
0.66785598 -0.64354104 1.6071521
0.66758597 -0.63717198 1.6072809
0.67888099 -0.62739599 1.605841
0.67158401 -0.65379697 1.6032379
0.67314601 -0.64789701 1.602831
0.67206496 -0.64159501 1.602921
0.67482495 -0.63459098 1.60289
0.69489306 -0.65234596 1.5950321
0.67619002 -0.65347898 1.598489
0.67335296 -0.64804399 1.5989709
0.67515099 -0.64118499 1.5989679
0.70595098 -0.65513802 1.589451
0.68415606 -0.657287 1.593356
0.67626798 -0.65387702 1.594872
0.67901999 -0.64616501 1.594852
0.69494903 -0.63387799 1.5930539
0.70897204 -0.66126704 1.5851151
0.68551999 -0.66352403 1.589173
0.68072802 -0.65858197 1.590781
0.67916101 -0.65363604 1.5907769
0.70924103 -0.668392 1.581181
0.69495398 -0.66731399 1.5839161
0.69021106 -0.66264999 1.5845779
0.681463 -0.659334 1.586987
0.69319701 -0.65000606 1.5848199
0.72139901 -0.67911202 1.5750879
0.71975899 -0.67414397 1.5754761
0.69642305 -0.67433298 1.5797879
0.69072098 -0.66866797 1.5811161
0.68733597 -0.66376996 1.581671
0.687024 -0.65860802 1.5820279
0.71065104 -0.68316197 1.573891
0.702528 -0.67979205 1.575392
0.697694 -0.67511803 1.5758771
0.69060099 -0.67067301 1.5773278
0.68851602 -0.66421503 1.578027
0.69735003 -0.65568 1.576474
0.71787906 -0.69428802 1.5679899
0.70333505 -0.69272202 1.570945
0.69799501 -0.68749297 1.5729151
0.69672698 -0.68169504 1.572767
0.69137704 -0.67664701 1.5734009
0.68476796 -0.672077 1.5746921
0.69445902 -0.66253698 1.5734351
0.72460902 -0.69936097 1.5631149
0.70510805 -0.69944602 1.5670221
0.70042998 -0.694664 1.5676919
0.69882697 -0.68791497 1.5690329
0.69412696 -0.68250602 1.569355
0.68738699 -0.67788297 1.570428
0.69383597 -0.66939199 1.5697879
0.73242497 -0.70412695 1.5578079
0.70706397 -0.705549 1.562809
0.70371699 -0.69989306 1.564074
0.69472605 -0.69682002 1.565156
0.69255304 -0.69049597 1.565972
0.68808997 -0.68473506 1.566584
0.69661599 -0.67552298 1.5654911
0.72115999 -0.71463698 1.555892
0.71298897 -0.71098 1.557919
0.70115399 -0.70825499 1.55989
0.70338404 -0.70014703 1.5602729
0.69415498 -0.69595701 1.5620849
0.700495 -0.68748003 1.5606689
0.70783895 -0.67871594 1.559641
0.71257597 -0.71816003 1.554041
0.70612198 -0.71289903 1.555679
0.697303 -0.70959395 1.5572629
0.69770795 -0.70349294 1.5572879
0.70244795 -0.694157 1.5568759
0.71498299 -0.68334097 1.5547448
0.721035 -0.72268301 1.5487729
0.71445394 -0.71898103 1.5499569
0.70620596 -0.71468598 1.551875
0.70040804 -0.70914805 1.553284
0.70818603 -0.69931704 1.552148
0.72316498 -0.68702298 1.5499939
0.71347296 -0.72488195 1.546473
0.70606005 -0.72036397 1.5483639
0.70359999 -0.71486604 1.5487629
0.711474 -0.70597196 1.547583
0.71344805 -0.72548598 1.5427389
0.70904404 -0.72031897 1.544013
0.713772 -0.71255302 1.5432969
0.72090501 -0.724002 1.53765
0.72920603 -0.71509498 1.536207
0.67393994 -0.60705501 1.6740271
0.67350996 -0.61862803 1.6747971
0.67379302 -0.60493398 1.6655771
0.67231399 -0.61656797 1.6663871
0.68502599 -0.59517896 1.659497
0.669554 -0.60558105 1.6591971
0.67079103 -0.61650199 1.658497
0.66037697 -0.62457901 1.658587
0.67147905 -0.60773897 1.6532471
0.67146897 -0.61830801 1.6514969
0.67557001 -0.628492 1.650957
0.671736 -0.61142898 1.646027
0.67720598 -0.62148303 1.645187
0.67553198 -0.63138503 1.6435668
0.65996397 -0.63722301 1.644057
0.678132 -0.62344599 1.6381369
0.68581599 -0.63386399 1.636957
0.68791097 -0.64209396 1.637867
0.67403603 -0.62396598 1.6310669
0.68164003 -0.63298303 1.6311771
0.68951601 -0.64354897 1.630067
0.68568903 -0.63578898 1.6246271
0.69843501 -0.647367 1.6226871
0.687819 -0.65328199 1.622927
0.688721 -0.63945204 1.6169181
0.70398301 -0.64995003 1.6160229
0.69777399 -0.65612704 1.616801
0.70765197 -0.65135103 1.609641
0.71032405 -0.65953302 1.6096219
0.69398099 -0.65128303 1.602025
0.70629203 -0.66024804 1.602963
0.70837599 -0.67069399 1.6012201
0.68125397 -0.65078002 1.5961859
0.70924103 -0.66313499 1.5969739
0.71906096 -0.67438298 1.595889
0.72102201 -0.684264 1.5941681
0.720577 -0.67663103 1.590217
0.72166002 -0.68693805 1.588017
0.72770697 -0.69735301 1.587301
0.72665703 -0.680731 1.582424
0.72944903 -0.69071698 1.5819321
0.73651999 -0.701545 1.581756
0.72650498 -0.70805097 1.581435
0.71972102 -0.68086404 1.5751719
0.72880602 -0.69001698 1.5756431
0.73550004 -0.70128995 1.57564
0.74434602 -0.71204805 1.5757779
0.72342902 -0.690521 1.5692379
0.73855001 -0.70079398 1.569851
0.74144399 -0.71302694 1.5685409
0.73636198 -0.70389295 1.5629081
0.71932101 -0.70375198 1.556033
0.69240898 -0.60495096 1.675477
0.69050401 -0.617235 1.676487
0.680448 -0.62397802 1.6754171
0.68044198 -0.60091299 1.6675071
0.68103999 -0.61408401 1.6689969
0.663912 -0.619721 1.668577
0.67309797 -0.59942502 1.6603971
0.67371202 -0.61097902 1.6617371
0.66835403 -0.62024701 1.6616769
0.668863 -0.61121398 1.654487
0.67413598 -0.62170702 1.6541569
0.66991401 -0.61259496 1.6475769
0.670587 -0.62163699 1.646867
0.67245203 -0.61509901 1.6402169
0.675484 -0.62291902 1.6400769
0.66331899 -0.61366498 1.6346869
0.67071897 -0.62289101 1.6348871
0.73178297 -0.70695394 1.5742199
0.726928 -0.71447998 1.573275
0.73839498 -0.70865095 1.569682
0.74238098 -0.71007401 1.5633521
0.74089205 -0.71039599 1.556978
0.68072504 -0.61538702 1.6799868
0.670398 -0.61216903 1.6724869
0.67593199 -0.60301101 1.664767
0.66592002 -0.61073798 1.663947
0.67781502 -0.60226399 1.657607
0.67288804 -0.61239201 1.657997
0.66983902 -0.62105799 1.6565671
0.67500901 -0.61409801 1.651177
0.67618501 -0.62528998 1.649057
0.68391502 -0.61998296 1.643147
0.68013197 -0.62861097 1.6413071
0.67740995 -0.620103 1.635407
0.68548697 -0.63114601 1.635217
0.68593597 -0.64072305 1.6339371
0.6943 -0.62743402 1.629017
0.68846804 -0.63453203 1.6283371
0.69811404 -0.64739197 1.6265271
0.69194001 -0.63847101 1.6212909
0.701446 -0.65007001 1.62067
0.69466203 -0.65656197 1.6195481
0.69442803 -0.64147401 1.6139151
0.69463801 -0.64930803 1.614364
0.69880402 -0.65943396 1.61281
0.70343596 -0.65426999 1.6066749
0.70520401 -0.66287696 1.6062601
0.70107806 -0.65566903 1.5981299
0.70526904 -0.66487902 1.598873
0.70335996 -0.65805298 1.591888
0.704337 -0.66611701 1.592255
0.715038 -0.68064696 1.5910629
0.70505303 -0.68855202 1.58966
0.70542997 -0.66984004 1.5856369
0.72586799 -0.686737 1.5850799
0.71931505 -0.69418406 1.5845701
0.72819102 -0.68834394 1.5787839
0.72578299 -0.69709998 1.578841
0.72736394 -0.70858496 1.577394
0.72643399 -0.689942 1.5714731
0.72890502 -0.70047206 1.571357
0.72340798 -0.71936601 1.570876
0.72697502 -0.69208395 1.5649331
0.73259902 -0.70297301 1.564314
0.72507894 -0.70217794 1.5583329
0.73845297 -0.71467298 1.5589579
0.677957 -0.60864604 1.6743671
0.67246598 -0.61993098 1.676177
0.68248999 -0.59759498 1.667117
0.67000699 -0.60765302 1.667007
0.66433299 -0.61619401 1.6680969
0.67237395 -0.60905099 1.6592669
0.66471499 -0.61585402 1.6605771
0.67361504 -0.609842 1.6530069
0.67213202 -0.61922503 1.652287
0.67797399 -0.61455798 1.6451269
0.68146795 -0.625606 1.6429669
0.68022799 -0.61813802 1.6367669
0.68476099 -0.62819302 1.6365371
0.681867 -0.636222 1.635587
0.67180002 -0.61595297 1.629697
0.68941098 -0.63137901 1.6303769
0.69304496 -0.643152 1.6280271
0.69507402 -0.63565397 1.623257
0.693959 -0.64568001 1.6210699
0.69298303 -0.65497202 1.6204669
0.69984496 -0.64032501 1.615515
0.69915301 -0.64976799 1.6139599
0.69731498 -0.65786201 1.61414
0.70351702 -0.64359999 1.6082181
0.70578599 -0.65288597 1.6075549
0.69775599 -0.65885496 1.606944
0.70744598 -0.65517199 1.601181
0.71217102 -0.66786695 1.598689
0.70957398 -0.65983003 1.593192
0.71707898 -0.67299002 1.59192
0.708592 -0.67972803 1.5909711
0.71921301 -0.67547798 1.586391
0.72089696 -0.686391 1.5856118
0.71860498 -0.69588304 1.584738
0.72979701 -0.69149202 1.579218
0.72177398 -0.69821405 1.579133
0.72231001 -0.708525 1.5777469
0.72306097 -0.69167 1.5715271
0.732898 -0.70427001 1.5723701
0.73276603 -0.69751096 1.5655881
0.73986101 -0.70960999 1.565616
0.74360198 -0.71322 1.5587931
0.73926002 -0.71363902 1.5505819
0.72068197 -0.71920604 1.536642
0.68179399 -0.61116999 1.679677
0.676036 -0.60573202 1.670067
0.68135297 -0.59785497 1.661597
0.67462599 -0.60566801 1.6621469
0.67509401 -0.60639 1.655827
0.68048894 -0.60897702 1.650457
0.70229602 -0.64282304 1.6263669
0.70414901 -0.64477098 1.6216559
0.70206296 -0.65246499 1.6210431
0.709243 -0.64791298 1.615576
0.71009499 -0.65766197 1.614189
0.70869303 -0.64943004 1.6071479
0.71328902 -0.66100502 1.6068261
0.68867797 -0.65806299 1.6082001
0.70942497 -0.64969903 1.599926
0.71254802 -0.661098 1.5998
0.71861899 -0.67585099 1.5987461
0.70813203 -0.650846 1.5927529
0.72292799 -0.66928899 1.5924929
0.72822601 -0.68339598 1.5924079
0.72017401 -0.68844002 1.5928321
0.72207606 -0.66963202 1.5851041
0.72961897 -0.683806 1.585797
0.73000699 -0.69390404 1.586756
0.72495103 -0.67284203 1.5767441
0.72767502 -0.68266195 1.5785089
0.73282301 -0.69571096 1.5787131
0.71216601 -0.66911298 1.5692511
0.73270398 -0.68793702 1.5710019
0.73839599 -0.70231104 1.5701529
0.72178298 -0.68530405 1.563615
0.74252099 -0.70602798 1.5639679
0.741822 -0.70804805 1.5574969
0.69950104 -0.69969296 1.5740271
0.70616698 -0.72275597 1.5588421
0.71755499 -0.70673597 1.575755
0.71268201 -0.69995695 1.5764569
0.70626998 -0.69389606 1.576363
0.70170999 -0.68818903 1.576658
0.68998098 -0.686243 1.569518
0.68404698 -0.68266195 1.56752
0.713296 -0.71962899 1.558044
0.71039701 -0.71203303 1.562535
0.70575202 -0.70578903 1.5618631
0.70356399 -0.69704598 1.566725
0.69940299 -0.68860102 1.568411
0.69565302 -0.68098396 1.570362
0.69188696 -0.67633301 1.570145
0.70973396 -0.73157901 1.541886
0.71023905 -0.72351301 1.546788
0.70902395 -0.71391797 1.552673
0.706101 -0.70574498 1.5544699
0.70657206 -0.69457102 1.561874
0.70690101 -0.68238503 1.5682238
0.69882601 -0.67835099 1.567222
0.69972098 -0.66981298 1.57163
0.70960999 -0.73952204 1.5309809
0.71868795 -0.72633398 1.5434369
0.718068 -0.71672302 1.548105
0.71223098 -0.70987701 1.5495209
0.71022904 -0.70149004 1.5528171
0.711514 -0.68958902 1.560636
0.71451598 -0.67625505 1.5702749
0.70983297 -0.66977203 1.57199
0.71265101 -0.65946001 1.579245
0.72572303 -0.72186601 1.542395
0.72079694 -0.715841 1.5426899
0.717408 -0.70726895 1.5472651
0.71991503 -0.69424498 1.5570059
0.73604894 -0.71429801 1.5466861
0.73798501 -0.70322901 1.55474
0.65649694 -0.62499499 1.6793671
0.65200204 -0.61911899 1.677797
0.65970999 -0.622159 1.675047
0.65347296 -0.61733401 1.672527
0.65417701 -0.60849303 1.6784369
0.65774804 -0.61361003 1.670167
0.65477699 -0.60626501 1.671947
0.66000396 -0.61226797 1.6634171
0.65310502 -0.60766602 1.6615272
0.67325801 -0.60925901 1.665947
0.65965402 -0.61121297 1.6548169
0.68678594 -0.62060499 1.6568271
0.67717797 -0.61951697 1.651027
0.65970701 -0.62036002 1.639977
0.65657401 -0.612306 1.6427469
0.69403195 -0.62422597 1.652357
0.67491603 -0.62898201 1.636577
0.664711 -0.62658697 1.6312571
0.66203004 -0.617845 1.6345569
0.65803599 -0.61161596 1.636097
0.678361 -0.63417602 1.628927
0.66820097 -0.63281101 1.6223168
0.66693097 -0.62322801 1.627467
0.65959704 -0.61957598 1.624487
0.66283697 -0.60822701 1.634227
0.67479104 -0.64275098 1.6157789
0.66732901 -0.64098501 1.611109
0.66510999 -0.63532299 1.612595
0.66247004 -0.62817001 1.6152741
0.664518 -0.61605203 1.624517
0.66813302 -0.60240102 1.634897
0.71536005 -0.73691905 1.5199209
0.65071297 -0.61384201 1.679917
0.65579599 -0.61703604 1.677197
0.65301698 -0.61141604 1.6760269
0.65060896 -0.60626596 1.674487
0.65730304 -0.609231 1.674167
0.659284 -0.60802603 1.6675571
0.67205596 -0.60803902 1.6717969
0.65407801 -0.61460298 1.6401471
0.65266299 -0.60868502 1.6415069
0.66458201 -0.61791903 1.639587
0.65643603 -0.61522204 1.6335969
0.65371495 -0.60965401 1.634437
0.66380799 -0.624825 1.6274469
0.661529 -0.61938101 1.6285369
0.65823305 -0.61359197 1.629467
0.65744501 -0.60728198 1.6315069
0.66775495 -0.63055199 1.620098
0.66698503 -0.624156 1.6242371
0.66293299 -0.61991197 1.621545
0.66086197 -0.61330104 1.6238971
0.66253096 -0.60577202 1.629787
0.67021894 -0.63725001 1.6112649
0.668001 -0.63187599 1.6120621
0.667117 -0.62495202 1.615921
0.66734701 -0.61771703 1.6193161
0.67387301 -0.60885698 1.630527
0.69697499 -0.64205706 1.625757
0.68157899 -0.64084399 1.612847
0.67274803 -0.636742 1.6066929
0.67268699 -0.62897998 1.6110901
0.67075801 -0.62253898 1.613011
0.67140603 -0.61671901 1.6160018
0.69588798 -0.64956003 1.6138669
0.68184602 -0.64758104 1.6025229
0.67586601 -0.64256799 1.600587
0.67374396 -0.63733399 1.5996879
0.67139798 -0.63132101 1.600641
0.67729497 -0.62158799 1.612141
0.69275004 -0.60987699 1.632347
0.71452498 -0.658355 1.6195859
0.70483702 -0.65592903 1.6114841
0.68585604 -0.65400004 1.5957221
0.67774004 -0.64949602 1.5898371
0.67953002 -0.64180201 1.596819
0.67939103 -0.63490897 1.5986911
0.68282205 -0.62708902 1.6061161
0.70369005 -0.66142404 1.6024569
0.68824995 -0.66018796 1.587726
0.68329901 -0.65376699 1.586259
0.68101603 -0.64814699 1.5866339
0.68147796 -0.64128 1.5903959
0.69273299 -0.63044602 1.6044791
0.71122599 -0.61953497 1.6243969
0.71518701 -0.67344904 1.5978259
0.70711702 -0.66999799 1.591904
0.69509298 -0.66551697 1.5846699
0.685184 -0.66200995 1.5762491
0.69122201 -0.65269995 1.585682
0.68751407 -0.64598298 1.5868859
0.68795896 -0.63858199 1.589818
0.69868201 -0.62895101 1.603506
0.71042001 -0.68278503 1.581962
0.69866401 -0.67876601 1.574464
0.69702202 -0.67172503 1.5759579
0.69013298 -0.66632199 1.5729599
0.693479 -0.65875 1.577998
0.69127601 -0.65291494 1.5777099
0.69449997 -0.64430898 1.586329
0.70268202 -0.63359499 1.599507
0.70679396 -0.69020599 1.569207
0.70355004 -0.68406099 1.5693649
0.70445096 -0.67635 1.57418
0.70448095 -0.66964895 1.575253
0.69660795 -0.664621 1.5720481
0.70158094 -0.65625 1.578891
0.703219 -0.64923596 1.583846
0.71824801 -0.70213699 1.567251
0.70458102 -0.69846201 1.5572339
0.70787001 -0.69006598 1.5636191
0.70205301 -0.68488199 1.5607849
0.70815003 -0.67592204 1.5697219
0.70494199 -0.66947198 1.569211
0.70534205 -0.66244698 1.5730671
0.71595705 -0.65232003 1.586908
0.72660798 -0.710531 1.565482
0.70858198 -0.70982301 1.5500599
0.71337599 -0.70274198 1.557767
0.71330398 -0.69593 1.559271
0.70973396 -0.68999898 1.558413
0.71299005 -0.68235898 1.5644089
0.707753 -0.67676198 1.56173
0.70812899 -0.66847199 1.567197
0.71960604 -0.65774596 1.5821689
0.71450895 -0.70828599 1.5502579
0.71231103 -0.70326698 1.5503089
0.708507 -0.69796401 1.546837
0.714849 -0.68894601 1.5561451
0.72160304 -0.679932 1.564975
0.73606795 -0.67105794 1.579762
0.71590304 -0.70150101 1.546901
0.71378899 -0.69564104 1.545473
0.72761595 -0.68488997 1.5621151
0.74100602 -0.67461401 1.577901
0.72056603 -0.69888198 1.5446991
0.730802 -0.69102997 1.5559729
0.74183601 -0.69324899 1.5596539
0.70358199 -0.60160196 1.679507
0.69607699 -0.61078501 1.6764969
0.695059 -0.63300002 1.6761969
0.67919701 -0.60679603 1.6781571
0.67817497 -0.60604197 1.6661969
0.68265402 -0.608895 1.6532969
0.70355105 -0.62372702 1.637247
0.70245302 -0.63567698 1.6344268
0.662229 -0.60266703 1.660477
0.71115899 -0.62577897 1.625157
0.71105498 -0.63607603 1.622647
0.70812798 -0.64740098 1.62134
0.71177 -0.62910402 1.6156329
0.72034502 -0.63993502 1.607139
0.73061997 -0.65235299 1.5978409
0.72683799 -0.66235703 1.5996939
0.73710603 -0.67599195 1.589591
0.71443903 -0.63194001 1.604133
0.72810203 -0.64308405 1.5928611
0.737194 -0.65393603 1.5858029
0.74271005 -0.66533303 1.581447
0.74940902 -0.67816401 1.574367
0.76101404 -0.69187301 1.5646341
0.75902903 -0.70359594 1.564584
0.71943498 -0.64257205 1.5904379
0.73752099 -0.65511805 1.5774131
0.74227303 -0.66777802 1.573228
0.75110197 -0.68094003 1.564568
0.76204801 -0.69422603 1.556353
0.76165396 -0.70422095 1.556554
0.77958798 -0.713682 1.5445939
0.73121399 -0.65485704 1.5724341
0.74014097 -0.66733098 1.5657099
0.749075 -0.68072599 1.557477
0.75296503 -0.69278902 1.554184
0.76154602 -0.70443296 1.5484729
0.77025104 -0.71327102 1.54361
0.722848 -0.65469003 1.570478
0.72843599 -0.66429001 1.566386
0.73517901 -0.67675596 1.560656
0.74669701 -0.69189203 1.550776
0.74824899 -0.70347297 1.5483209
0.73039299 -0.70294899 1.5524341
0.73493201 -0.71182096 1.5428669
0.78402001 -0.71821296 1.5419879
0.73033696 -0.67421997 1.5892169
0.74584699 -0.68951899 1.577108
0.73594999 -0.66589302 1.580629
0.74124098 -0.67714 1.5760471
0.76304197 -0.69435203 1.55953
0.76463205 -0.70767599 1.5554959
0.74062401 -0.65863299 1.5718491
0.74004096 -0.66689301 1.5713669
0.743406 -0.67853796 1.566709
0.75807297 -0.695072 1.5544721
0.758865 -0.707349 1.551447
0.73878998 -0.66705495 1.56459
0.743927 -0.68036199 1.557707
0.75458097 -0.69660896 1.5476309
0.760288 -0.71072096 1.542089
0.71856004 -0.67019302 1.569144
0.74669701 -0.69369102 1.545758
0.75158995 -0.70676202 1.5400391
0.728921 -0.69020796 1.550239
0.71844703 -0.61040199 1.6779571
0.72390902 -0.59950697 1.6696469
0.71145403 -0.60740203 1.674997
0.70990503 -0.61748999 1.675397
0.71736503 -0.59664798 1.665287
0.70476699 -0.60403901 1.670157
0.70386201 -0.61438298 1.670397
0.70943397 -0.593997 1.6608069
0.70238602 -0.60361803 1.662197
0.69718301 -0.60165197 1.6546469
0.68211097 -0.60554296 1.6652969
0.70833701 -0.60662401 1.637557
0.70471001 -0.615376 1.636457
0.69641095 -0.59316003 1.640697
0.71274596 -0.61070901 1.6258271
0.71578103 -0.62264502 1.6193799
0.71465796 -0.61443102 1.6152639
0.72619796 -0.63147402 1.601895
0.743846 -0.651232 1.5855011
0.74491996 -0.66446197 1.581113
0.75048602 -0.69643599 1.5715311
0.75577796 -0.71071297 1.5650409
0.71908796 -0.62943196 1.6001819
0.73976403 -0.65042603 1.5818619
0.751109 -0.66912806 1.5694031
0.75398302 -0.68358099 1.565938
0.75826502 -0.69947302 1.559767
0.72036499 -0.63138503 1.592185
0.748478 -0.65919197 1.5667999
0.74624199 -0.668697 1.5652579
0.75338304 -0.68376601 1.558454
0.759341 -0.70163804 1.549934
0.74501604 -0.670344 1.559397
0.75353998 -0.68684304 1.5495858
0.759947 -0.70235604 1.5411719
0.73732597 -0.69119799 1.5506659
0.71950895 -0.60312098 1.676127
0.71500897 -0.61324799 1.676487
0.71624398 -0.60147101 1.669907
0.71039301 -0.61077499 1.669637
0.70742995 -0.59493196 1.665947
0.698524 -0.60408998 1.6668969
0.68464601 -0.60845399 1.6739569
0.69114405 -0.60142702 1.6617569
0.70046097 -0.60715801 1.644087
0.68244398 -0.60819799 1.6565371
0.695539 -0.59300202 1.643887
0.70959395 -0.612782 1.628347
0.71817595 -0.62918097 1.6174201
0.69716799 -0.59713298 1.6331971
0.71178102 -0.61706799 1.6175419
0.73383105 -0.64005995 1.597807
0.74117798 -0.656416 1.5887951
0.75027198 -0.67721999 1.577153
0.72508299 -0.62764001 1.598188
0.74234802 -0.64807898 1.5824939
0.752231 -0.66705805 1.57189
0.761388 -0.68524003 1.5622909
0.76230001 -0.697676 1.5591409
0.73781699 -0.64616996 1.5777109
