# .PCD v0.7 - Point Cloud Data file format
VERSION 0.7
FIELDS x y z
SIZE 4 4 4
TYPE F F F
COUNT 1 1 1
WIDTH 1288
HEIGHT 1
VIEWPOINT 0 0 0 1 0 0 0
POINTS 1288
DATA ascii
0.65131897 -0.58982104 1.697257
0.64721495 -0.60122699 1.6936969
0.65219599 -0.59795099 1.6942869
0.65957099 -0.59521699 1.699567
0.672867 -0.59925699 1.711727
0.67154604 -0.63959599 1.7241269
0.67817903 -0.63885397 1.729157
0.65114897 -0.60628301 1.6904171
0.65289599 -0.60020804 1.687277
0.66101897 -0.59769601 1.693707
0.68021202 -0.60531896 1.713667
0.66578299 -0.63475299 1.7101769
0.66535497 -0.62756002 1.7061969
0.65172303 -0.60757303 1.6833069
0.65557897 -0.60167903 1.682917
0.66540605 -0.60155398 1.6906971
0.67941302 -0.69704801 1.7489371
0.68296701 -0.69241405 1.7486271
0.67564005 -0.67603797 1.7324469
0.682428 -0.67203403 1.735467
0.68643099 -0.66698098 1.735667
0.66487998 -0.63512796 1.7013669
0.66338205 -0.62433898 1.6944369
0.66110098 -0.60551202 1.681247
0.66847396 -0.60378098 1.684827
0.67504996 -0.69435096 1.737077
0.67089999 -0.68182504 1.726247
0.669788 -0.67139101 1.718407
0.67314601 -0.663683 1.7166071
0.67332804 -0.65305901 1.711097
0.67651802 -0.64639902 1.708617
0.66816705 -0.62977296 1.6920569
0.67943197 -0.61039901 1.688797
0.67894995 -0.70831597 1.739637
0.66860002 -0.688851 1.7205271
0.66818804 -0.678464 1.714967
0.67277604 -0.67229402 1.713357
0.676081 -0.66531801 1.712137
0.67561895 -0.654863 1.7053769
0.67029405 -0.639835 1.6919169
0.66905701 -0.62966704 1.6841971
0.67983401 -0.61136299 1.682777
0.68422699 -0.60422403 1.680197
0.69627702 -0.60190302 1.6883169
0.70352602 -0.59858 1.6924469
0.70595801 -0.59322399 1.691177
0.67675 -0.70574099 1.728727
0.67446703 -0.69401097 1.7195669
0.67535299 -0.68506205 1.716167
0.68057001 -0.67959899 1.714677
0.67745399 -0.66577303 1.7051471
0.68159503 -0.65883499 1.703087
0.67623401 -0.64540398 1.691747
0.67426699 -0.63492501 1.684577
0.68241698 -0.70273697 1.7237369
0.68285501 -0.69282401 1.7180469
0.68912804 -0.688007 1.719317
0.69126099 -0.67775398 1.714897
0.68899697 -0.66550797 1.7053469
0.68496495 -0.65276903 1.6943671
0.679739 -0.638529 1.6825769
0.701285 -0.70813698 1.734767
0.69966203 -0.67304605 1.7108371
0.69215202 -0.65908998 1.6963871
0.68433899 -0.64382899 1.6807269
0.70194101 -0.62593102 1.682537
0.691055 -0.65609199 1.686247
0.72275001 -0.61227798 1.6862671
0.64466399 -0.60168999 1.690167
0.643435 -0.592103 1.6836669
0.64669997 -0.58780199 1.683557
0.64703596 -0.60515803 1.6848871
0.649414 -0.5995 1.683287
0.65154701 -0.59329498 1.6822971
0.64640099 -0.61173803 1.681747
0.65076798 -0.60893101 1.683067
0.66516799 -0.66741502 1.717007
0.66811895 -0.66196901 1.715557
0.67808294 -0.65176302 1.7141769
0.66367203 -0.66602796 1.7088569
0.67101198 -0.66558802 1.7144769
0.66862297 -0.65248597 1.7033169
0.67132401 -0.643709 1.698957
0.69666296 -0.61671299 1.698167
0.70252699 -0.61299002 1.6997769
0.699512 -0.60200804 1.690537
0.67003 -0.67214894 1.708537
0.66999 -0.66400003 1.7055469
0.67486602 -0.65858001 1.7035871
0.67411005 -0.64660597 1.695847
0.67491996 -0.67704904 1.706767
0.67489195 -0.66776901 1.7018371
0.67760801 -0.65831596 1.697117
0.67644304 -0.64506203 1.688277
0.688039 -0.69055098 1.717327
0.68988198 -0.68292099 1.7128869
0.68776202 -0.670026 1.702757
0.68412805 -0.65446997 1.690487
0.68966901 -0.67085195 1.6959469
0.69266802 -0.66556001 1.6955469
0.71500504 -0.62685299 1.721707
0.71943301 -0.647874 1.7220871
0.712484 -0.66639501 1.721877
0.71099699 -0.685072 1.726207
0.71613902 -0.69661498 1.725457
0.71135199 -0.71326602 1.7321171
0.71174502 -0.65333605 1.7121271
0.71371102 -0.66677594 1.712337
0.70569903 -0.68510199 1.7214071
0.70905799 -0.70052201 1.723297
0.68863505 -0.61979598 1.7070169
0.69936699 -0.626782 1.7022369
0.70727098 -0.63777697 1.701677
0.70712 -0.66574305 1.707337
0.702191 -0.683276 1.713557
0.70475304 -0.69917196 1.7155468
0.70346701 -0.59583497 1.6825271
0.707596 -0.60932398 1.685717
0.70568603 -0.62107199 1.6886371
0.70135397 -0.636859 1.6946369
0.70249295 -0.65263003 1.6982471
0.69683701 -0.67158204 1.705307
0.68871099 -0.69125503 1.7149469
0.69842798 -0.62455004 1.6845269
0.69602203 -0.64069396 1.689167
0.689399 -0.65936601 1.6982369
0.68507004 -0.67755204 1.7062869
0.68888497 -0.62909001 1.6816971
0.67540199 -0.64919001 1.695127
0.66634697 -0.64104897 1.6916671
0.72019303 -0.64952797 1.721557
0.71057701 -0.64002901 1.7198371
0.71938902 -0.64764702 1.7148169
0.70222396 -0.66750199 1.7300071
0.69577104 -0.68332601 1.7368271
0.70595396 -0.69332099 1.730997
0.71292996 -0.706222 1.7282071
0.71266401 -0.64816803 1.7104269
0.70755696 -0.66377294 1.7174671
0.70580101 -0.68015802 1.7221169
0.70720398 -0.69547403 1.7231768
0.71296304 -0.70582902 1.7211471
0.68503404 -0.63292003 1.7152569
0.70039594 -0.63920599 1.7076371
0.70528394 -0.64940697 1.7066971
0.70866996 -0.66047597 1.7064371
0.70228696 -0.678312 1.7133771
0.70135003 -0.69402003 1.718407
0.70976502 -0.70637494 1.7146671
0.69623804 -0.59928203 1.6907769
0.70096099 -0.61070001 1.690797
0.70326304 -0.62397498 1.694037
0.70199305 -0.635423 1.696317
0.695503 -0.65183604 1.704227
0.69411498 -0.66709 1.706907
0.69933897 -0.67879999 1.7055469
0.70188904 -0.69264799 1.7086371
0.70413899 -0.70740098 1.7104269
0.69718003 -0.62279397 1.6878171
0.69752502 -0.63792098 1.691167
0.68867105 -0.65532994 1.6997769
0.68510497 -0.67142302 1.705627
0.67587698 -0.68832499 1.715627
0.69376898 -0.63530302 1.6829669
0.67094499 -0.66474199 1.706337
0.72515798 -0.64265198 1.7186569
0.719446 -0.65217298 1.7236071
0.70608002 -0.70070505 1.7390469
0.71122396 -0.71224803 1.737097
0.73037905 -0.64966005 1.7082269
0.70321196 -0.67755502 1.7289169
0.70932001 -0.68796206 1.7278171
0.71291101 -0.69881499 1.726997
0.71786004 -0.709894 1.7255969
0.72354299 -0.65240896 1.704627
0.71264398 -0.66886497 1.7133969
0.70679802 -0.68650901 1.721097
0.710989 -0.69786596 1.719677
0.71171701 -0.71135694 1.720627
0.70366699 -0.63549304 1.7052671
0.70845395 -0.64416701 1.703987
0.71015197 -0.655617 1.704197
0.70795602 -0.67051905 1.707027
0.70293701 -0.68414998 1.7140069
0.70265198 -0.69849801 1.7159369
0.70050204 -0.60358101 1.690927
0.70402098 -0.61731797 1.691317
0.70557296 -0.63067502 1.6943769
0.70451796 -0.64278603 1.697397
0.70496804 -0.65478104 1.6971869
0.70427597 -0.66871399 1.7003469
0.70256203 -0.68412805 1.7048371
0.68868101 -0.703058 1.716597
0.707443 -0.61344397 1.6802468
0.69967002 -0.63018501 1.6899469
0.69963503 -0.643264 1.6907669
0.69775802 -0.65771794 1.694477
0.69272697 -0.67475998 1.7020371
0.68410301 -0.69061601 1.7106369
0.68561399 -0.64544702 1.6914371
0.696536 -0.64972395 1.742767
0.69257897 -0.65920401 1.7466769
0.71334296 -0.64553702 1.723217
0.70651901 -0.65623802 1.7295669
0.68557 -0.67066705 1.7452469
0.69169295 -0.68353897 1.740127
0.70727801 -0.69537807 1.7297169
0.70666701 -0.70914 1.7320871
0.71027398 -0.65403998 1.717857
0.70351899 -0.66885298 1.7233771
0.70402902 -0.684003 1.7239771
0.70585096 -0.69558096 1.7238971
0.70359099 -0.70845598 1.726667
0.70084196 -0.65701795 1.713837
0.70446897 -0.66941905 1.712427
0.70548403 -0.68084198 1.714317
0.70138001 -0.695122 1.7183169
0.689412 -0.63510501 1.708447
0.70494002 -0.64342099 1.7003769
0.69568998 -0.65619498 1.7066671
0.69574499 -0.66861606 1.7096671
0.69770104 -0.68156195 1.7103571
0.69534498 -0.69678903 1.713537
0.6983 -0.60213 1.689187
0.70918798 -0.61369205 1.6826969
0.70197797 -0.63091397 1.6914569
0.69858396 -0.64365602 1.6957871
0.68873 -0.65554202 1.702257
0.692976 -0.66811597 1.702957
0.684205 -0.68463796 1.712337
0.699413 -0.60275698 1.6820168
0.70260298 -0.62581199 1.6808771
0.69766998 -0.64074701 1.686727
0.67810601 -0.65600699 1.701737
0.68495202 -0.64165097 1.686347
0.72139096 -0.64319605 1.7230469
0.69078904 -0.698452 1.7485471
0.70383799 -0.70775801 1.7394971
0.72507697 -0.65091002 1.7135071
0.69846398 -0.68063301 1.732927
0.71026498 -0.69358397 1.726387
0.71283799 -0.70577794 1.7245771
0.70505995 -0.63375002 1.7175769
0.71956199 -0.65128303 1.709447
0.70864898 -0.66556299 1.717327
0.70333099 -0.680861 1.722177
0.70656604 -0.69382006 1.7199469
0.71191299 -0.70526201 1.716827
0.69470102 -0.63248801 1.7158771
0.70636004 -0.65414101 1.7090671
0.69948 -0.66957301 1.715217
0.702335 -0.68183196 1.7143271
0.69941103 -0.69247299 1.7154371
0.70309305 -0.70537204 1.7142071
0.69224405 -0.62952 1.707787
0.70437402 -0.64027399 1.701507
0.70462698 -0.65207899 1.699887
0.69928598 -0.66596001 1.704847
0.69411498 -0.68068498 1.7113471
0.69190902 -0.693681 1.713457
0.69954002 -0.60138601 1.690657
0.70487398 -0.61515802 1.688257
0.702452 -0.62885398 1.692847
0.69899297 -0.64082903 1.6950971
0.69592798 -0.65335798 1.697207
0.69466501 -0.66459101 1.6992968
0.69124103 -0.67853105 1.705157
0.70293999 -0.590873 1.680567
0.69997001 -0.62726998 1.684137
0.69349599 -0.64141899 1.690307
0.68927103 -0.65201598 1.693707
0.69213301 -0.63763601 1.6818869
0.69539702 -0.709988 1.7404871
0.68674397 -0.69230902 1.7415171
0.688537 -0.68362898 1.741557
0.69286501 -0.67703795 1.741187
0.68725097 -0.70088798 1.7380871
0.68375605 -0.687397 1.7389771
0.68494105 -0.67857695 1.738507
0.687213 -0.670048 1.738517
0.69317001 -0.66719902 1.738237
0.68851995 -0.70477796 1.733667
0.68657202 -0.69110703 1.734607
0.67768306 -0.67288899 1.734917
0.68254697 -0.66707498 1.735007
0.68420196 -0.65869302 1.7354569
0.69447899 -0.65869695 1.7345669
0.69080001 -0.70501405 1.729177
0.68381 -0.68662202 1.7305069
0.679097 -0.67179197 1.731127
0.68499398 -0.66857499 1.731047
0.68063003 -0.656322 1.731737
0.67996806 -0.64585602 1.731997
0.68463206 -0.63883203 1.7312671
0.69504601 -0.63592499 1.730417
0.70981199 -0.63915402 1.729337
0.70120299 -0.70504701 1.7255771
0.69375503 -0.68586701 1.726447
0.68421501 -0.66673601 1.7273169
0.67833102 -0.65131301 1.727937
0.67660004 -0.63999003 1.728277
0.67659599 -0.63073301 1.7281768
0.68208802 -0.62612998 1.7283471
0.70013201 -0.63144201 1.727327
0.71244794 -0.63308299 1.7261969
0.70054901 -0.68139601 1.722437
0.68277603 -0.65620697 1.723797
0.67670095 -0.64164299 1.724617
0.67488503 -0.63100201 1.724787
0.67938906 -0.62463403 1.7243969
0.69221497 -0.62497401 1.724247
0.70915002 -0.629996 1.723407
0.71460801 -0.62423098 1.7221869
0.72262901 -0.62123102 1.7212671
0.70004702 -0.67329198 1.7196569
0.67120397 -0.634718 1.721017
0.66944504 -0.62440103 1.7214969
0.67335296 -0.61866498 1.7205468
0.692213 -0.62493801 1.7199469
0.704 -0.62426603 1.7196671
0.71012497 -0.61917901 1.718907
0.716905 -0.61658597 1.7188071
0.67920995 -0.639705 1.715737
0.671597 -0.62574404 1.7171469
0.67759103 -0.62169802 1.716277
0.68344903 -0.617769 1.716597
0.70490998 -0.62625498 1.715627
0.70422095 -0.61606497 1.7155069
0.71476698 -0.61536199 1.7154269
0.72624606 -0.617423 1.7145169
0.67915702 -0.63959903 1.7125469
0.67943197 -0.63244998 1.712657
0.67519498 -0.62095201 1.713277
0.68241096 -0.61725599 1.712437
0.69168299 -0.61525702 1.7127771
0.70160401 -0.61404002 1.7114869
0.711788 -0.61331701 1.711447
0.67851198 -0.62123102 1.708937
0.67907 -0.61368799 1.708937
0.68785894 -0.61141998 1.708527
0.70589995 -0.61575001 1.707587
0.71338797 -0.61431599 1.706967
0.68750298 -0.62621397 1.7038369
0.68069506 -0.613711 1.7049869
0.68235606 -0.60601103 1.7046869
0.69855601 -0.61011702 1.7040869
0.68418801 -0.61576802 1.7008671
0.68349999 -0.60765302 1.700917
0.68653196 -0.60129797 1.701057
0.69152296 -0.59698999 1.7011169
0.690175 -0.61185002 1.6966671
0.68861699 -0.64005798 1.7294269
0.69227403 -0.635342 1.7293869
0.704108 -0.63745201 1.728727
0.68527496 -0.636383 1.7261969
0.69020897 -0.63288599 1.726377
0.70019096 -0.63393998 1.7262368
0.70310205 -0.62640595 1.725557
0.69262999 -0.60739601 1.7262671
0.68155295 -0.633421 1.7219269
0.68871099 -0.63188499 1.7223871
0.69799596 -0.63096601 1.7227169
0.699633 -0.62261003 1.722007
0.69612098 -0.61067796 1.7223871
0.67615598 -0.62814802 1.7181768
0.68032801 -0.62399298 1.718237
0.69584799 -0.62877399 1.718477
0.69423103 -0.61648899 1.7183069
0.69647002 -0.61038899 1.7176871
0.6742 -0.62577099 1.7138971
0.68082899 -0.62348598 1.7136371
0.68573701 -0.61828703 1.7148371
0.68928599 -0.61132503 1.714187
0.68432504 -0.59845197 1.714157
0.66990399 -0.62172902 1.710057
0.67324096 -0.61668599 1.7098269
0.68226504 -0.61469001 1.710557
0.687828 -0.60944599 1.709747
0.66876799 -0.620188 1.7062671
0.67466903 -0.61740899 1.705027
0.67732596 -0.60903597 1.706057
0.674591 -0.624982 1.701897
0.67673302 -0.61810797 1.701077
0.67938304 -0.61144 1.7010269
0.68175298 -0.61236596 1.6968369
0.69325101 -0.66549897 1.737727
0.69331706 -0.68017501 1.737397
0.69497198 -0.69499296 1.737397
0.70069098 -0.708646 1.737757
0.68878096 -0.62606096 1.732527
0.68808699 -0.63835698 1.732757
0.69284701 -0.65049797 1.7326269
0.69063795 -0.666888 1.732787
0.69349802 -0.67904603 1.731127
0.700212 -0.69295001 1.731617
0.70785201 -0.704274 1.731387
0.68928903 -0.61132997 1.7264569
0.69363505 -0.621225 1.7262368
0.69218999 -0.63541001 1.7274569
0.69293296 -0.64809901 1.726187
0.69114703 -0.66387099 1.7260269
0.68934995 -0.67896897 1.7244071
0.69447303 -0.69262099 1.7241769
0.70527494 -0.70541799 1.724607
0.69202101 -0.61022002 1.720717
0.70365405 -0.61644101 1.719337
0.689219 -0.63563502 1.7201871
0.69134599 -0.64994103 1.7200171
0.67864603 -0.66894096 1.719197
0.68523002 -0.68315297 1.718937
0.686737 -0.69613802 1.718477
0.69819397 -0.70538694 1.7181469
0.69938904 -0.60686702 1.7128971
0.71003199 -0.613958 1.712507
0.698156 -0.629583 1.713197
0.69084704 -0.64614302 1.713557
0.696603 -0.60274398 1.704567
0.711173 -0.611036 1.7062269
0.69560099 -0.59941602 1.6984669
0.70104599 -0.61131501 1.6999469
0.70538694 -0.62199199 1.7008771
0.66835505 -0.68431997 1.7405369
0.68379301 -0.691145 1.740347
0.67879599 -0.70456201 1.740097
0.68610495 -0.63625902 1.7354871
0.686988 -0.64647001 1.7356269
0.69577795 -0.65548795 1.735467
0.69222295 -0.67330098 1.735007
0.69131899 -0.68811899 1.7345771
0.68924302 -0.70278901 1.7346569
0.692904 -0.62081903 1.7291169
0.697568 -0.630252 1.7294769
0.69652003 -0.64288598 1.730867
0.69143504 -0.65771598 1.729697
0.69289804 -0.67010999 1.728467
0.69250506 -0.68433404 1.728277
0.691019 -0.70067197 1.7270269
0.70186895 -0.616844 1.723407
0.70199698 -0.62791598 1.7232871
0.69734901 -0.64189601 1.7243969
0.69159299 -0.65728205 1.7230771
0.69034302 -0.67216402 1.7227271
0.69254702 -0.68839997 1.7217771
0.69097704 -0.70252901 1.719797
0.69160402 -0.60417801 1.7148269
0.71212 -0.60931897 1.7162368
0.71079904 -0.621611 1.7169369
0.69810301 -0.63971597 1.7175571
0.68481398 -0.65916097 1.717677
0.67131799 -0.70847398 1.7144971
0.69755095 -0.60133499 1.708987
0.71420097 -0.60855299 1.710917
0.703664 -0.62268502 1.710867
0.70000803 -0.59850401 1.7023871
0.71040606 -0.607072 1.704267
0.699651 -0.59591299 1.696187
0.69727999 -0.60620701 1.6964669
0.68343902 -0.637097 1.737437
0.69234198 -0.64560997 1.7368469
0.69654101 -0.65914398 1.7362869
0.69576699 -0.67238402 1.7362869
0.70384806 -0.68319601 1.735817
0.69980597 -0.69875699 1.735037
0.69230795 -0.62281001 1.731317
0.693313 -0.63380796 1.7318569
0.69294095 -0.64694506 1.731107
0.69745904 -0.65966499 1.730707
0.70109397 -0.67193902 1.731277
0.70191598 -0.68531305 1.730707
0.71076399 -0.69464993 1.729377
0.69939798 -0.60937196 1.725027
0.69559801 -0.62058103 1.725177
0.69548601 -0.63374901 1.7256269
0.69107801 -0.64631796 1.724867
0.69288599 -0.65794098 1.7242869
0.69773597 -0.670389 1.725107
0.7015 -0.68374395 1.724597
0.69769895 -0.70000601 1.722837
0.70130503 -0.60824603 1.719267
0.70726097 -0.61649698 1.7180569
0.69632894 -0.63023299 1.7191169
0.69498497 -0.64344198 1.718647
0.68771005 -0.657462 1.717847
0.69179201 -0.67215699 1.719157
0.68456197 -0.68992597 1.718217
0.68337703 -0.70349401 1.7169369
0.70871598 -0.604285 1.7113669
0.70990598 -0.61567903 1.7112869
0.70115995 -0.62903899 1.712507
0.686979 -0.643462 1.7117771
0.70451403 -0.602126 1.704217
0.71255702 -0.61275798 1.705537
0.70475996 -0.62573701 1.705657
0.70165706 -0.60047698 1.6983169
0.70383203 -0.61363703 1.699797
0.691818 -0.62680101 1.699537
0.67164099 -0.65874296 1.745307
0.67819196 -0.66680801 1.744617
0.68378901 -0.64450598 1.7398469
0.69298798 -0.65389299 1.740037
0.69741094 -0.66404802 1.7394071
0.70616895 -0.67501098 1.7386371
0.70863295 -0.68995398 1.737337
0.70709199 -0.70380896 1.737007
0.71197999 -0.71714103 1.737587
0.68840301 -0.61848402 1.732597
0.69961601 -0.626535 1.732807
0.69437301 -0.64075202 1.733847
0.70148695 -0.65276003 1.7334869
0.70563799 -0.66568804 1.7332071
0.71108496 -0.67834395 1.732767
0.71990997 -0.68857497 1.732507
0.70675904 -0.70341301 1.7316871
0.71238601 -0.715482 1.7317569
0.70254999 -0.616943 1.7274868
0.70037597 -0.627877 1.7276169
0.70704299 -0.63984299 1.7275171
0.71246904 -0.64990401 1.727227
0.71109003 -0.66141403 1.7269169
0.70877296 -0.67611903 1.726387
0.71245003 -0.68921798 1.7267669
0.70859003 -0.70308703 1.724537
0.70907503 -0.60346001 1.718767
0.71113294 -0.61354601 1.720327
0.70292002 -0.62476301 1.721537
0.70373899 -0.635791 1.720987
0.70553803 -0.64925104 1.721467
0.692572 -0.66623801 1.721257
0.693865 -0.67884398 1.720847
0.69580495 -0.69159698 1.720287
0.70124197 -0.70591003 1.7180569
0.70819998 -0.60277998 1.7134368
0.71291494 -0.61134398 1.713497
0.70565903 -0.62346697 1.7151169
0.69768697 -0.63573599 1.714867
0.70858198 -0.60189497 1.7070169
0.72113401 -0.609644 1.706897
0.70812696 -0.62140399 1.7083271
0.69877404 -0.599316 1.6997769
0.70512497 -0.608742 1.7003769
0.702416 -0.59658402 1.6945871
0.70254099 -0.60846198 1.6955771
0.68932199 -0.66777498 1.745877
0.67896599 -0.67900902 1.745557
0.67606103 -0.64113897 1.7403369
0.697142 -0.64954698 1.740397
0.70057505 -0.66262496 1.7406769
0.70335996 -0.67589402 1.7404571
0.70055801 -0.68901396 1.740087
0.69911301 -0.70357805 1.7394571
0.69845802 -0.617203 1.733907
0.69339997 -0.62634301 1.734707
0.69433898 -0.638197 1.7352771
0.70240802 -0.65027499 1.7351871
0.70739603 -0.66326898 1.7344971
0.707129 -0.67604798 1.733947
0.69987297 -0.68848199 1.7342269
0.70135301 -0.70062399 1.734367
0.71095103 -0.71345198 1.7338871
0.72338301 -0.72520602 1.732067
0.702456 -0.61531103 1.728277
0.69927698 -0.62580299 1.729637
0.70387495 -0.63781703 1.7286869
0.70556504 -0.65110803 1.7289569
0.711869 -0.66085702 1.727807
0.70989096 -0.673163 1.727927
0.70286596 -0.68681997 1.7277969
0.70211101 -0.70159602 1.727357
0.71623701 -0.71408403 1.727097
0.71558702 -0.60275 1.7207669
0.71068496 -0.61217099 1.721427
0.71073306 -0.62374002 1.7226169
0.70916098 -0.63552701 1.721387
0.70389199 -0.64857501 1.7219369
0.69644797 -0.66218102 1.7220569
0.690382 -0.67734301 1.722697
0.68974704 -0.69123298 1.7220569
0.69581598 -0.70436996 1.7202771
0.72469002 -0.71372598 1.7203768
0.72963095 -0.72550303 1.7196569
0.73654997 -0.736606 1.7179471
0.70844102 -0.60266298 1.715067
0.71254206 -0.61293501 1.715907
0.70056295 -0.62489301 1.7158371
0.69734001 -0.63679004 1.715537
0.68490404 -0.64955598 1.715927
0.74158698 -0.73647904 1.7114071
0.701186 -0.59853196 1.707217
0.71261901 -0.60965997 1.709487
0.70434999 -0.62118697 1.7099169
0.66972899 -0.64056897 1.710557
0.70098197 -0.59625602 1.700847
0.70639503 -0.60691601 1.7027069
0.69912499 -0.59528601 1.6946969
0.66834903 -0.70707297 1.728477
0.67310405 -0.69585097 1.7288071
0.66584504 -0.71054494 1.725527
0.65931201 -0.70555001 1.725437
0.67473298 -0.68634599 1.726047
0.66674697 -0.70774698 1.722097
0.65464401 -0.70759696 1.7213669
0.658481 -0.69662696 1.722227
0.66078597 -0.68558401 1.722217
0.66834098 -0.67044997 1.7220871
0.661107 -0.71115094 1.717757
0.65633398 -0.705383 1.717567
0.65383798 -0.69977897 1.718457
0.653947 -0.69071901 1.718477
0.65401101 -0.68098801 1.7187469
0.65524596 -0.67131895 1.7188071
0.66609901 -0.65632004 1.719247
0.683622 -0.70589995 1.714227
0.67213404 -0.70432502 1.7141269
0.66333199 -0.70081002 1.714017
0.65413499 -0.69795001 1.714467
0.65948194 -0.68589801 1.714727
0.64869398 -0.68558097 1.7149271
0.65150803 -0.67415702 1.715157
0.65415102 -0.66511399 1.715997
0.67339498 -0.69283897 1.7105069
0.659684 -0.69388801 1.7103171
0.65045094 -0.69104797 1.710867
0.64830202 -0.68337196 1.7111771
0.65072703 -0.67372203 1.7106769
0.65133005 -0.66703904 1.7119269
0.67632598 -0.68101996 1.706597
0.66649598 -0.67964697 1.706467
0.65104598 -0.68091905 1.7070169
0.64972097 -0.67389601 1.706997
0.647623 -0.66915494 1.7073169
0.67856699 -0.669756 1.702027
0.66454005 -0.67157501 1.702517
0.65352702 -0.67051005 1.703167
0.64737505 -0.66821295 1.703217
0.687792 -0.66160798 1.6971271
0.67918897 -0.66088402 1.6979669
0.66563398 -0.66156995 1.6984869
0.65821898 -0.65840799 1.6988569
0.698259 -0.65358597 1.6932471
0.68749499 -0.65510595 1.6939969
0.68043602 -0.65120596 1.6941071
0.66658896 -0.65110099 1.6944971
0.65603697 -0.65015101 1.6944671
0.662965 -0.63758302 1.694157
0.70680803 -0.64710504 1.690137
0.694489 -0.64910597 1.690717
0.69482905 -0.63991404 1.6906171
0.675776 -0.64394301 1.6907071
0.65711403 -0.64886701 1.690907
0.65715402 -0.64196801 1.691107
0.65606904 -0.64853203 1.6871271
0.65740097 -0.64089602 1.686857
0.660429 -0.64272904 1.682337
0.65859705 -0.638978 1.6824869
0.66443998 -0.71030295 1.7269369
0.66581702 -0.70230502 1.727267
0.65253502 -0.71772695 1.723677
0.65186095 -0.70983297 1.724227
0.65600604 -0.69981402 1.7242969
0.66318101 -0.68802297 1.7242869
0.64570296 -0.72098398 1.7201169
0.64800906 -0.71267503 1.7206171
0.64769995 -0.70428103 1.7208569
0.64966798 -0.695131 1.7212869
0.65251404 -0.68562597 1.721207
0.66444397 -0.67110902 1.721187
0.64996302 -0.72460097 1.717307
0.65734899 -0.71287698 1.716837
0.65442598 -0.70671499 1.7170569
0.64865094 -0.70222801 1.7170569
0.64546502 -0.69718301 1.7177271
0.64945394 -0.68748301 1.718197
0.65299106 -0.67757201 1.718237
0.66141599 -0.664608 1.7181768
0.66828597 -0.65272796 1.718017
0.67861801 -0.706608 1.7138569
0.67090398 -0.70483595 1.7135071
0.65899003 -0.70475996 1.7134269
0.65474099 -0.69946295 1.713627
0.64979798 -0.69461 1.714107
0.64254898 -0.69174105 1.714747
0.64680898 -0.68203497 1.714747
0.64814103 -0.67253304 1.7146069
0.65547204 -0.65995497 1.715157
0.664141 -0.648601 1.7151771
0.686369 -0.69002098 1.710497
0.67500901 -0.68890899 1.710297
0.65548205 -0.69130796 1.710397
0.64892799 -0.68732595 1.7112368
0.64817101 -0.679555 1.7108371
0.65183997 -0.66960096 1.7105169
0.64710701 -0.66467798 1.7114371
0.65159202 -0.65542901 1.712137
0.66792798 -0.64050299 1.712157
0.68265295 -0.68461198 1.7076069
0.67720902 -0.67937797 1.707137
0.66286796 -0.67842299 1.707167
0.65562201 -0.67374903 1.707027
0.64241797 -0.67448801 1.707217
0.646474 -0.66543406 1.7075469
0.64427596 -0.65904802 1.707927
0.68707901 -0.66541499 1.7038071
0.67121905 -0.66613299 1.703547
0.64875299 -0.67003095 1.703757
0.64418501 -0.66415101 1.7038071
0.64236397 -0.65836602 1.7038071
0.65997499 -0.64317495 1.704267
0.69849503 -0.65287203 1.700977
0.65645301 -0.66528702 1.6994971
0.64914805 -0.66208899 1.6999769
0.64214796 -0.65885198 1.7002771
0.64912695 -0.64922094 1.700737
0.70137495 -0.64562201 1.6933969
0.67085403 -0.65670699 1.6948971
0.65539801 -0.65841901 1.695997
0.64363801 -0.65848601 1.6967169
0.64713997 -0.64996904 1.696577
0.71531099 -0.63878 1.690717
0.688586 -0.64793998 1.691587
0.67313403 -0.64807898 1.692077
0.64961404 -0.65337598 1.6926471
0.64642197 -0.64768702 1.6920971
0.71527296 -0.63392401 1.6885769
0.65369797 -0.64952201 1.6884869
0.65091598 -0.64414901 1.688517
0.65547401 -0.63385201 1.6880369
0.66310996 -0.62265402 1.6875571
0.671956 -0.636796 1.684117
0.65043604 -0.64385498 1.684857
0.651434 -0.63592398 1.684837
0.65700895 -0.62567103 1.684577
0.66117203 -0.63605201 1.681107
0.64853996 -0.63761801 1.681517
0.65205902 -0.62760901 1.680847
0.66183603 -0.615578 1.680827
0.65911299 -0.71473801 1.726377
0.66826499 -0.70528394 1.726727
0.66114402 -0.70115602 1.7265869
0.65022004 -0.71746099 1.723707
0.65057701 -0.71087599 1.723767
0.65252995 -0.70322001 1.723837
0.661551 -0.69349402 1.724057
0.666789 -0.68374097 1.7240671
0.681355 -0.67214894 1.7243171
0.65260905 -0.71660697 1.720397
0.64588898 -0.71240801 1.720557
0.65165102 -0.70446998 1.720827
0.65621597 -0.69596201 1.721087
0.65424103 -0.68928003 1.721087
0.65930396 -0.680251 1.721427
0.66773498 -0.67080098 1.721477
0.65311098 -0.72221601 1.716837
0.65126199 -0.716672 1.717047
0.652466 -0.70980597 1.7173169
0.65927595 -0.69976306 1.717507
0.65416199 -0.69456297 1.717767
0.65244102 -0.68932503 1.7179669
0.65243399 -0.68311399 1.717977
0.65991402 -0.67314601 1.7184368
0.66395205 -0.66438794 1.718187
0.67909503 -0.65100801 1.717937
0.66649801 -0.71189004 1.7146469
0.67728597 -0.701482 1.7146569
0.664994 -0.69842398 1.7145469
0.65887606 -0.69337797 1.7145669
0.65524399 -0.68803495 1.7149169
0.64956701 -0.68344599 1.7142169
0.65476602 -0.67539001 1.715027
0.654468 -0.66835999 1.7149271
0.65723604 -0.65983003 1.715107
0.66108704 -0.651622 1.7150369
0.67264003 -0.64157701 1.715227
0.67621696 -0.68751997 1.711997
0.65585196 -0.68706399 1.711687
0.65063596 -0.68232596 1.7112069
0.65255094 -0.67499 1.711307
0.647888 -0.67027396 1.711557
0.65265197 -0.66226602 1.711827
0.64994299 -0.65621597 1.711877
0.65710098 -0.64794803 1.712507
0.66424298 -0.67587602 1.708277
0.66027296 -0.67084998 1.707597
0.65157205 -0.667826 1.7082471
0.64856696 -0.66201299 1.708537
0.648525 -0.65590304 1.7079471
0.65245402 -0.64951897 1.708937
0.67874497 -0.66343802 1.7044071
0.661439 -0.66392702 1.704337
0.651568 -0.66051298 1.704887
0.64908403 -0.655204 1.704747
0.64750999 -0.65038103 1.704697
0.670865 -0.65942401 1.7004471
0.66244102 -0.65654504 1.7008771
0.64868301 -0.654769 1.7014771
0.65219802 -0.64708602 1.701097
0.65522796 -0.64144701 1.7012869
0.70029199 -0.64670599 1.6956369
0.67425501 -0.65159398 1.6968069
0.65290904 -0.65337402 1.697697
0.65179902 -0.64755899 1.698187
0.65413696 -0.64126098 1.697827
0.71126699 -0.64223999 1.692027
0.69142401 -0.64464402 1.6928171
0.66995901 -0.64625198 1.6936669
0.65841001 -0.644306 1.6945169
0.65838701 -0.63768697 1.693447
0.71154404 -0.63705701 1.6895871
0.69035399 -0.63790399 1.689917
0.66202104 -0.64152998 1.690577
0.65671402 -0.63715804 1.6902969
0.66314399 -0.62751502 1.689577
0.66871399 -0.61819303 1.689147
0.68364197 -0.63171601 1.6866369
0.66061401 -0.63444304 1.687017
0.66079301 -0.62717098 1.6864771
0.65625197 -0.62303901 1.686857
0.67474699 -0.60959202 1.6863871
0.668957 -0.63020498 1.683377
0.652753 -0.63075197 1.6835269
0.65563005 -0.62265301 1.683477
0.65809196 -0.61561602 1.6835071
0.65043294 -0.62500101 1.6800669
0.68054098 -0.70076597 1.741877
0.67661202 -0.67486101 1.734967
0.68524599 -0.68553901 1.7352271
0.69291496 -0.69972396 1.736037
0.68515605 -0.66193604 1.727847
0.68937701 -0.67460001 1.7289969
0.68866801 -0.68721199 1.7303571
0.69048601 -0.70003301 1.729337
0.70428705 -0.65418404 1.722137
0.70072603 -0.66342002 1.722047
0.69888604 -0.67441905 1.7229669
0.68983495 -0.68546301 1.723467
0.68437302 -0.69700402 1.722267
0.69626403 -0.64136297 1.713847
0.70024598 -0.652008 1.715907
0.69442904 -0.661165 1.7152771
0.69936597 -0.67401606 1.716857
0.68642306 -0.685193 1.716767
0.68280798 -0.69783598 1.717007
0.67172301 -0.70943099 1.7178171
0.69303203 -0.63901901 1.7076069
0.69950795 -0.650186 1.708987
0.692339 -0.659971 1.709167
0.68550402 -0.67128599 1.7106071
0.67280501 -0.68404603 1.7120872
0.67743701 -0.62346399 1.6997169
0.68194801 -0.63459897 1.700657
0.69907999 -0.64750201 1.702507
0.69075698 -0.65719903 1.7030069
0.65148002 -0.58760399 1.6953369
0.68096602 -0.62089801 1.6938668
0.68217695 -0.63388801 1.6944671
0.68864 -0.64559603 1.6961371
0.68943399 -0.65420401 1.6957871
0.65790999 -0.59086901 1.688427
0.67994398 -0.60686201 1.687737
0.68507695 -0.61944598 1.687207
0.67959803 -0.63029498 1.6879269
0.67723101 -0.64175105 1.689507
0.68655998 -0.609348 1.681317
0.67952502 -0.61949003 1.6811169
0.672342 -0.62923098 1.682197
0.66418296 -0.70623499 1.745177
0.68781096 -0.69628698 1.7381369
0.68839896 -0.70862901 1.7389771
0.65326798 -0.65210098 1.733337
0.67066401 -0.66559798 1.7324868
0.68515605 -0.68305999 1.7320371
0.68786103 -0.69815201 1.733197
0.68694001 -0.64832002 1.7249969
0.675735 -0.65598297 1.7271969
0.68290198 -0.66844499 1.7266269
0.67897397 -0.68073702 1.7256269
0.68756104 -0.69555801 1.7262869
0.70147103 -0.65031302 1.718087
0.68764299 -0.65747201 1.720407
0.68683195 -0.66975999 1.719207
0.69285202 -0.68276602 1.7190671
0.67980695 -0.69138098 1.7197571
0.68398905 -0.706164 1.7203369
0.69797701 -0.64836502 1.7118469
0.69265199 -0.657493 1.712217
0.69850504 -0.67094803 1.712157
0.68387103 -0.67992401 1.713167
0.66718596 -0.68885303 1.714047
0.70096296 -0.64721102 1.704577
0.68287802 -0.65386802 1.704747
0.68877196 -0.667575 1.7057871
0.67335999 -0.67675799 1.706987
0.65146798 -0.59017897 1.697507
0.67375398 -0.61043596 1.6958671
0.67989504 -0.628299 1.696727
0.691733 -0.64466304 1.698367
0.68606299 -0.65488195 1.698717
0.66692901 -0.66282201 1.7000971
0.65142405 -0.58145201 1.6920669
0.680749 -0.61383897 1.690087
0.684681 -0.62689799 1.689917
0.68239701 -0.64026904 1.6920871
0.66616303 -0.65061897 1.694047
0.68741798 -0.60240299 1.6832969
0.69053596 -0.61634701 1.683167
0.69301003 -0.62810099 1.683287
0.69449306 -0.70760697 1.742787
0.65698999 -0.66848803 1.737977
0.67765999 -0.68487602 1.737247
0.68563902 -0.701267 1.737597
0.66155195 -0.65732104 1.7315869
0.68265098 -0.67439598 1.730987
0.68177903 -0.68821996 1.7317569
0.691163 -0.70250297 1.731727
0.69560206 -0.64050901 1.721387
0.69503099 -0.65123701 1.722437
0.67985803 -0.66022497 1.7248371
0.68491095 -0.67232299 1.7242169
0.67973602 -0.6846 1.7244869
0.685875 -0.70145601 1.7255369
0.70593399 -0.64289999 1.715457
0.69893801 -0.65010297 1.7169169
0.68887103 -0.66038597 1.717477
0.68382299 -0.67331499 1.718037
0.67998004 -0.68361098 1.7177469
0.679178 -0.69587898 1.719007
0.69841903 -0.63931501 1.708647
0.70125902 -0.65078199 1.7105169
0.68377602 -0.65702498 1.709867
0.68174797 -0.670789 1.7116071
0.672939 -0.68208903 1.7132071
0.67369497 -0.61145502 1.7002771
0.68703198 -0.631612 1.701077
0.69248903 -0.64720398 1.7027771
0.68506598 -0.65678495 1.702867
0.67830902 -0.61592996 1.6940271
0.68882203 -0.63430303 1.695147
0.69227302 -0.64766198 1.6960369
0.68174696 -0.65308702 1.6958671
0.65869403 -0.58289003 1.6885871
0.67884099 -0.61418897 1.6866471
0.67886299 -0.62715101 1.687757
0.67569506 -0.63920397 1.6895169
0.68324 -0.62791598 1.6813071
0.686584 -0.70223999 1.7412671
0.68188101 -0.674712 1.734187
0.68790102 -0.69053495 1.7352871
0.69094002 -0.70436996 1.736127
0.68346298 -0.64550102 1.7266269
0.68705004 -0.65725899 1.7269571
0.683281 -0.66995597 1.727897
0.68416601 -0.68485498 1.7286969
0.69181001 -0.70327497 1.728947
0.70091003 -0.63929498 1.7185471
0.69622004 -0.64966398 1.720467
0.68837601 -0.65942001 1.7218671
0.69090599 -0.67398298 1.7209771
0.68423897 -0.68735904 1.7219269
0.68953794 -0.70235902 1.7219169
0.70662099 -0.64036906 1.7127169
0.70191103 -0.648323 1.713277
0.68918198 -0.65765798 1.7144071
0.69288999 -0.672548 1.7132269
0.68410003 -0.68355906 1.7147169
0.681642 -0.69824499 1.716187
0.70467794 -0.63917601 1.7064968
0.69377899 -0.64619201 1.706347
0.69367898 -0.659917 1.706347
0.68810499 -0.67177802 1.7074869
0.66576201 -0.67828101 1.710307
0.68554097 -0.61374801 1.6956769
0.68814498 -0.63072699 1.697947
0.69148695 -0.646182 1.6992371
0.68042898 -0.65321404 1.6992371
0.68377298 -0.60129499 1.6890671
0.68522102 -0.61573797 1.690287
0.687846 -0.62964898 1.691077
0.68597704 -0.64119202 1.6917969
0.66714203 -0.64446199 1.6918671
0.679052 -0.60975498 1.682417
0.68812501 -0.62860298 1.6845871
0.67707002 -0.63586104 1.684917
0.69541496 -0.70005 1.737597
0.68281901 -0.64928496 1.7314569
0.69148201 -0.66502798 1.730877
0.69345003 -0.683182 1.7316871
0.69396299 -0.69751406 1.732137
0.70661402 -0.64639997 1.7229871
0.69298798 -0.652264 1.725157
0.69304198 -0.66302198 1.724847
0.69002503 -0.67634803 1.7253369
0.69123101 -0.69233298 1.725817
0.68898398 -0.70669502 1.7264869
0.707591 -0.64605105 1.7168869
0.69733101 -0.65230203 1.717957
0.69093901 -0.66378301 1.718027
0.69150597 -0.67904603 1.7183069
0.69142306 -0.69422501 1.719277
0.70633596 -0.644903 1.710397
0.69366801 -0.65141195 1.709787
0.69019896 -0.66524202 1.711097
0.69212306 -0.67806196 1.711127
0.65769094 -0.58429402 1.7020069
0.67113298 -0.60420698 1.7012069
0.69460797 -0.63551897 1.701707
0.68704003 -0.64556098 1.7019268
0.69080102 -0.66212302 1.7039371
0.67036301 -0.66562104 1.705567
0.686809 -0.61639196 1.693557
0.69151801 -0.63423902 1.695057
0.68566203 -0.64368498 1.696017
0.68639296 -0.61517298 1.6864969
0.68586802 -0.62798101 1.6883069
0.67706496 -0.70771199 1.7421869
0.67539102 -0.69835502 1.7455969
0.66433406 -0.706891 1.7247169
0.67424399 -0.69054103 1.742527
0.67225194 -0.70886302 1.721987
0.66572303 -0.70484495 1.7185969
0.66336405 -0.69822603 1.7218469
0.66570604 -0.68926501 1.729797
0.674173 -0.70653296 1.716207
0.66686302 -0.702353 1.7138269
0.65999103 -0.700185 1.710717
0.68848503 -0.69613099 1.725997
0.67883903 -0.69435602 1.7206171
0.68788004 -0.68845999 1.724227
0.65829003 -0.68409699 1.7279069
0.65761 -0.683833 1.721087
0.66391999 -0.67385805 1.732987
0.65791202 -0.683608 1.7132269
0.65654296 -0.67752194 1.7170569
0.65661401 -0.66877502 1.7218869
0.66194099 -0.65596199 1.732717
0.66007698 -0.68255204 1.7073169
0.65831804 -0.67629701 1.709797
0.651829 -0.67138803 1.7086371
0.65387297 -0.66083097 1.7164969
0.65965897 -0.64916903 1.7276371
0.66106302 -0.68731695 1.6987469
0.66644698 -0.67733598 1.707477
0.66449302 -0.67081904 1.709247
0.655177 -0.66858202 1.704267
0.65016997 -0.66339201 1.7044971
0.65396005 -0.65182704 1.713357
0.66541201 -0.63718396 1.7323669
0.68800104 -0.66300601 1.724877
0.672602 -0.66556001 1.7108569
0.66334504 -0.66248804 1.7057071
0.65501803 -0.65881503 1.702587
0.65494001 -0.64927399 1.705917
0.65538102 -0.64167297 1.712077
0.68536204 -0.66400301 1.715387
0.68905503 -0.65471298 1.723387
0.67263603 -0.65648699 1.708117
0.661924 -0.65317804 1.701847
0.65921402 -0.64572001 1.7034669
0.653557 -0.64128304 1.701427
0.66539299 -0.62670797 1.721357
0.68845004 -0.64620501 1.718967
0.67670095 -0.64491999 1.709267
0.66219401 -0.64323598 1.6985071
0.65619797 -0.63764 1.696847
0.65358198 -0.63316 1.699057
0.71439397 -0.64504099 1.726187
0.70647597 -0.64309996 1.7219169
0.69067001 -0.64385003 1.711357
0.67870903 -0.64077002 1.703127
0.66302902 -0.64120698 1.6910471
0.65921098 -0.63590997 1.692717
0.65416801 -0.630858 1.6906769
0.70929396 -0.64737505 1.7141769
0.70276296 -0.64394897 1.7121869
0.69026297 -0.64234495 1.7023169
0.68303299 -0.63730204 1.6994369
0.66894603 -0.63726002 1.6895169
0.66021895 -0.63413602 1.686257
0.65551299 -0.62819403 1.684397
0.65254301 -0.62079698 1.6854069
0.66510999 -0.60367602 1.705367
0.70637202 -0.64133298 1.706947
0.69615 -0.63816702 1.7005169
0.68881303 -0.63461 1.698197
0.68551004 -0.62681699 1.699357
0.66424203 -0.62985599 1.682627
0.654625 -0.61005002 1.686507
0.70695502 -0.63177198 1.704877
0.69787699 -0.627756 1.701297
0.69936597 -0.61663604 1.707197
0.68180394 -0.61807501 1.6935071
0.66223902 -0.59719503 1.694187
0.71351999 -0.617302 1.7123669
0.71277899 -0.60726798 1.7166971
0.69307101 -0.610699 1.699367
0.67285103 -0.61409497 1.681447
0.69009501 -0.60418499 1.695287
0.67314202 -0.70802599 1.7343969
0.67415702 -0.70181102 1.7383771
0.670847 -0.69657797 1.735997
0.66978103 -0.69060898 1.7364169
0.668127 -0.70998299 1.720997
0.667557 -0.70320702 1.7242169
0.66076106 -0.69805998 1.7174469
0.65706301 -0.69328201 1.7156769
0.65599799 -0.68948305 1.716247
0.67045897 -0.70986396 1.7154069
0.66795897 -0.70314699 1.716877
0.66434699 -0.69798106 1.7147169
0.66274297 -0.69208801 1.716737
0.64667201 -0.65541804 1.7080469
0.66103697 -0.646312 1.727657
0.67604798 -0.70791399 1.7159469
0.66799003 -0.70375901 1.7093271
0.652031 -0.64852202 1.710217
0.64933503 -0.64476401 1.7086968
0.65133798 -0.64752501 1.7008671
0.65100598 -0.64270401 1.703957
0.65125 -0.63716 1.7062368
0.65472901 -0.62945598 1.711337
0.654414 -0.64579695 1.695567
0.65189397 -0.64163297 1.6964371
0.65372199 -0.634426 1.7020069
0.66101599 -0.625085 1.711947
0.66519898 -0.64203906 1.699447
0.65638101 -0.63968897 1.6930369
0.65315199 -0.63475698 1.6931369
0.65236396 -0.62751001 1.693967
0.66677302 -0.61632198 1.7142371
0.67085898 -0.64084399 1.6963669
0.66425699 -0.63671499 1.693257
0.65841103 -0.63141102 1.690717
0.65269399 -0.62590098 1.6861569
0.65635496 -0.61891299 1.6938369
0.66854894 -0.61002803 1.712697
0.69101602 -0.63995999 1.709887
0.68349296 -0.63756102 1.702937
0.67698997 -0.63294202 1.698537
0.66391098 -0.62958002 1.6876069
0.65896696 -0.62369996 1.685627
0.65383303 -0.619142 1.682847
0.71368301 -0.63910502 1.723027
0.69506103 -0.63930804 1.7054669
0.68307406 -0.636976 1.695657
0.67977202 -0.63179201 1.6933371
0.678891 -0.62446803 1.6953769
0.66860604 -0.61998403 1.6880771
0.70355397 -0.63639903 1.706787
0.68760699 -0.63531399 1.692947
0.688182 -0.627918 1.695457
0.699 -0.61650002 1.710667
0.68610299 -0.61363703 1.699967
0.66750997 -0.61264497 1.6821469
0.69854796 -0.631504 1.6975571
0.69853204 -0.62399101 1.7004371
0.70849299 -0.61293703 1.7156368
0.70065498 -0.60882801 1.7100971
0.67624801 -0.609622 1.684567
0.70057601 -0.69183403 1.741117
0.70189303 -0.699552 1.7391369
0.70115304 -0.67792803 1.7317969
0.71114701 -0.691212 1.725557
0.71262395 -0.70064002 1.7232269
0.71002799 -0.65161699 1.719047
0.71186399 -0.665609 1.7166569
0.70911598 -0.679214 1.718217
0.71094 -0.69230497 1.716787
0.70190299 -0.70115602 1.721567
0.71709394 -0.65205002 1.7060471
0.713202 -0.66620904 1.7069268
0.71293604 -0.67802596 1.706707
0.70644999 -0.68862098 1.7108371
0.702456 -0.70023596 1.713167
0.71056503 -0.63972801 1.701447
0.71084702 -0.65314502 1.7012069
0.70729202 -0.66350698 1.701337
0.70504403 -0.67602098 1.703347
0.70192498 -0.68890703 1.705827
0.69254601 -0.69983298 1.713277
0.70352602 -0.60295999 1.697227
0.69903296 -0.61166102 1.6995871
0.70696402 -0.62575799 1.695327
0.70301801 -0.63708001 1.696507
0.70322603 -0.650235 1.6965671
0.69662803 -0.662848 1.700477
0.688905 -0.67422998 1.706477
0.70358497 -0.60327601 1.6898669
0.70622003 -0.61377901 1.686577
0.69889504 -0.62552702 1.6920371
0.70094496 -0.63727701 1.689117
0.69204003 -0.64955199 1.695587
0.67105001 -0.66068602 1.711447
0.70178002 -0.61215299 1.6807871
0.697164 -0.62336999 1.683777
0.68613797 -0.63393998 1.6902369
0.68762803 -0.62158298 1.681687
0.66547799 -0.592987 1.685217
0.65438497 -0.59152699 1.6837571
0.71647799 -0.71040899 1.724537
0.70879 -0.70762706 1.720717
0.70441103 -0.70647597 1.715927
0.69685996 -0.70559305 1.714337
0.71620005 -0.71491206 1.731877
0.70927697 -0.685121 1.731807
0.71539003 -0.697285 1.7259171
0.72174895 -0.71426499 1.7200769
0.71095002 -0.632379 1.727607
0.70014399 -0.66967005 1.7316871
0.716438 -0.68523902 1.7190869
0.71355903 -0.69729799 1.7193969
0.71599096 -0.71184301 1.714247
0.707928 -0.64154297 1.7213269
0.70819002 -0.65441495 1.7197169
0.71050906 -0.66953903 1.7164569
0.71096003 -0.68294197 1.714187
0.70896006 -0.69626898 1.7127969
0.70724601 -0.65383202 1.7128769
0.70643204 -0.66771597 1.710027
0.707623 -0.68179202 1.706707
0.70682698 -0.69538099 1.705797
0.69495499 -0.70512098 1.713457
0.70583802 -0.65279198 1.703187
0.70254797 -0.66655403 1.702547
0.69587404 -0.67730105 1.706517
0.71101898 -0.63285303 1.693537
0.70595396 -0.641792 1.6952569
0.70103204 -0.65260398 1.6957769
0.69944704 -0.664653 1.696507
0.71760005 -0.63483298 1.6810269
0.70085299 -0.64036697 1.690487
0.68918902 -0.64739996 1.6961169
0.69081002 -0.65877998 1.6942869
0.68767303 -0.63727498 1.6922369
0.71440101 -0.70211703 1.733197
0.71539497 -0.71284795 1.7304471
0.72394204 -0.70461601 1.7180771
0.70879602 -0.66871595 1.7227969
0.71813905 -0.68688697 1.715047
0.72519898 -0.70232904 1.708817
0.70966697 -0.64444399 1.7183169
0.71790099 -0.65858805 1.710457
0.71611702 -0.67245299 1.710417
0.71780503 -0.68561798 1.7076371
0.71706802 -0.69768995 1.706147
0.717462 -0.65683293 1.7033969
0.71085 -0.66725099 1.705027
0.71026301 -0.68190104 1.704967
0.69991601 -0.69053298 1.709867
0.71174103 -0.64459801 1.700067
0.71422201 -0.65574205 1.6970971
0.70144099 -0.66344595 1.701997
0.70389295 -0.67720199 1.7002069
0.70395499 -0.64154798 1.698127
0.70708799 -0.65349299 1.693787
0.69462198 -0.66064203 1.6996469
0.69266701 -0.67098504 1.6994671
0.71408498 -0.595743 1.683477
0.70646006 -0.61655498 1.684797
0.71910501 -0.69861197 1.7334869
0.716093 -0.70838898 1.7331369
0.72603202 -0.70118797 1.720027
0.72454101 -0.71460098 1.719157
0.71817899 -0.68298501 1.7183371
0.722211 -0.69739801 1.714227
0.720869 -0.71036601 1.712167
0.72468299 -0.67040706 1.706877
0.712865 -0.67756301 1.7128869
0.71600401 -0.69423503 1.709337
0.71900904 -0.70945197 1.704017
0.71079999 -0.649131 1.7104069
0.71186304 -0.66357499 1.7080569
0.70858198 -0.67448199 1.707597
0.70521104 -0.68570101 1.707567
0.709925 -0.70358497 1.702507
0.69523299 -0.62755197 1.7164071
0.70349002 -0.64173597 1.707027
0.70910698 -0.65850502 1.701737
0.705347 -0.67159599 1.701787
0.69648498 -0.68192703 1.7055169
0.71077502 -0.617823 1.6975769
0.69929498 -0.62524801 1.7050869
0.69829297 -0.63655204 1.7022369
0.69422799 -0.65041399 1.7036371
0.68551004 -0.66321701 1.708017
0.70519304 -0.59813303 1.694037
0.71002001 -0.61314499 1.6889169
0.70261002 -0.62455899 1.6941769
0.68672502 -0.63005501 1.702597
0.71066302 -0.586133 1.683857
0.69363195 -0.61701 1.6907669
