# .PCD v0.7 - Point Cloud Data file format
VERSION 0.7
FIELDS x y z
SIZE 4 4 4
TYPE F F F
COUNT 1 1 1
WIDTH 423
HEIGHT 1
VIEWPOINT 0 0 0 1 0 0 0
POINTS 423
DATA ascii
0.86196798 -0.72066802 0.98080498
0.91966599 -0.70256895 1.105384
0.91915399 -0.70275998 1.1007891
0.901761 -0.720411 1.108701
0.917072 -0.70406306 1.096035
0.90847397 -0.71657097 1.099844
0.91367304 -0.71464205 1.091115
0.90921897 -0.71721298 1.0859259
0.90459704 -0.71974999 1.080985
0.95029199 -0.67489505 1.10932
0.94456398 -0.67843103 1.1039729
0.94304001 -0.68530405 1.105577
0.92606902 -0.68367898 1.104987
0.93954498 -0.68785203 1.100376
0.92467201 -0.69249606 1.099992
0.93534398 -0.69900203 1.095734
0.91629797 -0.71470702 1.1023309
0.940373 -0.699224 1.0876
0.93681097 -0.70914 1.088902
0.91169095 -0.72699404 1.09866
0.92004305 -0.70612901 1.0880079
0.93133199 -0.71100998 1.084368
0.92458999 -0.72226602 1.0871539
0.92593402 -0.71366799 1.079824
0.92600095 -0.72236902 1.080096
0.925466 -0.75174105 1.080645
0.92232102 -0.72335798 1.075497
0.91875803 -0.75374496 1.0769839
0.92202103 -0.752904 1.069278
0.917835 -0.75355101 1.0638859
0.92086405 -0.75290799 1.0559779
0.92356902 -0.75281698 1.048432
0.94449896 -0.68807298 1.105491
0.95190001 -0.68838501 1.096828
0.94066 -0.69710296 1.100871
0.94653898 -0.690561 1.092497
0.94735998 -0.69768095 1.0920739
0.91588503 -0.71218199 1.1031411
0.93989998 -0.69947898 1.088933
0.93346196 -0.70895499 1.090099
0.932679 -0.71780998 1.0899891
0.93101501 -0.70283204 1.085117
0.94130206 -0.70886904 1.081362
0.93465799 -0.71823603 1.083339
0.91092199 -0.72920501 1.092079
0.91284299 -0.70630598 1.0849049
0.93245798 -0.71107203 1.0785249
0.93620902 -0.71918702 1.076604
0.92425001 -0.72783697 1.0816619
0.91925299 -0.71335799 1.076932
0.93251503 -0.71888804 1.072613
0.92599797 -0.72768897 1.0744569
0.91757101 -0.714661 1.0724491
0.922517 -0.72119904 1.070719
0.92682505 -0.72784895 1.068818
0.89914805 -0.71756899 1.083388
0.89075202 -0.70035005 1.093184
0.89547598 -0.70483702 1.0845751
0.88961899 -0.69969904 1.082557
0.885737 -0.68783498 1.090215
0.89948797 -0.70961303 1.067969
0.88730204 -0.70887101 1.0062081
0.89214104 -0.70408994 1.0064729
0.88261598 -0.70247704 1.003603
0.887447 -0.69876701 1.0043359
0.88450402 -0.70483202 0.99471998
0.883174 -0.69453502 1.0008969
0.88595003 -0.706743 0.98628896
0.88540196 -0.69720805 0.99147093
0.899432 -0.71037805 0.97114998
0.90004402 -0.71844399 1.1066639
0.89764804 -0.71118897 1.100983
0.90184098 -0.71946001 1.0991859
0.89472997 -0.71208 1.091594
0.90386099 -0.71749395 1.092742
0.90337801 -0.70772302 1.0871899
0.90739304 -0.71581197 1.086005
0.90574205 -0.72790498 1.0831771
0.90485495 -0.705823 1.0793099
0.91043299 -0.71256602 1.081095
0.90995497 -0.72461599 1.076683
0.911533 -0.70129502 1.073878
0.90909302 -0.71267599 1.072734
0.91313303 -0.72242105 1.06998
0.90841502 -0.69343597 1.0674
0.91226602 -0.70031899 1.0669941
0.91682601 -0.70871401 1.068141
0.93162203 -0.74667001 1.062457
0.90326101 -0.70505303 1.056004
0.91106695 -0.71218002 1.056661
0.91594005 -0.722911 1.054089
0.90745598 -0.71422899 1.0473599
0.91966403 -0.71881598 1.0498149
0.92024302 -0.73097199 1.045444
0.92170501 -0.72004998 1.041724
0.92427999 -0.72944397 1.0391021
0.92375296 -0.74000299 1.0354359
0.91812104 -0.722835 1.030875
0.92748904 -0.72820395 1.032281
0.923217 -0.72010398 1.024981
0.92842597 -0.72709501 1.023298
0.92243695 -0.71880698 1.0151919
0.93307996 -0.72408599 1.0184469
0.90803701 -0.69790298 1.0039909
0.91331899 -0.70876294 1.005042
0.92539704 -0.71516502 1.0087399
0.92888099 -0.72573096 1.008975
0.931876 -0.73575699 1.00539
0.91475999 -0.68402201 1.004181
0.91496694 -0.69241095 1.001567
0.91752195 -0.70235395 1.001559
0.92117 -0.713081 1.000101
0.93188202 -0.72296095 1.001235
0.93269402 -0.73526299 0.99808699
0.91199303 -0.68418604 0.99601305
0.91901606 -0.68981004 0.99569792
0.918185 -0.70184797 0.99442995
0.928563 -0.71063101 0.99502593
0.93638301 -0.72018796 0.99411601
0.93635595 -0.73277199 0.99225897
0.91735899 -0.681041 0.99096197
0.91681099 -0.69016999 0.98765999
0.92521894 -0.69888705 0.98868597
0.93035007 -0.71138299 0.98693895
0.94303101 -0.71618199 0.99066597
0.94260901 -0.72718203 0.98733991
0.90153396 -0.68802297 0.97651297
0.91356498 -0.69212896 0.979891
0.91610199 -0.704243 0.97517896
0.92751002 -0.71101898 0.97760892
0.94264102 -0.71620005 0.98336101
0.94451696 -0.72777498 0.97903395
0.94031405 -0.739456 0.97436696
0.92517197 -0.71264195 0.96717894
0.941998 -0.71670306 0.97354597
0.95078599 -0.72433996 0.97378403
0.94089299 -0.73862702 0.96672106
0.94086504 -0.71572703 0.96374804
0.951913 -0.72140098 0.96794492
0.90286499 -0.71002001 1.109709
0.90820199 -0.71995598 1.1086929
0.909114 -0.70966101 1.103707
0.91368598 -0.71858197 1.1026931
0.90611601 -0.73115194 1.097736
0.91497701 -0.73615098 1.098361
0.91629404 -0.70541704 1.09732
0.91541898 -0.71613997 1.0967979
0.91071898 -0.72917199 1.091962
0.90689003 -0.68776602 1.088774
0.912166 -0.69511902 1.090376
0.912036 -0.70475996 1.087893
0.91823095 -0.71534896 1.089687
0.90883201 -0.73144799 1.0822181
0.911663 -0.73895699 1.0812269
0.90353304 -0.68899 1.0815049
0.91657603 -0.69203794 1.08661
0.91113997 -0.70371497 1.080846
0.92090696 -0.71116799 1.0830539
0.92090201 -0.72375101 1.080454
0.91433698 -0.736902 1.074957
0.91410798 -0.69445199 1.078308
0.91850305 -0.703049 1.0771049
0.92059898 -0.71369904 1.074185
0.92018896 -0.72555399 1.071611
0.92025 -0.70372999 1.069489
0.927306 -0.71025705 1.0700611
0.92356199 -0.72204202 1.065729
0.92613298 -0.73104501 1.064652
0.91244102 -0.70755696 1.0558029
0.91958505 -0.71385497 1.0585699
0.92266196 -0.72371203 1.05711
0.92361397 -0.73186994 1.055349
0.90483999 -0.71073896 1.0442179
0.91028899 -0.71705902 1.04546
0.92747498 -0.72000903 1.052572
0.92821503 -0.72913003 1.0499519
0.91283995 -0.716667 1.038291
0.928545 -0.71963096 1.044732
0.92663103 -0.72924501 1.0410351
0.91546601 -0.71655601 1.03014
0.92804998 -0.71921998 1.036481
0.931539 -0.72653097 1.035694
0.93116206 -0.71866 1.0291741
0.93597394 -0.72521698 1.0294549
0.92867798 -0.71813399 1.019049
0.93663901 -0.72482902 1.021212
0.89370298 -0.69897795 0.99825305
0.91404504 -0.700288 1.006788
0.91971606 -0.71059501 1.009488
0.92688006 -0.71767998 1.009988
0.94274598 -0.72208703 1.016026
0.96537501 -0.72221899 1.0249699
0.91893303 -0.68899697 1.0056599
0.92008698 -0.69670403 1.003677
0.92364699 -0.70728898 1.0031129
0.93388903 -0.717058 1.0055119
0.954638 -0.71956098 1.013885
0.96523499 -0.72314906 1.0172099
0.91683197 -0.68979502 0.99678892
0.92290395 -0.69635499 0.99837995
0.92221999 -0.70637703 0.994214
0.93186206 -0.71533304 0.99612099
0.94940102 -0.71998101 1.0041299
0.96032202 -0.72469002 1.007116
0.916287 -0.68937796 0.98842895
0.92076898 -0.696522 0.98977494
0.92646199 -0.70617402 0.98800993
0.93277299 -0.716344 0.98767
0.95214897 -0.71897906 0.99714696
0.96468002 -0.72254097 1.001605
0.90109301 -0.69458002 0.97430098
0.91439199 -0.69899005 0.97925496
0.908571 -0.71382898 0.970532
0.93011099 -0.71636397 0.9788
0.94590205 -0.72083199 0.98523104
0.96711099 -0.72093201 0.99575698
0.93047696 -0.71668798 0.97055495
0.945786 -0.720357 0.97669297
0.96832395 -0.71987802 0.98815501
0.93152601 -0.71613294 0.96261197
0.93996596 -0.72211802 0.964396
0.96053702 -0.72366697 0.97397697
0.94626099 -0.71911794 0.96013099
0.95468599 -0.72623396 0.96158493
0.97012198 -0.72853899 0.968817
0.90344596 -0.71360296 1.1098019
0.908126 -0.721237 1.1083479
0.90947098 -0.71341103 1.1046989
0.91848296 -0.71993601 1.104998
0.92464602 -0.72550303 1.106788
0.91311401 -0.71298897 1.096653
0.92149103 -0.71915001 1.098509
0.92566198 -0.725308 1.100527
0.908333 -0.69061899 1.087201
0.90754205 -0.71063101 1.086079
0.91826105 -0.71799695 1.089653
0.927544 -0.72365797 1.094079
0.91280603 -0.68949503 1.0849221
0.89599901 -0.70339304 1.075453
0.91257399 -0.70956594 1.081997
0.91810697 -0.71803397 1.081363
0.91742206 -0.72609597 1.081537
0.90407401 -0.69237602 1.0756979
0.89306504 -0.704615 1.0669039
0.91120499 -0.70950896 1.073571
0.92696702 -0.71520799 1.077988
0.92157799 -0.72473395 1.075359
0.907646 -0.70941401 1.064947
0.92212194 -0.71513003 1.068938
0.93023401 -0.72158504 1.071072
0.91771597 -0.70990998 1.060214
0.927046 -0.71554494 1.063128
0.93493402 -0.72053999 1.065696
0.92018098 -0.71717298 1.0521049
0.93206596 -0.72082102 1.057425
0.91269094 -0.71959502 1.040246
0.93056297 -0.72041899 1.049186
0.91559702 -0.71935797 1.032584
0.92935097 -0.72109103 1.040327
0.91564202 -0.71935701 1.024273
0.91891897 -0.72431898 1.026754
0.92644399 -0.721407 1.022403
0.88813299 -0.711734 0.99449897
0.92278999 -0.72137904 1.011737
0.87570703 -0.69525397 0.98466295
0.90135801 -0.69748902 0.99674797
0.91355002 -0.70522004 1.00149
0.91474897 -0.71582395 1.001037
0.92863405 -0.71948504 1.007201
0.89616698 -0.67921996 0.989694
0.897165 -0.68850601 0.98936599
0.91111898 -0.69526702 0.99542803
0.92028201 -0.70230204 0.99838698
0.91898203 -0.71250296 0.99526197
0.92837501 -0.71877295 0.99986494
0.89572501 -0.68694603 0.98275203
0.90661502 -0.69457704 0.98623794
0.91846198 -0.70232004 0.99052596
0.918859 -0.71259201 0.98652101
0.92740196 -0.71790296 0.99131894
0.88606906 -0.69960099 0.96949995
0.90528196 -0.706752 0.97547698
0.91334999 -0.71499705 0.97552705
0.923159 -0.71925104 0.98072702
0.91141999 -0.71575302 0.966847
0.92553902 -0.71838206 0.97414398
0.922499 -0.71930498 0.96411496
0.90581203 -0.71780401 1.094625
0.90553701 -0.71840799 1.0897499
0.906178 -0.72450697 1.090217
0.90919095 -0.71967101 1.08552
0.90245402 -0.71953303 1.076625
0.86715204 -0.68718499 1.0818269
0.876091 -0.69175005 1.08076
0.88558602 -0.70398003 1.085218
0.87742305 -0.69398397 1.0760319
0.89394999 -0.71010399 1.0829101
0.89351195 -0.71090102 1.077167
0.87199599 -0.71075797 0.99536896
0.86976099 -0.71191102 0.98974198
0.87064397 -0.71108705 0.98337603
0.87309897 -0.71703905 0.97751296
0.88363701 -0.70090503 0.98239702
0.88703901 -0.70701599 0.97774905
0.87939799 -0.702833 1.081622
0.88569504 -0.70508003 1.076241
0.88334703 -0.70032001 1.0778509
0.899692 -0.69652605 1.0770169
0.88683599 -0.69816101 1.0738851
0.89909798 -0.69736099 1.072929
0.86357003 -0.71878505 0.98970002
0.86134803 -0.71961099 0.984487
0.87492698 -0.70310998 0.98977
0.86574095 -0.71518999 0.98131102
0.88017702 -0.69881201 0.987055
0.86419296 -0.71567202 0.97707701
0.85499001 -0.71701598 0.98647201
0.85875803 -0.72320294 0.98274994
0.85269201 -0.71657598 0.98174697
0.86384696 -0.72212303 0.97876298
0.85750198 -0.71503198 0.97865099
0.84699994 -0.71240097 0.97685301
0.86192805 -0.72007895 0.97450697
0.85582805 -0.71444803 0.97423398
0.84145403 -0.71422899 0.971246
0.87808502 -0.70427203 0.977081
0.908517 -0.72327799 1.082186
0.92159897 -0.723701 1.0731339
0.91146004 -0.72271597 1.070858
0.91289496 -0.721681 1.064618
0.907781 -0.72250098 1.0605149
0.91723704 -0.71546698 1.069711
0.85608 -0.69279504 1.002404
0.87153703 -0.70292997 0.99769193
0.88404298 -0.705688 0.990309
0.87890404 -0.71209097 0.98746198
0.94462502 -0.68650198 1.094476
0.95706201 -0.68908799 1.085979
0.934466 -0.69230103 1.092278
0.94648004 -0.68772101 1.084084
0.93006599 -0.692963 1.088303
0.91024899 -0.696477 1.0941479
0.94146299 -0.68751001 1.08058
0.93707103 -0.69452006 1.0811
0.91163999 -0.69762099 1.088598
0.91646403 -0.71043503 1.0841831
0.90543801 -0.71619499 1.086943
0.91149002 -0.68918097 1.0852799
0.92081398 -0.70444399 1.078769
0.92929399 -0.71640503 1.0736309
0.91952598 -0.72051001 1.077101
0.931027 -0.71821803 1.066803
0.91894698 -0.72135103 1.071184
0.92236602 -0.71792901 1.062771
0.91960996 -0.724141 1.0632911
0.89211798 -0.69856298 0.997567
0.907628 -0.71182704 0.992239
0.91133696 -0.70404196 0.98714095
0.91873097 -0.71430999 0.98439193
0.90825999 -0.70298898 0.98198396
0.91732496 -0.71263397 0.979877
0.898893 -0.700719 0.97959
0.91034502 -0.71138299 0.97641802
0.88910103 -0.70620799 0.97780001
0.93026602 -0.66500801 1.104491
0.93699998 -0.67824 1.100525
0.92522103 -0.68426496 1.103377
0.93473101 -0.65809602 1.098618
0.94335401 -0.671269 1.094208
0.95157897 -0.68550003 1.089514
0.94577903 -0.69314599 1.0906011
0.93392998 -0.69723505 1.09369
0.93015897 -0.65566903 1.095479
0.93624902 -0.66774005 1.0914619
0.95233399 -0.68542999 1.083482
0.94704801 -0.69371003 1.084406
0.93522102 -0.69979894 1.0863229
0.93521303 -0.67988402 1.083706
0.941746 -0.69376701 1.079392
0.92920899 -0.700661 1.080981
0.91542101 -0.70512801 1.084201
0.91981006 -0.686396 1.0814769
0.92738801 -0.699332 1.0768739
0.91281402 -0.70545697 1.0792619
0.89611197 -0.71028602 1.0831031
0.91303802 -0.69592005 1.0763949
0.91047096 -0.70739001 1.074138
0.91203004 -0.71757203 1.0721159
0.91174102 -0.73100305 1.069968
0.91511899 -0.72218299 1.064526
0.91806602 -0.73475194 1.060243
0.91288 -0.724733 1.057395
0.92416495 -0.73827398 1.0512149
0.93984002 -0.65565002 1.108573
0.93563598 -0.66517603 1.1007869
0.93366599 -0.67490602 1.09907
0.92774695 -0.68608803 1.0979069
0.91350901 -0.69019997 1.101113
0.92141998 -0.65969396 1.0986611
0.93959701 -0.67848098 1.090788
0.93197501 -0.68598098 1.092266
0.92806399 -0.69674796 1.090628
0.91410798 -0.69989502 1.094342
0.93374002 -0.678029 1.0854959
0.93263602 -0.68742698 1.085475
0.920811 -0.69397402 1.086368
0.91817498 -0.704036 1.08555
0.91826403 -0.67270899 1.083681
0.91910601 -0.68312502 1.082323
0.91974998 -0.69674897 1.079545
0.91652495 -0.70663399 1.078578
0.89537597 -0.70470804 1.085315
0.89526099 -0.67202902 1.084385
0.90773904 -0.68961698 1.0780001
0.919532 -0.707358 1.0720979
0.902547 -0.71101302 1.075578
0.89445299 -0.68305498 1.077706
0.90843803 -0.70265996 1.0703501
0.89850402 -0.71354401 1.069809
0.86474401 -0.68616402 0.99909103
0.87790495 -0.70144898 0.99407393
0.873384 -0.692074 0.99208295
0.87688601 -0.69587195 0.98589998
