# .PCD v0.7 - Point Cloud Data file format
VERSION 0.7
FIELDS x y z
SIZE 4 4 4
TYPE F F F
COUNT 1 1 1
WIDTH 209
HEIGHT 1
VIEWPOINT 0 0 0 1 0 0 0
POINTS 209
DATA ascii
0.71248496 -0.88823199 2.1731169
0.710783 -0.88525003 2.1639969
0.72270799 -0.89559698 2.1772768
0.71657801 -0.89487702 2.1722269
0.719042 -0.90616 2.1742868
0.71416497 -0.89486003 2.1625969
0.71021897 -0.90762901 2.157757
0.70471799 -0.87956399 2.1401169
0.68908 -0.85426801 2.1084571
0.68456399 -0.83963305 2.083827
0.67942297 -0.840671 2.0767469
0.72012198 -0.89578599 2.1687269
0.72159302 -0.906744 2.1706572
0.71841103 -0.89369601 2.1592269
0.708399 -0.89479303 2.156307
0.695288 -0.89386594 2.128777
0.67454201 -0.84339601 2.0728271
0.68961304 -0.86761498 2.0997169
0.68338603 -0.85663694 2.0907171
0.67902201 -0.88069201 2.097157
0.67963797 -0.85587901 2.080827
0.67624998 -0.84555101 2.0712371
0.698771 -0.86124301 2.1518068
0.71673894 -0.86511803 2.147687
0.71681899 -0.87561202 2.1486771
0.69165999 -0.85017699 2.1450469
0.70992899 -0.855811 2.1419871
0.69744796 -0.85660398 2.149657
0.71247703 -0.86076796 2.1455369
0.70378995 -0.852929 2.1407571
0.70803201 -0.90385598 2.140857
0.69510698 -0.91357803 2.1292269
0.68419802 -0.91511595 2.125397
0.69983101 -0.91014701 2.1279268
0.68749297 -0.91219598 2.123857
0.69667 -0.89624703 2.131707
0.72674596 -0.88107699 2.163017
0.70930099 -0.88419402 2.155827
0.72256106 -0.89051104 2.1544271
0.71147901 -0.89019698 2.1507769
0.72093695 -0.89092499 2.149677
0.70154405 -0.89545304 2.1407571
0.71464598 -0.89409202 2.1411669
0.70388705 -0.89465898 2.137197
0.72374296 -0.88905996 2.1408968
0.70624197 -0.89328599 2.134347
0.70902705 -0.88490301 2.138077
0.72697198 -0.88736397 2.1388671
0.72492498 -0.88263297 2.139997
0.70642501 -0.88588202 2.150197
0.72706002 -0.89106202 2.1477969
0.70349699 -0.89463204 2.137547
0.71545196 -0.89578199 2.1384869
0.70667297 -0.89379001 2.135247
0.70007795 -0.889947 2.134187
0.72450399 -0.89249998 2.139967
0.71686095 -0.89041799 2.137187
0.70987505 -0.88717103 2.135287
0.70275003 -0.88368499 2.133657
0.71905798 -0.886235 2.152627
0.72921598 -0.88943601 2.152477
0.70244598 -0.89091301 2.1400471
0.722498 -0.89080298 2.1451669
0.712102 -0.888282 2.1408072
0.70055002 -0.88565499 2.1367469
0.70274299 -0.87913299 2.1382971
0.72695899 -0.88959903 2.1436269
0.71849996 -0.88695097 2.1400671
0.709737 -0.88303 2.137037
0.70432198 -0.87854898 2.135617
0.73201799 -0.88360602 2.143687
0.72348601 -0.88056505 2.1403871
0.71591002 -0.87667394 2.1378069
0.704211 -0.88576698 2.1429169
0.70431101 -0.88523203 2.138747
0.71759599 -0.88421798 2.141077
0.69927001 -0.881791 2.1329169
0.73612702 -0.88276803 2.1470771
0.72727895 -0.87964499 2.1433969
0.67917395 -0.84825104 2.0777969
0.675547 -0.85699302 2.079097
0.67373198 -0.847422 2.0723269
0.67559302 -0.85539901 2.0708969
0.71490502 -0.875175 2.1536269
0.71973395 -0.88628697 2.153017
0.70411497 -0.87310702 2.1509469
0.71681398 -0.88369697 2.1479371
0.70904899 -0.89034796 2.1609669
0.71682501 -0.86823601 2.152607
0.71802002 -0.87940902 2.1525369
0.712475 -0.88854301 2.153897
0.72423303 -0.86913699 2.1445971
0.71381402 -0.87692904 2.147397
0.70486903 -0.888309 2.1500471
0.69948602 -0.86309505 2.1453271
0.72291702 -0.88454401 2.1573172
0.71798497 -0.89441103 2.158577
0.73051101 -0.88602304 2.1497769
0.72256202 -0.89276606 2.151407
0.72476995 -0.88451105 2.1450469
0.71569097 -0.89210701 2.1462469
0.70306897 -0.87893796 2.1428368
0.68254399 -0.86682898 2.0924768
0.67914701 -0.85076302 2.077477
0.673078 -0.848948 2.0707769
0.70170194 -0.89869303 2.138407
0.69006503 -0.899216 2.125387
0.71045703 -0.88759696 2.1857171
0.70498902 -0.87760299 2.1814771
0.71635801 -0.88577402 2.1691968
0.71011299 -0.87571603 2.165067
0.71302003 -0.884561 2.159307
0.70746905 -0.87347603 2.1531069
0.71037102 -0.883349 2.1487169
0.698861 -0.86253095 2.1487069
0.70810503 -0.87216002 2.1381969
0.70477301 -0.885934 2.1429069
0.704512 -0.87056297 2.127207
0.70246905 -0.88384002 2.1321871
0.69920599 -0.87056702 2.1200368
0.70200998 -0.881971 2.119267
0.69606596 -0.85632598 2.1116569
0.691948 -0.88049299 2.1161871
0.69179899 -0.89088601 2.1186972
0.68910199 -0.83326101 2.092217
0.68994904 -0.85508502 2.091187
0.68389201 -0.86789399 2.0972471
0.683496 -0.83153802 2.0842571
0.684623 -0.84372705 2.085217
0.67901903 -0.84094596 2.078177
0.67811203 -0.853827 2.0782671
0.70974898 -0.883349 2.157047
0.70420402 -0.87201399 2.1492469
0.70174402 -0.869232 2.1399271
0.70274401 -0.88129401 2.138907
0.70092696 -0.88133794 2.1290069
0.69376898 -0.85745901 2.123987
0.69079 -0.8549 2.1133568
0.69034696 -0.86643702 2.1114168
0.69152999 -0.85348201 2.0998271
0.688348 -0.86514097 2.1010671
0.68460602 -0.83991098 2.0946469
0.68843597 -0.85379601 2.091527
0.68487298 -0.83805197 2.0814071
0.68021399 -0.82579905 2.0751269
0.678487 -0.84014505 2.0751371
0.69825101 -0.868442 2.1855369
0.71193904 -0.87005895 2.161447
0.70886099 -0.87994695 2.1634269
0.72030401 -0.87021202 2.1418469
0.71489 -0.879197 2.144917
0.71365196 -0.89202797 2.146997
0.70722002 -0.90343803 2.148967
0.71516699 -0.869627 2.134197
0.70698899 -0.87827003 2.1383569
0.710226 -0.89087099 2.1368971
0.70102 -0.90284204 2.1428571
0.70257002 -0.867419 2.1321769
0.71284503 -0.87873399 2.120537
0.70227897 -0.88939202 2.1304269
0.69983202 -0.87628305 2.120477
0.69729894 -0.86348999 2.1125169
0.69513804 -0.87396795 2.111367
0.689466 -0.88527298 2.116137
0.69084901 -0.86174697 2.1051269
0.68705499 -0.87421602 2.107837
0.68988198 -0.860726 2.0931971
0.68213099 -0.84529197 2.0870869
0.68751901 -0.832214 2.0735369
0.68346804 -0.84450102 2.073487
0.72728997 -0.86496699 2.1483569
0.71864098 -0.87406898 2.156117
0.72427696 -0.863424 2.1414869
0.72656703 -0.87338203 2.1392372
0.70931298 -0.85957605 2.143837
0.71619105 -0.87104499 2.1379669
0.69988996 -0.85698503 2.141367
0.70448703 -0.86838096 2.1344271
0.69963205 -0.86648697 2.125067
0.69360602 -0.85532498 2.1205769
0.68241203 -0.846434 2.078527
0.68259901 -0.82450998 2.0744669
0.67690802 -0.84866303 2.071877
0.73704201 -0.86838603 2.148747
0.73552495 -0.86835897 2.140837
0.73266298 -0.87731397 2.1414869
0.72973096 -0.86655998 2.1351969
0.725833 -0.87554497 2.137697
0.70603502 -0.88487798 2.1544969
0.72025901 -0.86374003 2.131387
0.72041804 -0.87312204 2.1311469
0.70768303 -0.88313103 2.139107
0.70432502 -0.85797203 2.134007
0.71183199 -0.87163103 2.125567
0.69991797 -0.881953 2.1323371
0.69791198 -0.85510099 2.128957
0.70233804 -0.86643702 2.1218069
0.699251 -0.87893301 2.121017
0.69545501 -0.85415298 2.119467
0.69618303 -0.866036 2.113137
0.68972605 -0.84961897 2.1102171
0.69414496 -0.86343199 2.101867
0.69074303 -0.84990001 2.096067
0.68694001 -0.86334503 2.0972669
0.688613 -0.83570802 2.0895669
0.69190902 -0.84939104 2.083137
0.68425697 -0.83093101 2.0819769
0.68429601 -0.845469 2.078367
0.68040705 -0.81967002 2.076977
