# .PCD v0.7 - Point Cloud Data file format
VERSION 0.7
FIELDS x y z
SIZE 4 4 4
TYPE F F F
COUNT 1 1 1
WIDTH 165
HEIGHT 1
VIEWPOINT 0 0 0 1 0 0 0
POINTS 165
DATA ascii
0.65783799 -0.99485999 2.2945371
0.64901197 -0.995242 2.2897768
0.65338099 -0.99727499 2.2875271
0.63591999 -1.00359 2.2757571
0.64900398 -0.98933297 2.288007
0.63615102 -1.0087301 2.269737
0.63444698 -1.0043399 2.269537
0.63208801 -0.99997401 2.270577
0.63751298 -1.00804 2.2643769
0.63405001 -1.00398 2.2641571
0.63554698 -0.99684995 2.2682769
0.65039098 -1.00597 2.264997
0.63885397 -1.0072 2.2600269
0.63191003 -1.00588 2.256917
0.64136004 -0.99296796 2.2673869
0.64290601 -1.00532 2.2567971
0.64394796 -0.99783599 2.2609971
0.65722704 -1.0025001 2.2592971
0.64740199 -1.00332 2.253577
0.64865798 -0.99577403 2.257437
0.65443397 -1.0049601 2.2506771
0.65634 -0.99650002 2.2549272
0.65928704 -1.00079 2.2492771
0.65441 -0.98461604 2.2953069
0.65013003 -0.991822 2.2860069
0.63711798 -0.99331802 2.278367
0.652587 -0.98072797 2.292367
0.63863802 -0.99757403 2.2729669
0.637842 -0.99272799 2.2745669
0.64707494 -0.98359704 2.284137
0.63617098 -1.0000499 2.264967
0.63533998 -0.99462998 2.2671871
0.642501 -0.98581004 2.275557
0.65037298 -0.99959898 2.2672169
0.637963 -0.99898005 2.2617071
0.63199598 -0.99625897 2.259907
0.64433402 -0.98527902 2.271347
0.65152395 -0.99999499 2.2629769
0.64717901 -0.99593699 2.2625871
0.64222503 -0.99187499 2.262017
0.65358597 -0.99799401 2.2601969
0.64894503 -0.99390101 2.259537
0.64745402 -0.98955202 2.259217
0.66064298 -0.99548697 2.259397
0.65237701 -0.99252403 2.2561071
0.65193397 -0.98680705 2.256927
0.66018504 -0.99495798 2.253407
0.65549397 -0.98970497 2.2531071
0.65481102 -0.98476499 2.254287
0.65659696 -0.99007004 2.2485769
0.65431601 -0.98540395 2.248687
0.66600001 -0.99115801 2.295737
0.65358198 -0.99000198 2.287787
0.65461802 -0.98459601 2.2902071
0.65447998 -0.99480903 2.2829969
0.63926703 -0.99458295 2.2730269
0.63726103 -0.99020302 2.273747
0.63310796 -0.98723501 2.271837
0.64599401 -1.0025901 2.270237
0.64016604 -0.99930602 2.267797
0.635342 -0.99554706 2.2657871
0.63572901 -0.99037802 2.267627
0.64804196 -1.00225 2.2670069
0.64168298 -0.99972606 2.2636569
0.63721001 -0.994807 2.2622368
0.63495803 -0.98980403 2.2621169
0.63538301 -0.98528701 2.263047
0.64053297 -1.00404 2.257077
0.642443 -0.99824202 2.2595069
0.63648701 -0.99462897 2.256897
0.63863999 -0.98853701 2.2599871
0.64149696 -0.98261803 2.2622769
0.65503305 -0.99474502 2.262717
0.64514506 -0.99174005 2.258647
0.64628404 -0.985291 2.2602968
0.65290999 -0.97816002 2.265337
0.660272 -0.99264699 2.2612269
0.65424204 -0.98854899 2.2598372
0.65665102 -0.98129898 2.262557
0.65586096 -0.99330103 2.252187
0.65896499 -0.98623598 2.257647
0.65781599 -0.99299103 2.2491271
0.65783602 -0.98776704 2.2510569
0.65623397 -0.99315 2.292367
0.64824504 -0.99060202 2.286727
0.65549397 -0.98557401 2.2928572
0.63729596 -0.99574602 2.2745571
0.638758 -0.99184996 2.275887
0.63669497 -0.98834801 2.2749169
0.63846499 -0.99524999 2.270617
0.63800997 -0.99139899 2.271107
0.63919604 -0.98736501 2.271857
0.63860202 -0.995206 2.2656269
0.63908499 -0.99117994 2.2664368
0.64009398 -0.98705596 2.267657
0.64142901 -0.99463302 2.262867
0.64242995 -0.99061799 2.263447
0.64222199 -0.98670304 2.264147
0.64513499 -0.99359 2.260107
0.64310402 -0.98994499 2.2594769
0.64805001 -0.98528802 2.262907
0.65186799 -0.99248701 2.2596769
0.64873296 -0.98892194 2.258117
0.65240502 -0.984438 2.2612069
0.65454203 -0.99195296 2.256547
0.65035003 -0.98867899 2.254267
0.65597397 -0.98395503 2.2587371
0.65719903 -0.99151301 2.253557
0.656295 -0.98767996 2.253567
0.66071999 -0.982759 2.256417
0.65884101 -0.99079299 2.2499871
0.65958506 -0.99998701 2.297857
0.66003501 -0.99586403 2.2982268
0.66073602 -0.99133903 2.298697
0.639714 -0.999134 2.2794371
0.64109999 -0.99501503 2.280277
0.64036006 -0.98982102 2.2796969
0.64397401 -0.98619199 2.282747
0.64087898 -0.99924201 2.2761772
0.63713902 -0.99509805 2.2724271
0.63880098 -0.99008399 2.273737
0.64012605 -0.98579806 2.2757671
0.63542598 -0.99852204 2.266927
0.63471597 -0.99400002 2.2655871
0.632379 -0.98933899 2.2644072
0.63624102 -0.98557401 2.267437
0.63835001 -0.99841303 2.2633369
0.640127 -0.99408698 2.264437
0.64033097 -0.98941004 2.265727
0.643049 -0.98548102 2.2666769
0.64137101 -0.99863297 2.2606571
0.643906 -0.99476302 2.2624569
0.64482003 -0.98952299 2.263427
0.65256202 -0.98506796 2.2682171
0.65272301 -0.99827105 2.264287
0.661107 -0.984326 2.259207
0.662884 -0.98709601 2.256217
0.65976405 -0.98316801 2.2525568
0.66086406 -0.991588 2.3040469
0.66061401 -0.99940401 2.2851069
0.65514505 -0.9946 2.2814269
0.65525705 -0.98860705 2.287467
0.655195 -0.99361604 2.2692869
0.65406996 -0.98855102 2.2745171
0.65662199 -0.98260599 2.2836671
0.65650004 -0.98706299 2.2650869
0.66867799 -0.99988097 2.2989168
0.66433603 -0.99584299 2.2945669
0.65925795 -0.99015999 2.288727
0.65960997 -0.983841 2.2935472
0.65851504 -0.98377198 2.2801468
0.66637003 -0.97688103 2.299067
0.66515195 -0.97697997 2.283247
0.66120797 -0.99906999 2.2924671
0.65834802 -0.99379504 2.2884269
0.65877801 -0.987984 2.2916269
0.65966398 -0.99354601 2.279177
0.657543 -0.98790395 2.2767069
0.658135 -0.98316598 2.280587
0.65795404 -1.002 2.293237
0.65826601 -0.99740303 2.292357
0.66059095 -0.99213403 2.296087
0.65982801 -1.0019699 2.284467
0.65654504 -0.99153298 2.2764368
0.66061503 -0.98652196 2.2833169
