# .PCD v0.7 - Point Cloud Data file format
VERSION 0.7
FIELDS x y z
SIZE 4 4 4
TYPE F F F
COUNT 1 1 1
WIDTH 76
HEIGHT 1
VIEWPOINT 0 0 0 1 0 0 0
POINTS 76
DATA ascii
0.92482805 -0.60582602 0.15781997
0.91436303 -0.61655498 0.15278599
0.91682297 -0.62232298 0.15246597
0.91697198 -0.60560602 0.183872
0.91269404 -0.59808302 0.16407497
0.91789597 -0.597902 0.15940498
0.92530996 -0.60286403 0.15631099
0.92484999 -0.595644 0.15519798
0.92461997 -0.61067599 0.14882499
0.91664594 -0.62266099 0.20848797
0.91607004 -0.62238699 0.20257199
0.91749001 -0.62113899 0.18413998
0.91675204 -0.61360699 0.17809597
0.91743201 -0.62301397 0.17818898
0.91374499 -0.62276101 0.17040497
0.91366404 -0.62048304 0.16418098
0.91000098 -0.62984502 0.161852
0.91642499 -0.62173998 0.15129898
0.91194803 -0.61534697 0.14420098
0.915488 -0.61513197 0.14076099
0.91717696 -0.62220597 0.14092998
0.90806001 -0.61663604 0.11072998
0.91720998 -0.58254302 0.10510597
0.901613 -0.586106 0.10040699
0.90894699 -0.60749602 0.105163
0.91321898 -0.61711603 0.10634598
0.90894896 -0.62571996 0.10597198
0.909419 -0.58758301 0.098883972
0.91326797 -0.60945803 0.10120197
0.91894501 -0.62054098 0.10299297
0.91893095 -0.61295396 0.097971
0.92263001 -0.62172502 0.099580005
0.90963095 -0.627316 0.095578998
0.91456705 -0.624578 0.19765
0.91202199 -0.62267798 0.12846199
0.91571403 -0.61488998 0.12217198
0.91129798 -0.62394601 0.12272698
0.90688205 -0.60349298 0.11256099
0.92308295 -0.617082 0.118788
0.91658503 -0.62365299 0.117645
0.92302203 -0.61785299 0.11291698
0.92164099 -0.62465596 0.11146
0.922499 -0.61984801 0.10465
0.92505699 -0.62710202 0.10624398
0.92096901 -0.62057596 0.096311986
0.912669 -0.62494099 0.094903983
0.91657501 -0.618698 0.087686993
0.917032 -0.62628102 0.089631997
0.91184503 -0.61769599 0.080662996
0.91195196 -0.62428796 0.08178997
0.90714997 -0.62420297 0.07543499
0.91216397 -0.62948203 0.20208599
0.91341299 -0.63163203 0.19620399
0.916085 -0.63305998 0.11859497
0.91318399 -0.57902503 0.10153
0.89944297 -0.58158797 0.098281972
0.90160102 -0.59371901 0.10279999
0.914783 -0.62224001 0.11028999
0.91297603 -0.63307899 0.111306
0.91760397 -0.58955801 0.10044701
0.90477204 -0.59475601 0.097434998
0.90945601 -0.60967702 0.10015598
0.91865897 -0.625202 0.10557499
0.90785104 -0.631284 0.10235099
0.914792 -0.62269503 0.096956976
0.911596 -0.62315202 0.088839985
0.90614998 -0.62189603 0.079709969
0.90525299 -0.62202299 0.071805991
0.90586901 -0.62317401 0.065000989
0.90559602 -0.60525799 0.099452972
0.91126299 -0.61940402 0.10265198
0.90780401 -0.59780604 0.092302971
0.91209394 -0.609007 0.095252
0.91326302 -0.62027198 0.096215971
0.91396105 -0.61083901 0.090345994
0.91407996 -0.62224996 0.090769008
