# .PCD v0.7 - Point Cloud Data file format
VERSION 0.7
FIELDS x y z
SIZE 4 4 4
TYPE F F F
COUNT 1 1 1
WIDTH 58
HEIGHT 1
VIEWPOINT 0 0 0 1 0 0 0
POINTS 58
DATA ascii
0.94333297 -0.64945394 1.13465
0.92397302 -0.66067499 1.1424839
0.91400903 -0.67085099 1.146145
0.93302298 -0.65838099 1.1342521
0.93410301 -0.66588098 1.134334
0.93506402 -0.67503405 1.132919
0.93036497 -0.659747 1.129895
0.932446 -0.66796702 1.1292
0.94886899 -0.67406899 1.1221009
0.93155897 -0.68459702 1.129226
0.93454301 -0.668594 1.12244
0.94689399 -0.67456704 1.1173301
0.94580597 -0.68197799 1.1184779
0.94540495 -0.68246806 1.112226
0.97959 -0.62031198 1.1487221
0.98058599 -0.62067401 1.1432891
0.98101997 -0.62921798 1.1413699
0.96936303 -0.61691898 1.141746
0.97682601 -0.62288898 1.138958
0.97433197 -0.63196999 1.137996
0.97004998 -0.63889498 1.1397541
0.97381401 -0.62556899 1.1342959
0.97810602 -0.63300097 1.131318
0.97610998 -0.64092398 1.1311361
0.97395796 -0.63524199 1.1277909
0.96708 -0.64473295 1.128534
0.95118302 -0.653799 1.133966
0.95946699 -0.64653897 1.126523
0.95254999 -0.65546697 1.1280279
0.92595702 -0.66670501 1.137378
0.94170195 -0.65824699 1.1261259
0.928361 -0.667988 1.130847
0.91552299 -0.67882597 1.134899
0.92306399 -0.66216105 1.126786
0.93276197 -0.66840601 1.123166
0.93158096 -0.677948 1.123238
0.92537397 -0.67067301 1.120468
0.93476194 -0.67738402 1.116739
0.92982399 -0.68843102 1.1174409
0.936279 -0.68003196 1.110106
0.92420602 -0.69775498 1.1138699
0.97255403 -0.609828 1.143818
0.97622102 -0.62217098 1.140381
0.97132796 -0.61163104 1.137688
0.97183996 -0.621333 1.1367099
0.97323698 -0.63209498 1.134912
0.96003401 -0.60914499 1.137496
0.96952498 -0.62086397 1.13211
0.97188497 -0.63071001 1.13063
0.96756303 -0.63842303 1.13174
0.96524101 -0.64566302 1.132084
0.96669501 -0.62014598 1.129017
0.96477896 -0.62855303 1.128999
0.92175502 -0.66175497 1.1125549
0.94680703 -0.65665603 1.11608
0.94607598 -0.65739501 1.111896
0.93148696 -0.65744799 1.116119
0.92677695 -0.65750605 1.11141
