# .PCD v0.7 - Point Cloud Data file format
VERSION 0.7
FIELDS x y z
SIZE 4 4 4
TYPE F F F
COUNT 1 1 1
WIDTH 519
HEIGHT 1
VIEWPOINT 0 0 0 1 0 0 0
POINTS 519
DATA ascii
0.89171201 -0.72336602 0.59534287
0.89853501 -0.72059405 0.59525651
0.88786101 -0.71891099 0.59101862
0.89069295 -0.71258903 0.59144217
0.88517195 -0.71713901 0.58692205
0.889467 -0.71078795 0.58701181
0.89079303 -0.70146894 0.58648032
0.88985705 -0.688972 0.58566111
0.891177 -0.71967298 0.5816288
0.89001101 -0.70869201 0.58209258
0.88608706 -0.69496298 0.58270049
0.88864195 -0.686391 0.58181679
0.89421999 -0.68143702 0.5813989
0.89645302 -0.711528 0.57644022
0.88424003 -0.692828 0.57838488
0.88410896 -0.68291396 0.57834512
0.88904297 -0.67707998 0.5778603
0.90086401 -0.677185 0.57689595
0.88638997 -0.69334799 0.57342887
0.885719 -0.68297094 0.57375747
0.88374799 -0.67258102 0.57423538
0.88823801 -0.66804606 0.57378209
0.88591599 -0.68179297 0.56928152
0.883771 -0.67176199 0.56990075
0.88351601 -0.66236198 0.5687145
0.87920499 -0.66616499 0.56578147
0.87961698 -0.65792704 0.56498337
0.88596702 -0.65304101 0.56343818
0.88180703 -0.65705299 0.56020665
0.88337404 -0.64916098 0.55956441
0.88689905 -0.65820098 0.5543471
0.88038999 -0.647497 0.55609298
0.882707 -0.64630401 0.55081177
0.88980204 -0.64864403 0.54436511
0.89707804 -0.71911103 0.5960561
0.894238 -0.72517401 0.59158868
0.89129204 -0.71082604 0.591941
0.89209801 -0.70151401 0.59197831
0.893776 -0.72484201 0.58639532
0.89291495 -0.71322799 0.58733332
0.89142501 -0.69962198 0.58736259
0.89791799 -0.69385999 0.5866695
0.90336198 -0.73110902 0.58008778
0.89028394 -0.70916998 0.5822413
0.888668 -0.69490999 0.58244467
0.889579 -0.68585801 0.58345652
0.89266801 -0.67726797 0.5825308
0.907601 -0.72321504 0.57523692
0.89378095 -0.69981796 0.57703608
0.887824 -0.68188006 0.57844359
0.88617498 -0.669218 0.57856631
0.90322304 -0.67462099 0.5766809
0.90789104 -0.71412802 0.57161647
0.88543898 -0.67867106 0.57344627
0.88801497 -0.67107695 0.57401198
0.88842005 -0.66092402 0.57352102
0.88773 -0.67705101 0.56808466
0.88602602 -0.66775495 0.56924087
0.88396597 -0.65442801 0.5686059
0.89106005 -0.649979 0.56810057
0.88253701 -0.662202 0.56462061
0.880575 -0.65026397 0.56415552
0.90148401 -0.64515799 0.56253099
0.87404299 -0.644912 0.56110102
0.881634 -0.64761704 0.55474728
0.90316099 -0.72474504 0.59864348
0.89133906 -0.72256899 0.59372526
0.89356005 -0.71205401 0.59389871
0.88536 -0.71326602 0.58942682
0.88632202 -0.70178705 0.58966422
0.88585502 -0.68861198 0.58947217
0.90286696 -0.69271797 0.58738631
0.89988196 -0.72780299 0.58302861
0.88489097 -0.69922203 0.58504087
0.88194603 -0.68191904 0.58494562
0.88778299 -0.67643601 0.58467799
0.89710802 -0.714378 0.57978487
0.87470901 -0.67458701 0.58129627
0.88013196 -0.66745496 0.58022046
0.88680297 -0.66233599 0.57968819
0.87494105 -0.67116302 0.5750066
0.88107103 -0.66670096 0.5747413
0.88377196 -0.65767503 0.5746882
0.90175599 -0.66390401 0.5730173
0.8854 -0.68023598 0.5674181
0.87544996 -0.660133 0.57015383
0.87870401 -0.65026999 0.56991607
0.885903 -0.64666903 0.56985897
0.887133 -0.68233001 0.5626536
0.88553804 -0.66980398 0.56320566
0.87677801 -0.648835 0.56503278
0.88032699 -0.65010804 0.55871499
0.89276201 -0.658292 0.55103809
0.90867102 -0.65302801 0.56922525
0.89523101 -0.650599 0.56514931
0.91349196 -0.65044403 0.5655607
0.901977 -0.64710099 0.5614261
0.91025805 -0.65063006 0.56119829
0.91054702 -0.64096099 0.55666637
0.92728502 -0.63100398 0.55080819
0.94615698 -0.59154999 0.5470944
0.93489403 -0.61826003 0.54604369
0.94642198 -0.62190896 0.54599565
0.94207495 -0.58295399 0.54246479
0.944484 -0.60361695 0.5596419
0.94941103 -0.60968202 0.55800116
0.95056999 -0.59158498 0.55401808
0.94812799 -0.60173804 0.55339259
0.96699697 -0.60486698 0.5528574
0.944206 -0.58184797 0.54885656
0.95112997 -0.60214901 0.5468809
0.96479499 -0.60627997 0.54737645
0.95071703 -0.59248 0.54261756
0.954234 -0.609128 0.54091328
0.954216 -0.59581298 0.5789538
0.95729899 -0.595101 0.57341218
0.95833296 -0.59453702 0.56796819
0.97389603 -0.59123003 0.56379431
0.95512199 -0.58666199 0.55775368
0.94489801 -0.580338 0.55173308
0.95651102 -0.585787 0.55232269
0.95545501 -0.58471197 0.54717082
0.946446 -0.58540499 0.5407331
0.87689 -0.71512002 0.59845442
0.88626099 -0.72221804 0.59882277
0.89731103 -0.69989997 0.59323907
0.90622497 -0.70893306 0.594697
0.90118796 -0.71926802 0.59481639
0.90265799 -0.68847501 0.58861631
0.91439199 -0.69615197 0.58897227
0.90154701 -0.70837998 0.58979529
0.89356697 -0.71883905 0.58960307
0.90127897 -0.726771 0.59021181
0.888807 -0.66985703 0.58275759
0.91123301 -0.67633003 0.58413047
0.90988803 -0.68646795 0.58420831
0.91276604 -0.69534105 0.58448225
0.91200101 -0.70429498 0.58482867
0.89362603 -0.71681601 0.58496755
0.89169198 -0.65919197 0.57736957
0.90490603 -0.66698402 0.57862628
0.90730304 -0.67646301 0.57960999
0.90926498 -0.68449801 0.57884759
0.91008794 -0.69461095 0.57980639
0.90294099 -0.70592904 0.58068252
0.88289201 -0.64939696 0.57192332
0.90880203 -0.65583998 0.57318699
0.91010904 -0.66538697 0.57351202
0.90602404 -0.67531896 0.57423508
0.90959704 -0.68307799 0.5735684
0.90643096 -0.64588094 0.56832671
0.91181505 -0.653781 0.5677917
0.90802598 -0.66349298 0.56835628
0.91025704 -0.67299896 0.56847697
0.892528 -0.682639 0.5670076
0.96732199 -0.60251302 0.5654245
0.94338399 -0.61111498 0.56420058
0.92643601 -0.63155401 0.56393152
0.91062796 -0.643996 0.563146
0.91924202 -0.652659 0.56312579
0.90782702 -0.66287005 0.562841
0.88551903 -0.67433298 0.56178641
0.95791197 -0.60267401 0.56102121
0.946585 -0.609671 0.55951059
0.94344497 -0.61885297 0.55907297
0.93468302 -0.62925798 0.55943471
0.91786903 -0.64053202 0.5580039
0.91267502 -0.65218198 0.55793798
0.88664401 -0.66434997 0.55674422
0.95690298 -0.60238999 0.55582392
0.94514 -0.61028701 0.55408311
0.94964898 -0.618756 0.55385989
0.93941903 -0.62904704 0.5539279
0.91499299 -0.64184403 0.55273658
0.89126402 -0.65455902 0.55233091
0.94904405 -0.60211301 0.54868728
0.94750506 -0.611148 0.54882342
0.94818604 -0.620157 0.54914159
0.93808097 -0.62874401 0.5478828
0.97009397 -0.59296697 0.54486251
0.94695902 -0.60013503 0.54251951
0.94901603 -0.60865098 0.54368854
0.94453502 -0.61850798 0.54317278
0.938097 -0.626526 0.5411706
0.91221899 -0.71013606 0.60590208
0.90840304 -0.71343803 0.60191977
0.91503197 -0.70012397 0.60186392
0.903696 -0.71722603 0.5978545
0.90734202 -0.705697 0.59793609
0.90882897 -0.69273901 0.59695321
0.91891897 -0.71442598 0.59310859
0.91796303 -0.70604897 0.59335852
0.90679497 -0.70188498 0.59304732
0.88554603 -0.705329 0.59281701
0.895895 -0.68819296 0.5921002
0.88336504 -0.70557505 0.58901876
0.89251196 -0.68791395 0.58751047
0.899647 -0.67120796 0.58694708
0.87474197 -0.67517501 0.58701891
0.891249 -0.65243697 0.58616447
0.88734102 -0.69958097 0.58394128
0.89426005 -0.68416703 0.58292985
0.89349699 -0.67285895 0.582533
0.87329698 -0.67407399 0.58256441
0.87974799 -0.65914899 0.5821951
0.89992404 -0.67040396 0.57875901
0.86509103 -0.67945701 0.57875109
0.86975896 -0.66442299 0.57739431
0.87485003 -0.64937204 0.57670832
0.87160599 -0.67063904 0.57258898
0.86428595 -0.66621399 0.5719648
0.86259902 -0.65709901 0.57217932
0.86702204 -0.64173597 0.57141936
0.85797095 -0.67016405 0.56785971
0.86200798 -0.65727699 0.56696928
0.86359596 -0.64386004 0.5665738
0.87307602 -0.65509599 0.5611006
0.86309099 -0.65261704 0.56150842
0.87073195 -0.64413202 0.55479079
0.85997903 -0.64242995 0.55516237
0.87777704 -0.72806901 0.59911817
0.892609 -0.70926905 0.59809548
0.88161498 -0.72539401 0.59423649
0.88937205 -0.70965695 0.59357858
0.90290999 -0.68955398 0.59263039
0.90814799 -0.676373 0.59210759
0.89054495 -0.67841601 0.59225661
0.90527606 -0.71176201 0.58925307
0.88593596 -0.71241403 0.58997732
0.90036601 -0.69044405 0.58838999
0.89726502 -0.68196797 0.58862889
0.87072998 -0.68736398 0.58843088
0.909365 -0.681835 0.58336562
0.88513702 -0.68641001 0.584387
0.87065905 -0.68413806 0.58375537
0.86907697 -0.676341 0.5833168
0.86734903 -0.68477702 0.57986057
0.86528802 -0.67644995 0.57914668
0.86906701 -0.66458601 0.57837641
0.86470598 -0.67461097 0.57444406
0.86544901 -0.66456705 0.57402909
0.87779802 -0.64611 0.57273805
0.87120199 -0.66875297 0.56956989
0.86219299 -0.66493899 0.56977427
0.868312 -0.64935303 0.5686357
0.86089599 -0.641886 0.56826741
0.87222505 -0.645513 0.56340247
0.86009103 -0.642703 0.56365019
0.85925204 -0.64158797 0.55803895
0.85535699 -0.63410497 0.55844778
0.87675101 -0.72699302 0.60712308
0.87738502 -0.72517502 0.60258508
0.88146698 -0.71424699 0.60159427
0.88447404 -0.72015297 0.59759092
0.87718695 -0.71387297 0.59742099
0.87404799 -0.70531797 0.59727973
0.88331103 -0.69023496 0.5961315
0.91729701 -0.72437501 0.59142929
0.88876802 -0.72664595 0.59310818
0.88291496 -0.71816999 0.59278661
0.87427694 -0.71238703 0.59330058
0.86391699 -0.70863503 0.59413308
0.86855501 -0.69744402 0.59330362
0.88208199 -0.68114799 0.59209609
0.90072197 -0.70981497 0.5872848
0.87659699 -0.71160597 0.58846301
0.87044799 -0.70525199 0.58943009
0.87045997 -0.69595599 0.58853036
0.87375802 -0.68459398 0.58814847
0.89560997 -0.664074 0.58648449
0.88596702 -0.70635903 0.58355737
0.87206805 -0.703417 0.58443958
0.87332898 -0.69274002 0.58411419
0.873052 -0.68415099 0.58376306
0.88622999 -0.66789103 0.58284897
0.88172203 -0.65878505 0.58221716
0.87978995 -0.64884698 0.58141673
0.89119202 -0.69444394 0.57936502
0.87960404 -0.68974406 0.58006263
0.88344705 -0.67665499 0.57943237
0.87680399 -0.66833001 0.5791316
0.86260694 -0.66658998 0.57956785
0.86522597 -0.65613502 0.57874638
0.87621903 -0.641321 0.57762122
0.86680299 -0.66218495 0.57451648
0.861494 -0.65662801 0.57465708
0.856332 -0.65090203 0.57469851
0.86251199 -0.66241205 0.56874681
0.85913199 -0.65657598 0.57000899
0.85121298 -0.65223294 0.57059187
0.85129899 -0.64506894 0.57034767
0.88571405 -0.64956594 0.5619058
0.86736798 -0.65174794 0.56388509
0.85598397 -0.64912695 0.5655489
0.84763497 -0.64405096 0.56453407
0.85542899 -0.64752406 0.56000948
0.84290999 -0.64400202 0.56001049
0.828686 -0.64412695 0.5611456
0.85033303 -0.63975298 0.55493701
0.84229898 -0.63525099 0.5555979
0.82246804 -0.63949102 0.55767649
0.84748399 -0.63175899 0.55013841
0.83818495 -0.62974095 0.55170882
0.84204298 -0.62710398 0.54623359
0.838229 -0.63229197 0.55527663
0.83938497 -0.63129598 0.55081105
0.867706 -0.67484999 0.58995438
0.86758798 -0.66914397 0.59010541
0.86182898 -0.676633 0.58687919
0.86191005 -0.67059302 0.58737659
0.86841398 -0.66272002 0.58669329
0.86709601 -0.67548698 0.58245736
0.86165899 -0.67083502 0.58303767
0.852305 -0.66653997 0.58449632
0.864057 -0.65684402 0.58265036
0.86528295 -0.67521304 0.57849789
0.861296 -0.67028099 0.5788334
0.86173403 -0.66305196 0.57899368
0.86167395 -0.65449405 0.57769221
0.87054002 -0.67331499 0.5745306
0.86638099 -0.66751802 0.57459664
0.86455399 -0.65932196 0.57382399
0.86276799 -0.65201104 0.57339185
0.85962403 -0.64637601 0.57341433
0.86864305 -0.65785599 0.56956238
0.86523902 -0.65108198 0.56933039
0.86331099 -0.64461303 0.56951517
0.85874701 -0.63818699 0.56882697
0.87438697 -0.64743596 0.56421179
0.86295301 -0.64282203 0.56511688
0.85594398 -0.63713402 0.56526697
0.86299103 -0.64117599 0.56027359
0.90410697 -0.71348602 0.6017434
0.895199 -0.70032996 0.59571952
0.91986197 -0.71276498 0.597148
0.90279001 -0.68234199 0.59037709
0.91620302 -0.69236201 0.59093589
0.91247499 -0.70232004 0.59226429
0.922463 -0.71274805 0.59185898
0.91746199 -0.72199798 0.59188157
0.88618696 -0.65924698 0.58398157
0.91004503 -0.66965699 0.58482331
0.91453004 -0.68111998 0.5860073
0.91867203 -0.69105697 0.58576822
0.91747004 -0.70141703 0.58712107
0.91926694 -0.71053499 0.58616519
0.91785794 -0.72086501 0.58694118
0.89492106 -0.72847903 0.5869602
0.90826106 -0.66121501 0.57974046
0.91889602 -0.67224401 0.5810681
0.92326796 -0.68221903 0.58157849
0.92412299 -0.69044703 0.58075309
0.91863096 -0.70025498 0.581433
0.90669996 -0.71029299 0.5817045
0.89873701 -0.72000504 0.58244181
0.95197999 -0.58344501 0.57750082
0.88977098 -0.64834803 0.57339978
0.90531898 -0.65870798 0.57387137
0.90656799 -0.66889 0.5751487
0.92194098 -0.68079102 0.57658499
0.91616201 -0.68989801 0.57640326
0.89908999 -0.69947195 0.57688099
0.90178597 -0.648534 0.5685783
0.90592796 -0.65792102 0.5692091
0.90524501 -0.66653198 0.56971341
0.90389198 -0.67667097 0.57088548
0.91194201 -0.64845103 0.56411052
0.90539098 -0.65706599 0.56488872
0.89380598 -0.66600198 0.56559646
0.90871203 -0.64648002 0.55915248
0.94556201 -0.59098601 0.55381131
0.90839899 -0.64334297 0.55306709
0.94330901 -0.591133 0.54871058
0.94391 -0.60152799 0.54871017
0.93373704 -0.61975199 0.54752851
0.94185096 -0.59999102 0.54271561
0.894095 -0.70456004 0.59808642
0.90826201 -0.71587402 0.598768
0.88929701 -0.68069506 0.59190661
0.90253603 -0.69167197 0.59228188
0.91630399 -0.70658994 0.59348017
0.91594905 -0.71727598 0.59464067
0.896281 -0.67271399 0.58650327
0.90959603 -0.683824 0.58768767
0.91422099 -0.69454402 0.58800167
0.91058999 -0.70437795 0.58746415
0.91745204 -0.71617699 0.58932322
0.911874 -0.725344 0.58947748
0.91320699 -0.67500097 0.58180791
0.911919 -0.68453699 0.58301097
0.91159797 -0.69434899 0.58210129
0.91447306 -0.704615 0.58250546
0.91080499 -0.71276397 0.5833835
0.88778704 -0.64835197 0.57398528
0.90451795 -0.66117102 0.5750376
0.909446 -0.67202598 0.5763579
0.910043 -0.68218005 0.57695776
0.90516901 -0.69129997 0.5765062
0.90116698 -0.700939 0.5777564
0.88990402 -0.70744902 0.57820028
0.90468901 -0.650231 0.56955796
0.90233004 -0.65885496 0.56975508
0.90515298 -0.66988701 0.57097501
0.90060204 -0.68001294 0.57151181
0.88502198 -0.68805099 0.5721854
0.90226096 -0.64966398 0.56445402
0.90601194 -0.66049898 0.56542867
0.88556802 -0.66496903 0.56527811
0.90460503 -0.64671898 0.55853999
0.90142703 -0.65662104 0.5599333
0.94638497 -0.58507299 0.55326378
0.90000999 -0.64513499 0.55342001
0.942895 -0.58246797 0.5467183
0.94653398 -0.60479999 0.54801267
0.94024801 -0.61313999 0.54805356
0.93244004 -0.62266701 0.54746836
0.94265294 -0.59164602 0.54154497
0.94254798 -0.60307497 0.54221612
0.93005204 -0.62281901 0.54213506
0.896828 -0.71102697 0.60079062
0.90313798 -0.68955302 0.59381276
0.91805702 -0.70289499 0.59427285
0.91747499 -0.71538001 0.59612828
0.91233397 -0.68133301 0.58841646
0.91646403 -0.69197303 0.5892663
0.91518801 -0.70113999 0.58981758
0.91640699 -0.71185994 0.59015709
0.91662496 -0.72374499 0.59180039
0.90185499 -0.66539103 0.58159757
0.91801298 -0.680902 0.58339608
0.91251504 -0.68930602 0.58421606
0.91459602 -0.70046699 0.58441979
0.920802 -0.712605 0.58503807
0.91280097 -0.72006601 0.58614749
0.911111 -0.65897298 0.57658213
0.91659701 -0.67004997 0.57788539
0.918966 -0.67996401 0.57853067
0.91258299 -0.68837196 0.57887608
0.90412802 -0.69656301 0.57856774
0.89733702 -0.70450699 0.57980859
0.90339696 -0.64396501 0.5697611
0.91131896 -0.65528798 0.57058048
0.91065902 -0.66536301 0.5724566
0.91012102 -0.67605102 0.57351708
0.89007103 -0.68329203 0.57388419
0.88342398 -0.69148201 0.57430291
0.91782498 -0.64674401 0.5655238
0.90553999 -0.65148699 0.56508189
0.90978795 -0.66250396 0.56621057
0.90678596 -0.64173698 0.55988598
0.91202903 -0.65335602 0.55986238
0.89522696 -0.65615797 0.55949765
0.94770598 -0.599428 0.5534144
0.94682997 -0.609272 0.55357158
0.93966502 -0.61633998 0.55353808
0.93246806 -0.62545103 0.55374557
0.90747297 -0.640836 0.55403131
0.94442803 -0.60876 0.5474655
0.93712401 -0.61852199 0.54777521
0.93281603 -0.62792599 0.54837608
0.94085503 -0.596609 0.5405165
0.94456899 -0.61913896 0.54237449
0.93302 -0.62543797 0.54215568
0.89751297 -0.69346899 0.594437
0.91403902 -0.71268499 0.59561026
0.89816701 -0.67194504 0.58857381
0.90930396 -0.68641603 0.58920497
0.91763997 -0.70134807 0.59014797
0.91469705 -0.71078598 0.59023488
0.91433698 -0.72195798 0.59094691
0.90174699 -0.66153902 0.58210921
0.90573198 -0.67352897 0.58344758
0.911412 -0.68746597 0.58396769
0.915295 -0.70116997 0.5850547
0.90801805 -0.70874399 0.58489645
0.90210503 -0.71842104 0.5859558
0.88861001 -0.725613 0.58735818
0.89079005 -0.64497703 0.57506979
0.912835 -0.66494596 0.57684159
0.91829401 -0.67851305 0.57848549
0.91465795 -0.68695199 0.57786548
0.90926903 -0.69696504 0.57902163
0.90050006 -0.70494199 0.57974279
0.90641099 -0.64926398 0.56984735
0.90609598 -0.66074896 0.57114041
0.91084898 -0.67432702 0.57283473
0.90845799 -0.684784 0.57330739
0.88860703 -0.68913698 0.57413596
0.90346497 -0.64498705 0.56389821
0.904019 -0.656335 0.5653913
0.90294999 -0.66924006 0.5676685
0.94111395 -0.61388201 0.55750787
0.90444803 -0.64431602 0.55815226
0.939731 -0.61263597 0.54535341
0.90241599 -0.71087998 0.60317087
0.89875501 -0.69736201 0.59702212
0.909805 -0.71359199 0.59802228
0.90281898 -0.672755 0.58907861
0.91179299 -0.68750703 0.58970416
0.91168296 -0.70155299 0.59130633
0.91239303 -0.71513498 0.592507
0.91433197 -0.67776799 0.58393198
0.90989 -0.68819803 0.58517838
0.91190201 -0.700297 0.5856443
0.90943396 -0.70961404 0.58615702
0.90747803 -0.72073901 0.58758867
0.90708101 -0.66017503 0.57678008
0.90529001 -0.670977 0.57743907
0.90769094 -0.68429101 0.57938558
0.90852094 -0.69720805 0.58014983
0.902098 -0.705625 0.58095968
0.90049797 -0.64471197 0.57001048
0.90461999 -0.65894598 0.57145953
0.91046095 -0.67302203 0.5722028
0.90198898 -0.68045896 0.57369852
0.89226997 -0.689587 0.57515037
0.89921796 -0.65314502 0.56543612
0.89100802 -0.66038495 0.56654841
0.892156 -0.64694601 0.55842757
