# .PCD v0.7 - Point Cloud Data file format
VERSION 0.7
FIELDS x y z
SIZE 4 4 4
TYPE F F F
COUNT 1 1 1
WIDTH 1504
HEIGHT 1
VIEWPOINT 0 0 0 1 0 0 0
POINTS 1504
DATA ascii
0.58467299 -0.87393403 2.2659571
0.58424002 -0.86755401 2.267977
0.59738201 -0.85543096 2.280297
0.65503305 -0.99474502 2.262717
0.64514506 -0.99174005 2.258647
0.64628404 -0.985291 2.2602968
0.65290999 -0.97816002 2.265337
0.59486401 -0.87999296 2.2638171
0.588615 -0.87809896 2.2610569
0.58689302 -0.87237704 2.262367
0.59099901 -0.86457002 2.2677071
0.660272 -0.99264699 2.2612269
0.65424204 -0.98854899 2.2598372
0.65665102 -0.98129898 2.262557
0.61779803 -0.87611502 2.2722671
0.59855199 -0.87952906 2.2609169
0.590985 -0.87689203 2.2577569
0.59290296 -0.86940598 2.2616968
0.60490203 -0.85816801 2.272897
0.65586096 -0.99330103 2.252187
0.65896499 -0.98623598 2.257647
0.62538099 -0.87937796 2.2701571
0.60197198 -0.88472998 2.2555671
0.594684 -0.88184196 2.252877
0.596973 -0.873649 2.2572269
0.60316396 -0.86485702 2.2640669
0.65781599 -0.99299103 2.2491271
0.65783602 -0.98776704 2.2510569
0.62927103 -0.88340205 2.2656269
0.61816603 -0.88319606 2.2602072
0.59963 -0.885786 2.2491271
0.59438998 -0.88133401 2.2478368
0.60432899 -0.87002403 2.257647
0.61318803 -0.86058098 2.2660871
0.60950804 -0.89239198 2.246927
0.60421395 -0.88921303 2.2453871
0.599738 -0.88451201 2.2447369
0.59993398 -0.87789202 2.247597
0.60573602 -0.870139 2.2532969
0.62970102 -0.88319999 2.2567971
0.60862803 -0.88801694 2.2429571
0.60091096 -0.88541603 2.240417
0.600954 -0.87869906 2.2428069
0.619941 -0.86404502 2.258177
0.611687 -0.89120299 2.238977
0.60980898 -0.88692302 2.238487
0.60529703 -0.88301802 2.2387969
0.60794401 -0.87591201 2.2422471
0.60810602 -0.89265603 2.2309868
0.60468602 -0.88930202 2.2303169
0.60734797 -0.88233 2.234657
0.62165099 -0.869937 2.246557
0.61222398 -0.89179301 2.2280369
0.61139196 -0.88648105 2.230267
0.61361903 -0.87971395 2.2336369
0.69865197 -0.96003801 2.2497768
0.627828 -0.88980001 2.2324769
0.61431801 -0.89111102 2.2248771
0.61024302 -0.88706702 2.2241471
0.62400699 -0.875328 2.235527
0.68665296 -0.96390897 2.237937
0.622958 -0.892703 2.2240269
0.616633 -0.89015406 2.221477
0.61709803 -0.88431299 2.223537
0.62988997 -0.89473605 2.2220469
0.61847997 -0.89505601 2.215857
0.61905599 -0.888807 2.2181771
0.63257903 -0.87740499 2.228647
0.67092204 -0.96626699 2.2171869
0.68784302 -0.95485198 2.2296469
0.623061 -0.89799899 2.2122669
0.62308198 -0.89234805 2.214427
0.62508702 -0.88571703 2.2178571
0.636756 -0.87590402 2.2268469
0.67401004 -0.97091001 2.2140169
0.67140502 -0.96550006 2.2127869
0.67856795 -0.95683295 2.2194169
0.69017899 -0.94770896 2.2283969
0.619371 -0.90100098 2.2036271
0.62200904 -0.89408302 2.208647
0.62328398 -0.88786203 2.2113869
0.71262497 -0.97874904 2.2296369
0.70578599 -0.97566903 2.2264669
0.68949097 -0.97332799 2.2173569
0.67572999 -0.97020501 2.2103269
0.66890097 -0.96626997 2.2071068
0.67948896 -0.95609999 2.2150071
0.68844002 -0.94663399 2.2226369
0.62782502 -0.90801698 2.2006071
0.63041502 -0.90197599 2.2042871
0.624147 -0.89946002 2.201777
0.61963296 -0.89533401 2.202157
0.63090903 -0.88506699 2.210407
0.68491203 -0.96635199 2.211437
0.67797601 -0.96271002 2.2087269
0.68065202 -0.95501405 2.210717
0.68654901 -0.94620103 2.2164571
0.69458199 -0.93716598 2.2228069
0.62351 -0.90538001 2.1952071
0.62568402 -0.89879799 2.1987371
0.62281901 -0.89419198 2.198997
0.63768399 -0.88217902 2.2099271
0.703053 -0.95888495 2.218827
0.68961 -0.95754796 2.211587
0.68486601 -0.95310897 2.2092772
0.67846799 -0.94941598 2.2066071
0.67472398 -0.943721 2.205637
0.68378603 -0.93498302 2.212997
0.63041401 -0.90750295 2.1934571
0.62693197 -0.904365 2.1920271
0.62526602 -0.89885104 2.194267
0.62980998 -0.89099699 2.1984971
0.68046898 -0.95353597 2.2028871
0.66867697 -0.95132601 2.1960471
0.66438001 -0.94632894 2.1941769
0.66512001 -0.94033998 2.196727
0.627846 -0.90899396 2.1870871
0.62911302 -0.90375298 2.188617
0.62856501 -0.89750397 2.1906669
0.64313102 -0.88515502 2.201827
0.67677802 -0.953417 2.195507
0.66632897 -0.95151496 2.1894271
0.66130501 -0.94721603 2.1881571
0.661156 -0.94140404 2.1896269
0.655204 -0.93598294 2.187047
0.66598296 -0.92411304 2.1948869
0.62736696 -0.90949798 2.181407
0.63285899 -0.90120399 2.1872871
0.63357103 -0.89534402 2.1888969
0.63624597 -0.88883299 2.1925669
0.68018502 -0.96807599 2.1855569
0.672782 -0.964064 2.1834571
0.66248101 -0.95989603 2.1805968
0.66132796 -0.95399803 2.1811669
0.66147906 -0.94697404 2.183857
0.65434897 -0.94232005 2.1811171
0.65211099 -0.93621802 2.180757
0.65204102 -0.92931801 2.1829069
0.670735 -0.91573697 2.1957369
0.62262797 -0.91718698 2.171927
0.62290102 -0.91242999 2.173147
0.62796503 -0.90370798 2.1797669
0.64303297 -0.89088798 2.1911669
0.65010297 -0.88215697 2.197747
0.67778701 -0.98814303 2.175137
0.67026299 -0.98533094 2.172127
0.66364503 -0.98017603 2.1704171
0.66153198 -0.973427 2.171397
0.66522497 -0.96523803 2.1762969
0.662633 -0.95947504 2.1758568
0.66425598 -0.95134401 2.1788871
0.66272199 -0.94447303 2.180167
0.65246695 -0.94183701 2.1758769
0.65420997 -0.93531197 2.1776469
0.64969999 -0.93019098 2.1767771
0.65050799 -0.92293799 2.1796069
0.66890901 -0.91000998 2.1923971
0.62808001 -0.91619796 2.170397
0.61334497 -0.91729796 2.162257
0.61945701 -0.90842599 2.169507
0.68186402 -1.00196 2.168937
0.675035 -0.99759805 2.1668971
0.66513604 -0.99289495 2.1639471
0.66255403 -0.98695296 2.164417
0.66072303 -0.98044294 2.164747
0.66023201 -0.973701 2.1662469
0.66264802 -0.96640503 2.1702871
0.66085899 -0.96117896 2.1697769
0.66173398 -0.953915 2.1723571
0.660999 -0.94637102 2.173897
0.65989995 -0.93886596 2.175607
0.65233904 -0.93442595 2.1727471
0.65306395 -0.92807996 2.174777
0.64614403 -0.92442495 2.172087
0.64329499 -0.917889 2.173207
0.616934 -0.92146003 2.1591671
0.60237598 -0.922194 2.1510971
0.59188098 -0.92149299 2.1467071
0.68497801 -1.02586 2.1608269
0.68587196 -1.02038 2.1626868
0.67754096 -1.01703 2.159487
0.66570997 -1.01291 2.154747
0.66550905 -1.0061901 2.156517
0.66509801 -0.99933898 2.157887
0.666632 -0.99143702 2.161087
0.66114897 -0.986678 2.1597369
0.66410303 -0.98023003 2.1621969
0.66068399 -0.97473699 2.162077
0.664303 -0.96630698 2.1664572
0.66759002 -0.95795798 2.170377
0.66970801 -0.94941497 2.1739869
0.67675799 -0.94001901 2.179667
0.667759 -0.93622702 2.175607
0.656802 -0.93300599 2.1707671
0.65138602 -0.92837095 2.1697168
0.64573199 -0.92382598 2.1669369
0.64296699 -0.91865402 2.167927
0.62977797 -0.91683799 2.161787
0.58427298 -0.92807096 2.1365769
0.57511598 -0.927917 2.1323171
0.68969804 -1.04465 2.155297
0.68884498 -1.0404299 2.1555271
0.68462896 -1.0355999 2.1542869
0.66312897 -1.03345 2.1444569
0.66814905 -1.0250599 2.1493571
0.66755301 -1.0183799 2.151067
0.66649598 -1.01203 2.1514671
0.66555297 -1.0054699 2.1528869
0.66411698 -1.0007 2.152627
0.66682798 -0.99311697 2.1564071
0.6652 -0.986058 2.158087
0.665232 -0.97858202 2.160017
0.67655402 -0.96767598 2.168587
0.68072599 -0.95976305 2.172827
0.666399 -0.928141 2.1717069
0.65158999 -0.92760694 2.1650071
0.64886004 -0.92207003 2.1648171
0.64209998 -0.91834098 2.162437
0.62711698 -0.91708702 2.1551571
0.59709501 -0.92311895 2.1395669
0.57430303 -0.92735296 2.1275671
0.686634 -1.04501 2.1505871
0.66810995 -1.0447 2.1409171
0.66396105 -1.03923 2.1395869
0.66764605 -1.0311799 2.1434171
0.66604203 -1.02521 2.1437669
0.66699302 -1.01879 2.146497
0.66544801 -1.01336 2.1460068
0.66824603 -1.00571 2.1497569
0.66822505 -0.99973601 2.151407
0.68992597 -0.98396897 2.167357
0.68219203 -0.92098701 2.1769471
0.66432798 -0.92234999 2.167917
0.65263903 -0.92026901 2.1630869
0.65093005 -0.91458297 2.1627271
0.64209604 -0.91219801 2.1592569
0.60409302 -0.91961306 2.138947
0.58210701 -0.92321897 2.1279769
0.590096 -0.91410899 2.1339071
0.68040496 -1.04589 2.143137
0.66715205 -1.0441201 2.1360068
0.66677397 -1.03878 2.136997
0.66339499 -1.03399 2.1364169
0.66350996 -1.0271801 2.1379871
0.66929603 -1.01853 2.1431069
0.66569901 -1.0126799 2.1429269
0.68047094 -1.00174 2.153347
0.68952596 -0.91315901 2.179157
0.65798301 -0.91639704 2.161557
0.65034795 -0.913028 2.1583569
0.63379699 -0.91282201 2.1504769
0.60874903 -0.916807 2.137377
0.59145099 -0.91854894 2.129317
0.584095 -0.91602701 2.126657
0.59277803 -0.90741897 2.132957
0.67794698 -1.04617 2.1371369
0.66930699 -1.04388 2.133117
0.66777301 -1.03874 2.1337571
0.67453003 -1.03013 2.1390171
0.67663598 -1.02209 2.1423171
0.68348503 -1.01375 2.1477871
0.67140001 -0.90918297 2.1648269
0.656147 -0.91086501 2.1574471
0.64509904 -0.908737 2.1520669
0.623016 -0.911008 2.141417
0.60305601 -0.913109 2.131897
0.58747101 -0.91440302 2.124877
0.59097403 -0.90782702 2.127857
0.68382698 -1.04469 2.1369469
0.67713702 -1.0416501 2.134397
0.67865199 -1.0354 2.1365869
0.65569705 -0.90936303 2.1527369
0.64816499 -0.90652603 2.1492071
0.628461 -0.90861803 2.1399069
0.61330396 -0.90817595 2.133487
0.59572297 -0.90996802 2.125617
0.61403501 -0.89620697 2.136667
0.66986501 -0.901905 2.1565869
0.65579498 -0.90329903 2.149817
0.63423598 -0.905967 2.1385469
0.62124997 -0.904432 2.1333871
0.61233503 -0.90158701 2.1305871
0.60534698 -0.899782 2.1276469
0.65046996 -0.903705 2.1429069
0.63690698 -0.90340501 2.135807
0.62601101 -0.90230697 2.1314571
0.61974299 -0.89834601 2.1298971
0.61224198 -0.89637494 2.1275971
0.63947099 -0.90169001 2.1332171
0.63059402 -0.90038902 2.129837
0.62418002 -0.89684504 2.127697
0.61483198 -0.89458501 2.123807
0.643996 -0.89849401 2.131217
0.636491 -0.89634699 2.1286869
0.619596 -0.89706397 2.121407
0.62131697 -0.88988096 2.122967
0.63583601 -0.87818998 2.132787
0.68824202 -0.88716596 2.145797
0.64625502 -0.89694899 2.1277969
0.63502699 -0.89591199 2.1231871
0.62797201 -0.89289302 2.1217771
0.62524801 -0.88708901 2.120847
0.62538302 -0.88128096 2.1228471
0.70642501 -0.88588202 2.150197
0.68776804 -0.88799202 2.1419871
0.66190803 -0.89200699 2.1304669
0.64591104 -0.89168298 2.1245871
0.63161898 -0.89073199 2.1190069
0.62407297 -0.88692498 2.116127
0.626481 -0.879601 2.119417
0.637312 -0.86827105 2.126497
0.69185799 -0.89240503 2.1383169
0.68510103 -0.88841498 2.1370869
0.66716903 -0.88907206 2.1292169
0.65561897 -0.88743103 2.125227
0.63925302 -0.88816595 2.1186368
0.62532598 -0.88726199 2.112437
0.62035 -0.88287497 2.1120369
0.61899298 -0.87696296 2.1125669
0.61568296 -0.87166196 2.1116669
0.72706002 -0.89106202 2.1477969
0.70349699 -0.89463204 2.137547
0.69533896 -0.89194703 2.1356771
0.690189 -0.88786697 2.134927
0.68536103 -0.88277 2.1346068
0.66731501 -0.88182294 2.127327
0.64074999 -0.88608301 2.1151769
0.62563598 -0.88633901 2.108587
0.62086898 -0.88198197 2.108047
0.61072499 -0.87892097 2.103827
0.60360998 -0.87574995 2.1016669
0.608226 -0.86907798 2.105757
0.71545196 -0.89578199 2.1384869
0.70667297 -0.89379001 2.135247
0.70007795 -0.889947 2.134187
0.69655001 -0.88509005 2.1344671
0.64707804 -0.88197303 2.114027
0.63011599 -0.88320601 2.1071069
0.61606699 -0.88264 2.101527
0.612023 -0.87847102 2.1001868
0.60638696 -0.87455904 2.098947
0.602799 -0.87115502 2.0993171
0.72450399 -0.89249998 2.139967
0.71686095 -0.89041799 2.137187
0.70987505 -0.88717103 2.135287
0.70275003 -0.88368499 2.133657
0.65648299 -0.87607598 2.114717
0.63828301 -0.87925696 2.1065371
0.61932099 -0.88093299 2.0987771
0.614676 -0.87594199 2.0980871
0.60215998 -0.87571996 2.092267
0.60204601 -0.87102598 2.0945671
0.65106905 -0.83235496 2.1218069
0.66169 -0.82217103 2.1289871
0.64649695 -0.87471098 2.1067669
0.63321 -0.87462097 2.100847
0.61147398 -0.87721604 2.0920172
0.60887301 -0.87138999 2.091887
0.60438502 -0.86813903 2.091337
0.64281797 -0.83740503 2.1138771
0.64052302 -0.83338404 2.1144769
0.65004802 -0.82367897 2.120867
0.64656097 -0.87268901 2.102237
0.62886101 -0.87554801 2.094197
0.62118399 -0.87299103 2.092247
0.614856 -0.868617 2.091037
0.61133403 -0.86389196 2.0912271
0.627056 -0.84816003 2.100997
0.63469297 -0.83709002 2.107487
0.64360601 -0.82716298 2.1134369
0.65845704 -0.86611098 2.103997
0.63435799 -0.87269402 2.093147
0.62184697 -0.873052 2.088557
0.61968398 -0.86668503 2.0887971
0.61634898 -0.86024904 2.089757
0.628335 -0.84694397 2.0976369
0.63078099 -0.83946002 2.1008968
0.64307898 -0.82736802 2.1086669
0.63651103 -0.87047696 2.090157
0.625799 -0.87018204 2.086637
0.61765498 -0.866772 2.0832469
0.619789 -0.85918999 2.0870271
0.62519199 -0.84896398 2.0919271
0.637981 -0.83580297 2.100297
0.64496398 -0.86507004 2.089987
0.62581903 -0.868891 2.0821171
0.61964697 -0.864824 2.080297
0.61910099 -0.85865802 2.0826571
0.62928599 -0.84697604 2.0891569
0.630494 -0.86631602 2.0795269
0.628268 -0.86149597 2.0807171
0.62295401 -0.85668504 2.079587
0.63153499 -0.84613997 2.0852571
0.64716202 -0.86285895 2.0814369
0.63765997 -0.86209399 2.0786569
0.62589502 -0.86199099 2.0754769
0.62232703 -0.85688204 2.074517
0.62652999 -0.84821802 2.078037
0.65502703 -0.85924101 2.081007
0.647071 -0.85797095 2.078907
0.62433898 -0.86211503 2.070137
0.61921698 -0.85672599 2.0691569
0.633398 -0.84293097 2.077457
0.64859003 -0.830338 2.086477
0.66460198 -0.85411 2.081857
0.65248597 -0.85560203 2.077487
0.63024104 -0.86044198 2.0682468
0.62511098 -0.855389 2.0674469
0.62704104 -0.84655797 2.0700071
0.63697499 -0.83592105 2.0770271
0.64958102 -0.85503602 2.0721869
0.63124198 -0.85780501 2.0651171
0.628757 -0.85152 2.0649171
0.62627101 -0.84569502 2.0654268
0.633753 -0.83693498 2.071187
0.65766406 -0.849626 2.0709469
0.637851 -0.853769 2.063787
0.62249899 -0.85447401 2.057637
0.626858 -0.84524298 2.0615668
0.626917 -0.83926803 2.0633471
0.67150599 -0.84206396 2.0733969
0.64636302 -0.84945196 2.0632169
0.62596601 -0.85372806 2.0554872
0.61731899 -0.85048699 2.0526071
0.618976 -0.84269601 2.0554571
0.63970697 -0.82635695 2.0666471
0.65314502 -0.84504896 2.062727
0.62476802 -0.85319102 2.0509069
0.61492097 -0.85073996 2.047287
0.61805302 -0.84266299 2.050807
0.63039201 -0.83075899 2.058507
0.62492502 -0.85277003 2.0472169
0.61902201 -0.84951103 2.045207
0.61203599 -0.845725 2.0433769
0.62108201 -0.83523297 2.0498869
0.62189502 -0.85229897 2.0417371
0.61309397 -0.85062599 2.038337
0.61293399 -0.843835 2.039737
0.61541402 -0.83704901 2.0426071
0.62163401 -0.85128897 2.036947
0.61012602 -0.85191804 2.032867
0.61362398 -0.84406799 2.0363069
0.61024499 -0.83906001 2.0360069
0.630665 -0.82261902 2.0468371
0.62854403 -0.84769499 2.035537
0.614398 -0.85025299 2.0310869
0.61287701 -0.84393698 2.0317371
0.606767 -0.83987898 2.0304971
0.61334902 -0.83145303 2.035207
0.63518202 -0.84355003 2.034867
0.61691397 -0.84819901 2.028477
0.61383301 -0.843135 2.0275369
0.60839802 -0.83950305 2.0273571
0.61033297 -0.83245796 2.0294271
0.62000299 -0.84550303 2.025877
0.61720902 -0.84085101 2.0249369
0.61083102 -0.83705705 2.0240669
0.61060798 -0.83055902 2.025187
0.622091 -0.842825 2.0223069
0.61121702 -0.84251601 2.0188069
0.60661203 -0.83797503 2.0181069
0.61159497 -0.82919502 2.0220571
0.62354201 -0.817366 2.0284669
0.62722802 -0.83954203 2.0203271
0.61689401 -0.84022003 2.0173171
0.60588002 -0.83924001 2.013567
0.60833901 -0.83075106 2.0166569
0.62073797 -0.81857103 2.0237269
0.70632499 -1.01386 2.0068069
0.70879501 -1.00588 2.008637
0.710105 -0.99831903 2.0100369
0.71324599 -0.98962998 2.0126371
0.71205705 -0.98355699 2.013087
0.70562601 -0.97920096 2.0112469
0.61371702 -0.84092695 2.0115271
0.60392499 -0.83928597 2.0087969
0.60438502 -0.83289802 2.0108171
0.61018199 -0.82423699 2.0151069
0.70675796 -1.01367 2.0038869
0.70943999 -1.00561 2.0058069
0.70297897 -1.00024 2.004077
0.70097399 -0.99444199 2.0050271
0.69995397 -0.98754501 2.0056169
0.69894701 -0.98024595 2.0056269
0.70424104 -0.971627 2.008707
0.70543599 -0.96307099 2.010047
0.71011198 -0.95403999 2.0130169
0.71273202 -0.94634598 2.015177
0.70791495 -0.94104695 2.014277
0.718808 -0.92982203 2.019347
0.62086302 -0.842107 2.009057
0.62232202 -0.83652395 2.010257
0.60697699 -0.83811098 2.0060771
0.60356802 -0.83340502 2.0066071
0.60904598 -0.82444602 2.0099571
0.70850897 -1.0111099 2.001657
0.70421499 -1.00534 2.0006669
0.70421404 -0.99945605 2.001307
0.702016 -0.99369299 2.0018871
0.70192701 -0.98564798 2.002527
0.69998598 -0.97909701 2.002847
0.69641602 -0.974437 2.0029371
0.701289 -0.96596301 2.005547
0.69775397 -0.959544 2.005177
0.70165497 -0.95040399 2.0079069
0.69984597 -0.943501 2.007957
0.69873703 -0.93745399 2.0090668
0.69833201 -0.93013 2.009557
0.70245796 -0.91991401 2.012167
0.70331001 -0.91190696 2.0136771
0.70490301 -0.90455401 2.015167
0.62714696 -0.83907896 2.0074968
0.62732202 -0.83418405 2.0085871
0.61367899 -0.83535105 2.004457
0.60842401 -0.82971603 2.0042372
0.62575102 -0.81305003 2.0124171
0.72872299 -0.99875802 2.0064971
0.70685405 -0.99839401 1.999667
0.70771199 -0.990457 2.0008471
0.70559901 -0.984658 2.0008471
0.70274401 -0.97916394 2.0008869
0.70215797 -0.97172499 2.0020869
0.700719 -0.96363097 2.002347
0.70358396 -0.95539802 2.004137
0.70075202 -0.94912905 2.004107
0.70354795 -0.94168502 2.006027
0.70086199 -0.93577695 2.006377
0.69752997 -0.929928 2.006247
0.695719 -0.92388397 2.0066071
0.69222903 -0.917548 2.006417
0.693488 -0.90968496 2.007957
0.69357401 -0.90157503 2.008877
0.69360703 -0.89278901 2.0101571
0.69842601 -0.88267195 2.013377
0.70228106 -0.87342697 2.0163469
0.70383501 -0.86511499 2.0184669
0.71187598 -0.85417098 2.0229871
0.70139295 -0.85157698 2.020057
0.708592 -0.84029603 2.0242372
0.64101899 -0.83183098 2.0089369
0.621562 -0.83688301 2.0026069
0.60991597 -0.83556294 1.9989771
0.60868299 -0.82830703 2.0001371
0.61817801 -0.816719 2.005707
0.63741702 -0.800358 2.0145869
0.71108198 -0.95331198 2.0038068
0.70352995 -0.94947702 2.002017
0.70069003 -0.94280505 2.002187
0.69579297 -0.93731099 2.0015869
0.696738 -0.92954099 2.0031469
0.69745201 -0.92063498 2.0043769
0.69924796 -0.91255599 2.005847
0.69836801 -0.90555602 2.0065169
0.69444197 -0.90002406 2.006197
0.69169098 -0.89481103 2.006567
0.69333601 -0.88607699 2.0082068
0.69226402 -0.87927002 2.0094569
0.69464201 -0.870812 2.011657
0.69614702 -0.86197096 2.013787
0.68970299 -0.85751098 2.0122569
0.68726504 -0.85081804 2.0128069
0.70197701 -0.83700299 2.019887
0.69559306 -0.83456004 2.018297
0.63385797 -0.85299897 1.9957069
0.628456 -0.83800203 1.999897
0.61909002 -0.83710599 1.997787
0.611772 -0.83486801 1.995477
0.60601103 -0.83039701 1.9948571
0.615722 -0.81814694 2.000947
0.62514299 -0.80701798 2.0057969
0.70967698 -0.90879899 2.0066171
0.69910103 -0.90660596 2.003747
0.69682503 -0.90011102 2.004117
0.69536501 -0.89252502 2.004967
0.69615501 -0.88343596 2.0061071
0.69501799 -0.87678498 2.0071268
0.69818002 -0.867544 2.0098269
0.69478995 -0.86160898 2.009527
0.68844002 -0.85684401 2.008287
0.688407 -0.84988999 2.009347
0.673958 -0.84972602 2.005717
0.64239097 -0.856296 1.9947569
0.608944 -0.86592597 1.983297
0.63246602 -0.84578598 1.994417
0.63365299 -0.83656603 1.9969969
0.62074202 -0.83605003 1.994107
0.60977 -0.83422697 1.991207
0.60414004 -0.82997704 1.990347
0.611835 -0.81936502 1.9954669
0.63046598 -0.80306506 2.0039771
0.70967698 -0.87005204 2.0092971
0.695755 -0.86838204 2.0055969
0.69160897 -0.86131501 2.0048869
0.690584 -0.85474604 2.005517
0.68241203 -0.85183901 2.003437
0.66000199 -0.85515803 1.996557
0.62085098 -0.86676598 1.983327
0.63784099 -0.83471 1.994967
0.62659502 -0.83357298 1.991617
0.61583799 -0.83174103 1.989377
0.60366499 -0.83073401 1.986297
0.60616702 -0.82245499 1.9889771
0.614779 -0.811997 1.9940869
0.71834898 -0.84653801 2.0100069
0.69092298 -0.85428101 2.0017869
0.671184 -0.85682899 1.995837
0.63925898 -0.86534798 1.9857069
0.62509799 -0.83965701 1.9860269
0.64770597 -0.82068098 1.996207
0.62560296 -0.82637101 1.989077
0.60797298 -0.82866997 1.9838769
0.601421 -0.82534796 1.983017
0.60589999 -0.81728399 1.986407
0.692321 -0.853181 1.998987
0.64942706 -0.86579698 1.985507
0.59844398 -0.85553706 1.9717169
0.60935199 -0.84263802 1.9767669
0.63576901 -0.82042903 1.989917
0.61093402 -0.82711303 1.980847
0.60300201 -0.82473898 1.979677
0.60548097 -0.81695002 1.981707
0.59092498 -0.852189 1.9664971
0.60183901 -0.83845598 1.972137
0.60873103 -0.82747495 1.976257
0.60549802 -0.822025 1.976427
0.60914701 -0.81229204 1.978897
0.63000703 -0.79422301 1.9874569
0.586128 -0.85479301 1.960887
0.59736502 -0.84103602 1.966677
0.60458398 -0.829485 1.9713169
0.60208601 -0.823551 1.970677
0.60391998 -0.81525499 1.973357
0.619057 -0.80072099 1.9804469
0.60371101 -0.86642897 1.958447
0.58741701 -0.86024594 1.956127
0.58328497 -0.85663903 1.956277
0.591739 -0.84471202 1.9603469
0.60011399 -0.83214301 1.9655769
0.60040796 -0.824929 1.966047
0.60255796 -0.81637299 1.9683769
0.614712 -0.803482 1.974957
0.64074796 -0.84508401 1.9674569
0.63163799 -0.84435797 1.9655271
0.60075003 -0.85326695 1.957067
0.592529 -0.85078299 1.9560269
0.59266001 -0.84387898 1.9567169
0.59872401 -0.83301103 1.9607069
0.60523599 -0.82078004 1.964137
0.60466802 -0.81432199 1.965677
0.61021501 -0.80594397 1.968757
0.65152395 -0.83842695 1.9680071
0.63770503 -0.84049302 1.9642169
0.62365502 -0.84111196 1.9607769
0.60539198 -0.84286398 1.956537
0.60085303 -0.83776498 1.956537
0.60384297 -0.82883102 1.9585069
0.610452 -0.81729895 1.961727
0.604985 -0.81386495 1.962247
0.61730897 -0.800978 1.966967
0.59030497 -0.75461304 1.969337
0.60443002 -0.73929101 1.975667
0.59807402 -0.73678398 1.9745771
0.64930606 -0.83332998 1.9647769
0.63417399 -0.83507401 1.960457
0.62135702 -0.834535 1.957617
0.61034697 -0.83239198 1.955757
0.60774201 -0.82564497 1.9558569
0.611368 -0.816046 1.9582269
0.61084801 -0.80974096 1.960137
0.62155604 -0.79793197 1.964807
0.59264499 -0.74876404 1.967997
0.59033602 -0.74266702 1.968587
0.58658099 -0.736664 1.9689469
0.57590002 -0.73631698 1.9663069
0.53672904 -0.75578499 1.9527271
0.63779402 -0.83204198 1.958197
0.62953496 -0.82999498 1.956507
0.62683797 -0.824485 1.9571769
0.617396 -0.82208604 1.9550869
0.60538 -0.82063299 1.9520869
0.609182 -0.81100196 1.955277
0.61427802 -0.80224401 1.9588069
0.60788202 -0.77101403 1.961077
0.60379905 -0.76655996 1.961527
0.60298699 -0.75911003 1.9630671
0.58528101 -0.761774 1.9593769
0.58301604 -0.75498003 1.9607769
0.572366 -0.75428301 1.9581169
0.57286799 -0.74614799 1.960677
0.572128 -0.73920405 1.962307
0.55632198 -0.74278802 1.957497
0.52965301 -0.75569803 1.948517
0.65161496 -0.82383299 1.959757
0.64599198 -0.82096398 1.958927
0.623312 -0.82498002 1.952547
0.61072499 -0.82353997 1.949277
0.60161299 -0.82220805 1.9473571
0.60110599 -0.81605202 1.9481469
0.60599703 -0.80716103 1.951707
0.61815703 -0.77864897 1.9581771
0.592049 -0.78831702 1.950797
0.59723997 -0.776775 1.9549769
0.59145403 -0.77290803 1.9549069
0.582636 -0.77085996 1.9530671
0.581173 -0.76312602 1.954697
0.56783903 -0.76397103 1.951707
0.56475198 -0.75919098 1.951937
0.56221199 -0.75351799 1.9526371
0.56350303 -0.74441999 1.9558671
0.54619002 -0.74868399 1.9503469
0.52498502 -0.75830597 1.9438969
0.612091 -0.82211 1.945887
0.60219103 -0.82151103 1.944207
0.595801 -0.81848097 1.9424671
0.60048699 -0.80863297 1.9453369
0.62294203 -0.78361803 1.9545469
0.601798 -0.78988099 1.9491969
0.58888698 -0.79148901 1.946157
0.58004302 -0.78961802 1.944967
0.580486 -0.78020304 1.9471269
0.57711899 -0.775011 1.947547
0.57786596 -0.767564 1.9491969
0.57424402 -0.76182902 1.949567
0.56777304 -0.75702101 1.9491169
0.556584 -0.756073 1.947047
0.55721003 -0.748133 1.9496069
0.54968101 -0.74552 1.9474069
0.54131502 -0.74500102 1.946257
0.61532098 -0.81875998 1.942537
0.59958303 -0.82207602 1.9392771
0.60049999 -0.81379998 1.940607
0.60181803 -0.805426 1.9421469
0.60227603 -0.79734302 1.9443669
0.59588403 -0.79301596 1.943887
0.58224499 -0.794195 1.9409469
0.57853103 -0.78900701 1.940657
0.58303702 -0.77808297 1.943777
0.578668 -0.77375799 1.9446671
0.580836 -0.764498 1.9464771
0.58070701 -0.756001 1.9479769
0.58103597 -0.74830198 1.9492971
0.55710399 -0.75571096 1.9438471
0.55517602 -0.74904603 1.9450771
0.56109601 -0.73658997 1.9476669
0.54466498 -0.74199504 1.943737
0.530357 -0.74734998 1.940017
0.62549299 -0.81248802 1.942227
0.60438401 -0.81935203 1.9366969
0.597426 -0.81698 1.935977
0.59781599 -0.80881 1.936797
0.59732801 -0.80093598 1.9386569
0.59693903 -0.79380697 1.9404069
0.583197 -0.793841 1.9371269
0.58075202 -0.78796202 1.9377271
0.58056903 -0.78117502 1.9389571
0.58579803 -0.769288 1.942717
0.59376401 -0.75458604 1.9474069
0.59357297 -0.74624604 1.9491969
0.60030699 -0.735852 1.952677
0.59319901 -0.73520398 1.9513769
0.56691003 -0.73896402 1.945707
0.559214 -0.73728895 1.943537
0.55927801 -0.73123497 1.9452969
0.54479402 -0.73654801 1.9417169
0.60335803 -0.81936699 1.9330471
0.60242498 -0.81357694 1.933537
0.59653801 -0.80896699 1.9321671
0.59243304 -0.80396795 1.9330471
0.59076601 -0.79716498 1.934597
0.59158403 -0.78880799 1.9352471
0.58654702 -0.784163 1.936147
0.59737301 -0.76961195 1.9408969
0.599832 -0.76035398 1.9435269
0.613796 -0.73283499 1.9532269
0.55763698 -0.737993 1.940227
0.55267102 -0.73614603 1.9395469
0.60791999 -0.814987 1.930737
0.602727 -0.81153196 1.9293669
0.60116404 -0.805318 1.930087
0.59752798 -0.80106401 1.930817
0.59374803 -0.79548299 1.931197
0.60632002 -0.77983499 1.9359269
0.60416901 -0.77330101 1.937457
0.61835998 -0.75669599 1.943857
0.55895501 -0.736215 1.9377769
0.55995297 -0.730111 1.9390969
0.60488099 -0.815988 1.9253169
0.60005498 -0.81310701 1.924547
0.59648496 -0.808828 1.925177
0.59851098 -0.79959297 1.9272369
0.59910196 -0.79083198 1.929227
0.61666101 -0.772789 1.935797
0.62327999 -0.76156801 1.939747
0.61138999 -0.81270498 1.923407
0.603863 -0.81173897 1.921937
0.60158598 -0.80525398 1.922637
0.60661298 -0.79441202 1.925647
0.60549599 -0.78763396 1.927097
0.62246698 -0.76980799 1.9339169
0.60532701 -0.81559801 1.9180471
0.60314202 -0.81085998 1.9178571
0.59770197 -0.807226 1.917637
0.61058402 -0.792 1.9228669
0.62389201 -0.77634203 1.928877
0.60671103 -0.81411099 1.914237
0.606673 -0.80887705 1.915087
0.603598 -0.80376297 1.9155569
0.61388999 -0.78993398 1.919167
0.62282699 -0.77845901 1.9238271
0.60635602 -0.81444097 1.9102969
0.60750097 -0.807935 1.911467
0.61102301 -0.79745299 1.913857
0.61609 -0.78789902 1.916337
0.62192899 -0.77911299 1.919037
0.60709202 -0.81366402 1.9068069
0.60884398 -0.80682099 1.907297
0.60954899 -0.79923701 1.909337
0.61431903 -0.78886706 1.9122769
0.630885 -0.77312499 1.917627
0.60880399 -0.812249 1.9029269
0.60340303 -0.80965799 1.9020871
0.60619098 -0.80132204 1.904407
0.61492997 -0.789177 1.9084469
0.62053001 -0.77950895 1.910707
0.61026102 -0.81168199 1.899577
0.60397702 -0.80995297 1.8984571
0.60160601 -0.80445802 1.899487
0.61446303 -0.78884298 1.9040669
0.62706399 -0.77503896 1.9085269
0.61093402 -0.81096399 1.8962671
0.59865499 -0.81264001 1.8932769
0.60401499 -0.80207098 1.8959869
0.61367399 -0.78836197 1.899657
0.62298697 -0.77717 1.9037869
0.60040402 -0.81616205 1.889997
0.60082698 -0.80994499 1.890527
0.60047603 -0.80369401 1.891297
0.61107302 -0.79049498 1.894917
0.62290198 -0.77728701 1.899767
0.568389 -0.83362001 1.8771869
0.57919997 -0.8229 1.8815069
0.597691 -0.804932 1.886807
0.61340803 -0.78803802 1.8917069
0.61527699 -0.78177398 1.893827
0.58206004 -0.81999701 1.878387
0.59341598 -0.80665803 1.8816769
0.61184198 -0.78904897 1.887627
0.61287999 -0.78288102 1.8893671
0.57620603 -0.82350302 1.873087
0.586106 -0.81202799 1.875957
0.60791802 -0.79170197 1.882627
0.613949 -0.78225404 1.885617
0.58083302 -0.82084 1.8702569
0.59002602 -0.810058 1.8729969
0.60578603 -0.793791 1.877987
0.606085 -0.78722 1.8791471
0.60710698 -0.81091499 1.8715171
0.60221899 -0.80827904 1.8717968
0.60451698 -0.800542 1.8730069
0.60837501 -0.79071599 1.874897
0.60959601 -0.78393602 1.8757269
0.62100601 -0.80336702 1.8710769
0.60992002 -0.804151 1.869597
0.60856402 -0.79709101 1.869927
0.61106402 -0.78796303 1.871747
0.61153901 -0.78226501 1.8726169
0.61873901 -0.804331 1.8671271
0.61338401 -0.80125898 1.866147
0.60456401 -0.79988402 1.8652469
0.60865599 -0.79072797 1.8672571
0.60784 -0.78488195 1.867957
0.61764997 -0.80421203 1.862607
0.61160499 -0.80240196 1.862067
0.61010897 -0.79627001 1.8628269
0.61064398 -0.78847098 1.8642569
0.613594 -0.781174 1.864877
0.62374097 -0.80088896 1.859437
0.61408401 -0.800394 1.858987
0.60322201 -0.800044 1.857677
0.61382401 -0.786654 1.8609369
0.61559302 -0.77958506 1.861277
0.63023299 -0.79734302 1.8571869
0.61497003 -0.80063796 1.854677
0.61407202 -0.79291296 1.856337
0.61674303 -0.78380096 1.8579069
0.615291 -0.77940595 1.8574271
0.624484 -0.80036402 1.8525769
0.617504 -0.79893899 1.851207
0.61215097 -0.79469901 1.8513471
0.61645401 -0.784284 1.854107
0.61462098 -0.77978498 1.8534269
0.62228602 -0.80092597 1.847977
0.612032 -0.800668 1.846707
0.61155301 -0.79375505 1.847527
0.61523998 -0.78497005 1.8498269
0.61879396 -0.77707297 1.850227
0.62257302 -0.80082703 1.844057
0.61820501 -0.79768401 1.843877
0.61011499 -0.79570997 1.8438569
0.61715102 -0.78396201 1.846037
0.62165904 -0.77503896 1.846687
0.624973 -0.79897696 1.840587
0.616391 -0.79812503 1.839747
0.61574 -0.79177004 1.841357
0.61959898 -0.78191102 1.842357
0.62737501 -0.77108902 1.8437771
0.62810397 -0.79725897 1.837047
0.61641401 -0.79878503 1.836297
0.61748999 -0.79074502 1.8374469
0.623142 -0.77906096 1.8389469
0.63291901 -0.766886 1.841017
0.62573397 -0.798397 1.833017
0.620556 -0.79577398 1.8331469
0.62050498 -0.78745598 1.8336968
0.62651098 -0.77604401 1.8357471
0.63681298 -0.76409602 1.838187
0.624906 -0.79844397 1.829157
0.61931902 -0.79516298 1.8289969
0.61602998 -0.79055601 1.829187
0.62304598 -0.77972603 1.831157
0.63442099 -0.76606697 1.8337671
0.62478602 -0.79874498 1.825327
0.62115002 -0.79551101 1.825327
0.61799502 -0.78981596 1.825817
0.63090801 -0.773947 1.8285969
0.63934898 -0.76255697 1.830197
0.62172598 -0.80007398 1.821347
0.61839098 -0.79600698 1.821177
0.62018001 -0.78679198 1.822117
0.63562304 -0.76986098 1.8258069
0.63922399 -0.76230001 1.8262368
0.62030602 -0.80015296 1.8170971
0.620776 -0.79371595 1.8178769
0.61982203 -0.78723902 1.817717
0.63585699 -0.769943 1.8220069
0.64351898 -0.75924599 1.823017
0.62347502 -0.79842901 1.813537
0.61963004 -0.79491895 1.813717
0.61547697 -0.78973997 1.8130469
0.63679004 -0.76895696 1.817947
0.64138299 -0.76015997 1.8191971
0.62499499 -0.79694396 1.8100171
0.61601102 -0.79621905 1.8095568
0.61675799 -0.78899199 1.8093868
0.62947798 -0.77370697 1.812657
0.63894099 -0.76167506 1.8154269
0.62436098 -0.79722506 1.8055871
0.61965001 -0.79427695 1.8063269
0.61664903 -0.78941101 1.8057269
0.61874002 -0.780393 1.806877
0.62151003 -0.772641 1.808777
0.62927604 -0.79425001 1.8025171
0.62101197 -0.79315597 1.802197
0.61863798 -0.78647399 1.8027569
0.61866003 -0.77954203 1.803387
0.61593604 -0.77533895 1.8033371
0.62487799 -0.79700798 1.798067
0.61890101 -0.79421699 1.7978669
0.61492503 -0.79000503 1.798707
0.61537498 -0.78195196 1.799397
0.61524099 -0.77479303 1.7993469
0.63102198 -0.75901604 1.8018069
0.660505 -0.78389901 1.7968869
0.63727599 -0.791574 1.795097
0.62436402 -0.79232001 1.794717
0.61734796 -0.78842902 1.7951169
0.61762697 -0.77973294 1.795657
0.61829001 -0.77212602 1.7963569
0.63697201 -0.75482005 1.7992669
0.659904 -0.783732 1.7939969
0.63648599 -0.791192 1.7915869
0.62223399 -0.79202795 1.791347
0.62001497 -0.78579104 1.791517
0.62399501 -0.775581 1.7926871
0.62170798 -0.77047402 1.7935071
0.73759598 -0.91895503 1.782887
0.65271205 -0.78795999 1.7893869
0.63555402 -0.79201299 1.7871869
0.62697297 -0.78927803 1.788157
0.62453198 -0.78315103 1.788227
0.62878603 -0.77356005 1.789677
0.73970002 -0.91823602 1.779407
0.69124603 -0.78349 1.785867
0.68551302 -0.780402 1.7860969
0.65409797 -0.78932405 1.7846271
0.63173997 -0.79442495 1.782727
0.631387 -0.78684306 1.784637
0.62778497 -0.782161 1.784487
0.703273 -0.78300798 1.783127
0.68792701 -0.78542703 1.782527
0.66296095 -0.792099 1.780967
0.65045702 -0.79064596 1.7803369
0.63193697 -0.79407996 1.779377
0.62944299 -0.78838098 1.780197
0.636181 -0.77793294 1.780717
0.67982697 -0.79531097 1.7780468
0.66918403 -0.795048 1.7773871
0.65765798 -0.79386902 1.7767968
0.646222 -0.79328501 1.776347
0.63883996 -0.78976798 1.776407
0.637541 -0.78253502 1.7772769
0.637532 -0.77703696 1.7768869
0.67011201 -0.79480499 1.7738769
0.66254896 -0.79258502 1.7732471
0.64593595 -0.79375803 1.772557
0.63659102 -0.79079902 1.7717869
0.637945 -0.78258002 1.7734771
0.64637297 -0.77177 1.7737069
0.729711 -0.93232805 1.7622271
0.666888 -0.79487699 1.769267
0.65850401 -0.79296601 1.7690469
0.64246202 -0.794159 1.7682669
0.64262003 -0.78701597 1.768847
0.636774 -0.78361702 1.769117
0.65495497 -0.76647598 1.770427
0.736552 -0.923926 1.760017
0.72086996 -0.92452902 1.7592469
0.68073195 -0.78648806 1.766427
0.66868103 -0.78805399 1.7661371
0.64926201 -0.79233497 1.7648871
0.64112395 -0.78839898 1.7651069
0.64468694 -0.77849901 1.765697
0.66292197 -0.76169097 1.767437
0.697963 -0.89754999 1.752337
0.66722196 -0.78831899 1.7619971
0.647861 -0.79208601 1.760867
0.64026296 -0.78819901 1.7609171
0.64940101 -0.77608299 1.7619671
0.69896895 -0.89675105 1.7497571
0.69320798 -0.894171 1.749977
0.70824999 -0.88103104 1.7506369
0.71994597 -0.86964899 1.751387
0.684237 -0.78377897 1.7584469
0.66232902 -0.790308 1.7573669
0.643565 -0.79361802 1.756687
0.642241 -0.78680903 1.7570469
0.64856797 -0.77665198 1.757347
0.70172 -0.89518499 1.7465271
0.702012 -0.88995397 1.747647
0.70151603 -0.88369006 1.7472271
0.700526 -0.87710196 1.7472769
0.71718198 -0.85138202 1.7483371
0.72562701 -0.84113002 1.749097
0.67273903 -0.78985 1.753677
0.66161299 -0.78990197 1.7535369
0.64165497 -0.79375899 1.753057
0.645329 -0.78449899 1.7530469
0.64620697 -0.77688199 1.753237
0.61405599 -0.77752995 1.751907
0.60763401 -0.77571899 1.7519269
0.577048 -0.78764296 1.7505569
0.71411496 -0.88969201 1.743077
0.70516801 -0.88809305 1.7440671
0.70273 -0.88172895 1.7436569
0.70005202 -0.87565595 1.7440469
0.69893301 -0.86817801 1.7441971
0.70086098 -0.85947603 1.7449069
0.71207899 -0.84765899 1.7457669
0.71758795 -0.83889395 1.746147
0.67992103 -0.78553998 1.7502469
0.65813696 -0.79267699 1.7496469
0.64907402 -0.79045504 1.749527
0.638978 -0.78895402 1.748757
0.637344 -0.78254801 1.7492568
0.62316102 -0.783126 1.7487171
0.59700602 -0.78925902 1.7479669
0.58243299 -0.79067302 1.7477469
0.73155296 -0.88205302 1.739767
0.70909899 -0.88563597 1.740007
0.70217103 -0.88169998 1.740007
0.70043504 -0.87486398 1.740347
0.69283301 -0.87070298 1.7405969
0.69635499 -0.86125803 1.741137
0.71665102 -0.843813 1.742587
0.73577398 -0.82921499 1.7438071
0.652565 -0.79440302 1.7454571
0.64213699 -0.79332197 1.745477
0.63575 -0.78997201 1.745177
0.62306398 -0.78966004 1.7448269
0.60326302 -0.79276603 1.7440671
0.586124 -0.79441905 1.744107
0.73645598 -0.879798 1.736747
0.71951896 -0.88133001 1.7364869
0.70684999 -0.87914902 1.7364969
0.69986099 -0.87412906 1.7362571
0.69516295 -0.86924005 1.7372169
0.69483298 -0.86173201 1.7365869
0.70652199 -0.84872496 1.738017
0.71735603 -0.83744204 1.7394269
0.65438795 -0.79344594 1.7404269
0.64289397 -0.79298699 1.7416769
0.63626897 -0.78900903 1.7413471
0.61611599 -0.79266602 1.740667
0.60517299 -0.79175597 1.740097
0.59468496 -0.79063302 1.740667
0.58336902 -0.78972 1.7409369
0.74242699 -0.87154996 1.7343969
0.726116 -0.87105006 1.733647
0.708188 -0.87075698 1.7328769
0.69813204 -0.86715597 1.733127
0.69223899 -0.86260694 1.733007
0.69450599 -0.85430002 1.733237
0.700683 -0.84446698 1.7342269
0.67834699 -0.78598195 1.737507
0.65961403 -0.791417 1.7368469
0.64633697 -0.791327 1.7371271
0.62843901 -0.79254895 1.7371271
0.614236 -0.79282498 1.7371271
0.60584903 -0.79123002 1.737167
0.59812999 -0.789693 1.7374569
0.590545 -0.78704596 1.738037
0.58239001 -0.78396398 1.738757
0.726753 -0.86185896 1.730227
0.70896304 -0.86246902 1.7296569
0.70034301 -0.85827905 1.729767
0.69388801 -0.85353202 1.729377
0.69422305 -0.84638494 1.729877
0.69664198 -0.83866 1.7300171
0.67575896 -0.78760099 1.7341269
0.65825599 -0.79187202 1.7333471
0.64867997 -0.79067004 1.732977
0.642465 -0.78660101 1.7336071
0.62971699 -0.78594804 1.7342269
0.61803603 -0.78398001 1.7351969
0.6182 -0.77642703 1.7359669
0.73123705 -0.85227203 1.7273871
0.71155196 -0.85328299 1.7265869
0.69371694 -0.85434997 1.7261969
0.69064301 -0.84831399 1.726037
0.69487602 -0.83856398 1.7261771
0.70450103 -0.82808703 1.7267969
0.67752099 -0.78624803 1.7302771
0.65419096 -0.79349798 1.7292869
0.648664 -0.78924501 1.7294571
0.658562 -0.77544802 1.7301168
0.67755502 -0.75619799 1.729727
0.68770498 -0.72228599 1.730997
0.69490504 -0.85141098 1.722327
0.69241995 -0.84503096 1.7223469
0.692379 -0.83843905 1.7226169
0.69085801 -0.83328599 1.722417
0.66882205 -0.79046899 1.7254269
0.65374398 -0.79247302 1.725467
0.65588897 -0.78338403 1.7259669
0.66469103 -0.7701 1.7263471
0.68409801 -0.751302 1.727007
0.677324 -0.747325 1.726897
0.67134804 -0.74071902 1.727397
0.66849798 -0.73472196 1.7275171
0.66873097 -0.72603899 1.727937
0.67013001 -0.715177 1.728327
0.66834903 -0.70707297 1.728477
0.67310405 -0.69585097 1.7288071
0.70126402 -0.846439 1.718187
0.68745005 -0.847422 1.7184368
0.68974406 -0.839535 1.719227
0.687886 -0.83365095 1.718537
0.69298798 -0.82381302 1.718197
0.66703397 -0.792077 1.720867
0.65706098 -0.791587 1.7214569
0.65180898 -0.78758699 1.7221469
0.65930605 -0.77512705 1.722427
0.66800201 -0.76040703 1.7229871
0.66604501 -0.75338304 1.723387
0.66682196 -0.74393404 1.7238569
0.660887 -0.73951203 1.7242169
0.66064906 -0.73207605 1.7245871
0.65916902 -0.72414297 1.7249271
0.66584504 -0.71054494 1.725527
0.65931201 -0.70555001 1.725437
0.67473298 -0.68634599 1.726047
0.69621801 -0.84199303 1.714537
0.68881696 -0.83954698 1.7153369
0.69348097 -0.82942003 1.714967
0.69054496 -0.82312202 1.7144769
0.70394099 -0.80930197 1.7148871
0.666789 -0.792238 1.7171969
0.65915298 -0.79101998 1.717507
0.652637 -0.78673398 1.7178869
0.66796702 -0.768089 1.718537
0.66687202 -0.76042801 1.718677
0.66613799 -0.752482 1.7195871
0.66528702 -0.74412102 1.719617
0.66433901 -0.736458 1.720607
0.66369599 -0.72749299 1.720787
0.66256106 -0.71899104 1.7213269
0.66674697 -0.70774698 1.722097
0.65464401 -0.70759696 1.7213669
0.658481 -0.69662696 1.722227
0.66078597 -0.68558401 1.722217
0.66834098 -0.67044997 1.7220871
0.70682096 -0.835177 1.7107669
0.69391 -0.83548301 1.7112671
0.69364798 -0.82809502 1.7113971
0.69295996 -0.82166499 1.7110668
0.687424 -0.81674302 1.711167
0.70281798 -0.80093402 1.7114968
0.66261595 -0.79403704 1.713347
0.65362394 -0.79271203 1.7139469
0.65311301 -0.78629899 1.7136371
0.65802598 -0.77574801 1.714337
0.66159701 -0.76542699 1.714797
0.66718596 -0.75366801 1.715287
0.66453797 -0.74589801 1.7157969
0.66303706 -0.73845398 1.7166971
0.66081101 -0.731309 1.7169571
0.66278398 -0.72014701 1.717097
0.661107 -0.71115094 1.717757
0.65633398 -0.705383 1.717567
0.65383798 -0.69977897 1.718457
0.653947 -0.69071901 1.718477
0.65401101 -0.68098801 1.7187469
0.65524596 -0.67131895 1.7188071
0.66609901 -0.65632004 1.719247
0.70980102 -0.82665604 1.7075769
0.69512606 -0.82689005 1.707677
0.69383001 -0.81978899 1.707737
0.68285596 -0.81789804 1.7072071
0.68672597 -0.80834299 1.7078971
0.69850802 -0.79356301 1.708087
0.69848704 -0.78486001 1.7082471
0.67120695 -0.79133105 1.7086569
0.65960902 -0.78922796 1.7099069
0.65845001 -0.78149694 1.710157
0.66590399 -0.76926303 1.7109571
0.66654998 -0.76144898 1.711127
0.67096102 -0.75021696 1.711897
0.68419296 -0.732898 1.7129871
0.67997098 -0.72685897 1.7138269
0.68155998 -0.71591699 1.714157
0.683622 -0.70589995 1.714227
0.67213404 -0.70432502 1.7141269
0.66333199 -0.70081002 1.714017
0.65413499 -0.69795001 1.714467
0.65948194 -0.68589801 1.714727
0.64869398 -0.68558097 1.7149271
0.65150803 -0.67415702 1.715157
0.65415102 -0.66511399 1.715997
0.70498002 -0.82111198 1.703877
0.687931 -0.82220399 1.703777
0.67684096 -0.82020205 1.7035871
0.675744 -0.81424403 1.7044269
0.682473 -0.80239099 1.704447
0.68710405 -0.791044 1.7052771
0.67115301 -0.79185897 1.704787
0.66436404 -0.78821403 1.7058771
0.65855402 -0.78352702 1.7061969
0.66590101 -0.77020597 1.7068371
0.67713797 -0.75563902 1.7074869
0.67339498 -0.69283897 1.7105069
0.659684 -0.69388801 1.7103171
0.65045094 -0.69104797 1.710867
0.64830202 -0.68337196 1.7111771
0.65072703 -0.67372203 1.7106769
0.65133005 -0.66703904 1.7119269
0.69384301 -0.81839502 1.699617
0.68716502 -0.81502295 1.700007
0.679546 -0.811342 1.7008069
0.68085402 -0.80264902 1.7001472
0.68109399 -0.79434401 1.7013971
0.671278 -0.792229 1.700987
0.66426599 -0.78792298 1.701857
0.65801501 -0.78275198 1.702157
0.66854399 -0.76936698 1.702507
0.67632598 -0.68101996 1.706597
0.66649598 -0.67964697 1.706467
0.65104598 -0.68091905 1.7070169
0.64972097 -0.67389601 1.706997
0.647623 -0.66915494 1.7073169
0.70631897 -0.81010902 1.695537
0.69068605 -0.81245202 1.696017
0.68327796 -0.80909503 1.6968069
0.68134999 -0.802387 1.6962171
0.675008 -0.79761904 1.697157
0.66838402 -0.79276603 1.6974369
0.66164398 -0.78822196 1.6977969
0.66505998 -0.77857399 1.6980469
0.68064797 -0.76355302 1.6981571
0.67856699 -0.669756 1.702027
0.66454005 -0.67157501 1.702517
0.65352702 -0.67051005 1.703167
0.64737505 -0.66821295 1.703217
0.70573598 -0.80317003 1.6921271
0.683487 -0.80778801 1.692587
0.67471498 -0.80377096 1.6928171
0.67123598 -0.797885 1.693557
0.66605598 -0.79316902 1.6935269
0.66245496 -0.787175 1.6938471
0.66764098 -0.77773201 1.693947
0.687792 -0.66160798 1.6971271
0.67918897 -0.66088402 1.6979669
0.66563398 -0.66156995 1.6984869
0.65821898 -0.65840799 1.6988569
0.69745499 -0.799321 1.6880771
0.682657 -0.80028802 1.688647
0.66924202 -0.79894698 1.6894369
0.66440904 -0.79279602 1.689677
0.66243303 -0.78667504 1.690257
0.67424202 -0.77458102 1.6894269
0.698259 -0.65358597 1.6932471
0.68749499 -0.65510595 1.6939969
0.68043602 -0.65120596 1.6941071
0.66658896 -0.65110099 1.6944971
0.65603697 -0.65015101 1.6944671
0.662965 -0.63758302 1.694157
0.70763201 -0.79199404 1.6838269
0.68550199 -0.79829901 1.6846671
0.67736298 -0.795968 1.6853769
0.67188799 -0.790281 1.6852771
0.66236997 -0.78743601 1.686427
0.67580801 -0.77413905 1.685387
0.70680803 -0.64710504 1.690137
0.694489 -0.64910597 1.690717
0.69482905 -0.63991404 1.6906171
0.675776 -0.64394301 1.6907071
0.65711403 -0.64886701 1.690907
0.65715402 -0.64196801 1.691107
0.69558799 -0.791511 1.6808569
0.67783201 -0.79473299 1.6815571
0.67611903 -0.78745002 1.680737
0.66771799 -0.78475797 1.6823269
0.68537694 -0.76880699 1.681657
0.65606904 -0.64853203 1.6871271
0.65740097 -0.64089602 1.686857
0.68027902 -0.79230005 1.6770169
0.67625999 -0.78714597 1.6764969
0.66916704 -0.78446603 1.6783569
0.660429 -0.64272904 1.682337
0.65859705 -0.638978 1.6824869
0.70531899 -0.783768 1.6717569
0.68032402 -0.79162902 1.6723469
0.67728305 -0.78632104 1.6725571
0.67662698 -0.78083003 1.673687
0.67216599 -0.63320398 1.678317
0.65805 -0.63865799 1.6791071
0.698937 -0.787431 1.668147
0.679699 -0.79287201 1.668377
0.67773002 -0.78708506 1.668797
0.67607903 -0.78145301 1.669207
0.66312701 -0.63468599 1.6759369
0.69182295 -0.79112703 1.6643869
0.68173796 -0.79027605 1.664407
0.67857695 -0.78513396 1.665287
0.68104899 -0.77807504 1.6645569
0.689946 -0.79211998 1.6597769
0.67964798 -0.79128194 1.660367
0.67720395 -0.78584701 1.661427
0.68781698 -0.77418798 1.659937
0.69347399 -0.791875 1.6550769
0.686737 -0.78914201 1.6560169
0.68162501 -0.783934 1.656777
0.69746101 -0.76858002 1.6552169
0.715083 -0.78577697 1.6498169
0.69250298 -0.79237294 1.6515371
0.68569505 -0.78871101 1.652247
0.69171697 -0.77774 1.6518469
0.70725095 -0.76304001 1.6508169
0.701783 -0.79288697 1.646857
0.68937403 -0.79343003 1.648157
0.69221902 -0.78473097 1.647727
0.69330901 -0.77736604 1.647547
0.70410204 -0.79248703 1.6424969
0.69476998 -0.791251 1.643537
0.69057101 -0.78588504 1.643577
0.699341 -0.77489197 1.6425369
0.70043099 -0.79484004 1.6385269
0.693645 -0.79151803 1.639227
0.69063401 -0.785842 1.6394769
0.70304799 -0.77334505 1.6383969
0.72340697 -0.78926396 1.6322571
0.70149696 -0.79445803 1.634057
0.69335902 -0.79092199 1.6355771
0.69922698 -0.78166604 1.6347671
0.67975599 -0.62567401 1.6351669
0.66131103 -0.63396597 1.636777
0.73758203 -0.79022598 1.6259971
0.72210002 -0.79169601 1.627977
0.70356905 -0.79445505 1.629317
0.69889098 -0.78880996 1.631017
0.70309097 -0.78077006 1.629867
0.667436 -0.63532299 1.632957
0.663939 -0.63247102 1.6335269
0.73029602 -0.79370302 1.6234571
0.71600604 -0.79516298 1.6245669
0.70447505 -0.79425102 1.625257
0.69855696 -0.78970802 1.626537
0.711752 -0.77626997 1.625237
0.67512 -0.63676202 1.628477
0.66825402 -0.63615102 1.628857
0.66523099 -0.631666 1.629337
0.722727 -0.79710603 1.61992
0.71001601 -0.79756403 1.621407
0.70357496 -0.793778 1.621532
0.70157301 -0.78781897 1.6224271
0.68149 -0.641738 1.622467
0.66964304 -0.64282399 1.624637
0.66860002 -0.635934 1.6249069
0.66643697 -0.63061899 1.624927
0.72364998 -0.79695296 1.6150821
0.70992202 -0.79791099 1.61743
0.70399696 -0.79470801 1.617177
0.69890404 -0.79066801 1.6178689
0.67478102 -0.64714301 1.619523
0.66777802 -0.64421999 1.6212219
0.67383796 -0.63192099 1.620692
0.67986101 -0.61991602 1.6203171
0.73194295 -0.79276299 1.6103101
0.71003097 -0.79828399 1.6129609
0.703426 -0.79433602 1.6131959
0.706568 -0.78614503 1.6124201
0.68048102 -0.65130401 1.614424
0.67453694 -0.64885694 1.6156241
0.67292506 -0.64277494 1.616187
0.72887003 -0.79380095 1.606884
0.71165103 -0.79623199 1.6083419
0.70953697 -0.78992105 1.608114
0.70816904 -0.78485 1.608364
0.687325 -0.65662694 1.608524
0.66986001 -0.66170502 1.611266
0.67347503 -0.65085196 1.6116339
0.66932899 -0.647246 1.6114329
0.72834396 -0.79333299 1.6021249
0.71067703 -0.79555702 1.604125
0.70422399 -0.79246402 1.6049299
0.70613199 -0.785842 1.604682
0.67552298 -0.66499901 1.6064749
0.67273802 -0.65907896 1.607733
0.67233396 -0.65175402 1.607419
0.67891198 -0.640441 1.6062689
0.73101699 -0.79218298 1.597383
0.71438003 -0.794541 1.599211
0.71016002 -0.78921598 1.6003461
0.70871401 -0.78409201 1.6004319
0.68925303 -0.66317099 1.6005828
0.67950404 -0.66375399 1.6015171
0.671767 -0.66051 1.6037799
0.67637604 -0.64986396 1.6031079
0.72126502 -0.797023 1.5943179
0.70944804 -0.79694903 1.59547
0.70817 -0.79074502 1.596084
0.70505995 -0.78605497 1.5970169
0.699476 -0.66616797 1.59407
0.68426102 -0.66882598 1.5967569
0.68188798 -0.66285205 1.597404
0.67777395 -0.65827101 1.598398
0.721259 -0.797023 1.590216
0.71440697 -0.79505402 1.591089
0.70358598 -0.79388201 1.5924801
0.70822901 -0.784747 1.591785
0.70213896 -0.67362601 1.5894439
0.69026101 -0.67388099 1.591647
0.68312299 -0.67085403 1.5931281
0.67969495 -0.66530901 1.5938629
0.68743104 -0.65290099 1.592605
0.71910006 -0.79740697 1.5863739
0.70940804 -0.79640502 1.5881031
0.70630699 -0.79124397 1.587993
0.70654505 -0.78499395 1.5871218
0.70435095 -0.68170702 1.585048
0.68800598 -0.68457901 1.587774
0.69194394 -0.67377198 1.587805
0.682428 -0.67209899 1.5894361
0.68589598 -0.66170901 1.58901
0.72026396 -0.79636401 1.5815201
0.70990896 -0.79577601 1.584057
0.71311301 -0.78704697 1.5826989
0.712668 -0.78094703 1.5819268
0.70690298 -0.68905097 1.5805991
0.69425005 -0.68974 1.582785
0.68757105 -0.68607497 1.583509
0.68656504 -0.677867 1.584847
0.69066 -0.66709 1.584307
0.72091299 -0.79604203 1.576987
0.713287 -0.79382896 1.5791229
0.71329302 -0.78633696 1.578131
0.71717906 -0.77816004 1.5774521
0.70156199 -0.69360703 1.577721
0.69223702 -0.69140899 1.578862
0.68709701 -0.68649697 1.5797589
0.68429297 -0.68108398 1.5805889
0.72853398 -0.79187304 1.5718509
0.71752 -0.79115999 1.573645
0.712901 -0.786542 1.5743229
0.71743697 -0.77814698 1.573385
0.72255206 -0.69933504 1.569183
0.70585704 -0.70083201 1.572572
0.69709605 -0.69743204 1.5742309
0.693555 -0.69156504 1.574375
0.68879503 -0.686257 1.5755649
0.70054603 -0.67144698 1.573573
0.72718501 -0.79229599 1.5678461
0.71935403 -0.789783 1.5687751
0.71239698 -0.78674597 1.5705941
0.719001 -0.77699399 1.5685
0.73148102 -0.709692 1.563792
0.71575701 -0.711658 1.5666559
0.71250898 -0.70490402 1.5680259
0.70335406 -0.70200998 1.5690939
0.69677597 -0.69701302 1.570394
0.69204497 -0.69219202 1.570851
0.69430298 -0.68315101 1.5707159
0.72678804 -0.792602 1.563699
0.72498596 -0.78759402 1.5638009
0.71542901 -0.78483397 1.565244
