# .PCD v0.7 - Point Cloud Data file format
VERSION 0.7
FIELDS x y z
SIZE 4 4 4
TYPE F F F
COUNT 1 1 1
WIDTH 1787
HEIGHT 1
VIEWPOINT 0 0 0 1 0 0 0
POINTS 1787
DATA ascii
1.43812 1.0146099 1.890018
1.42048 1.05591 1.882593
1.4253 1.04861 1.881315
1.4285001 1.03791 1.8818491
1.44039 1.0279499 1.8759171
1.4147501 1.05458 1.8773841
1.4280701 1.04978 1.8719971
1.43817 1.04036 1.867697
1.4394299 1.02728 1.8679111
1.44128 1.01559 1.871006
1.4311399 1.04944 1.8610901
1.43681 1.0386599 1.8605552
1.44259 1.02906 1.8576269
1.4342301 1.01168 1.8662271
1.42725 1.05832 1.853375
1.4389399 1.05344 1.8486071
1.43967 1.04194 1.850216
1.44564 1.03126 1.847667
1.42851 1.05959 1.84443
1.4323801 1.05141 1.84399
1.44033 1.04031 1.840603
1.4384599 1.02512 1.8443561
1.41144 0.97810501 1.8657119
1.42554 1.05827 1.8382739
1.4340301 1.0508699 1.833566
1.44392 1.0413201 1.829937
1.44295 1.0285701 1.8334451
1.4299899 1.05954 1.827276
1.4316901 1.0514901 1.826033
1.44084 1.0424401 1.8229721
1.4452499 1.03021 1.823985
1.44445 1.0181 1.827352
1.43458 1.06137 1.815955
1.4406101 1.05363 1.814447
1.44592 1.04383 1.8116629
1.4453101 1.03031 1.815575
1.4330901 1.06151 1.808475
1.4402601 1.0544699 1.806247
1.44839 1.04487 1.801865
1.44645 1.03049 1.8064481
1.43735 1.06276 1.798779
1.44549 1.05558 1.7948849
1.44872 1.04491 1.793595
1.45149 1.0329599 1.7952881
1.43978 1.0152301 1.8041611
1.4433701 1.06407 1.786743
1.4461399 1.05467 1.7866
1.45535 1.04739 1.7834281
1.45293 1.03523 1.7862451
1.44399 1.01835 1.792523
1.44446 1.06521 1.777054
1.4516001 1.04599 1.7775241
1.4522099 1.03133 1.7793939
1.4407699 1.0074 1.787789
1.4547 1.04695 1.7666879
1.45502 1.03381 1.7698081
1.4632201 1.04944 1.754972
1.46334 1.03737 1.7575281
1.4622301 1.06139 1.747908
1.46267 1.05102 1.7476419
1.46016 1.0589499 1.740744
1.42608 1.0346 1.9108261
1.43099 1.02299 1.9114261
1.42976 1.0358599 1.900126
1.4313 1.02346 1.9023581
1.4338499 1.03684 1.8894451
1.44049 1.02641 1.888702
1.39179 1.07489 1.900492
1.4027001 1.0660399 1.894845
1.4101501 1.05592 1.8938031
1.4277999 1.04725 1.883665
1.4335201 1.0359501 1.88203
1.43898 1.0269001 1.88188
1.4398599 1.0147799 1.8820349
1.4237601 1.0474601 1.877829
1.4311999 1.03703 1.874861
1.4365 1.02545 1.8754321
1.3825901 1.07042 1.886601
1.40828 1.05723 1.8759091
1.4443899 1.0405101 1.8585111
1.44348 1.0262899 1.862763
1.4327201 1.0499901 1.856271
1.4435099 1.04109 1.85069
1.44521 1.0283101 1.851932
1.38491 1.06308 1.87008
1.4371099 1.0511 1.845521
1.4431599 1.0391999 1.8431079
1.44407 1.02661 1.8444381
1.38622 1.06302 1.8609179
1.4177201 1.0589 1.8459451
1.43591 1.05048 1.83767
1.4446001 1.0401599 1.8335379
1.4500799 1.02974 1.833993
1.3922501 1.07313 1.8495041
1.4032201 1.06695 1.8439151
1.42417 1.06039 1.834232
1.4389 1.05144 1.827726
1.4433501 1.04005 1.8257769
1.44732 1.02799 1.8272119
1.44408 0.991579 1.8339161
1.39671 1.07451 1.8390632
1.41057 1.06876 1.831839
1.4289501 1.06162 1.8235459
1.43914 1.0515599 1.819379
1.44678 1.04138 1.8157849
1.44595 1.02961 1.81952
1.40633 1.07681 1.8258979
1.41833 1.07067 1.819683
1.42742 1.06115 1.815979
1.44767 1.05352 1.806987
1.4500101 1.04246 1.8066641
1.4542301 1.03062 1.806742
1.41017 1.07761 1.8154651
1.41977 1.0706199 1.8106329
1.4379699 1.06291 1.802143
1.4461 1.05137 1.8003201
1.44787 1.03993 1.8013791
1.45509 1.0307701 1.797368
1.4125501 1.07822 1.8052552
1.4217 1.0709 1.8019561
1.4333 1.06408 1.7959272
1.44347 1.05383 1.792523
1.4479401 1.04119 1.793497
1.45222 1.0307701 1.7905301
1.4574001 1.0207701 1.790854
1.3993801 1.07603 1.803293
1.41719 1.07125 1.7958789
1.4365 1.06446 1.7868359
1.4441 1.0547 1.7838901
1.44741 1.04264 1.784675
1.45779 1.03265 1.7799649
1.4572999 1.0208 1.783
1.4215699 1.07186 1.7854321
1.43884 1.06459 1.7778602
1.45024 1.05493 1.773777
1.4570799 1.0431199 1.77133
1.45518 1.0293 1.7744991
1.4579201 1.0202401 1.7754019
1.42702 1.07307 1.7747051
1.4522099 1.0549901 1.7646641
1.4647099 1.0455899 1.7589151
1.45941 1.03213 1.7641431
1.42124 1.08113 1.7695581
1.4285001 1.07381 1.7659131
1.46478 1.05751 1.750387
1.46787 1.04575 1.7500091
1.4340199 1.07505 1.755381
1.45829 1.0680799 1.7446741
1.4672999 1.05906 1.741904
1.4180701 1.08336 1.754886
1.4390199 1.07493 1.7454541
1.4558501 1.06832 1.7385111
1.45884 1.06934 1.721264
1.42079 1.03992 1.9143161
1.4344001 1.03023 1.90811
1.4190199 1.05117 1.9060321
1.42905 1.04036 1.9023911
1.43571 1.03001 1.898235
1.44082 1.0188 1.898806
1.4259 1.04117 1.8953861
1.4361399 1.03021 1.8890469
1.43678 1.01719 1.891862
1.3772999 1.08189 1.9099051
1.39179 1.07189 1.9024649
1.4248101 1.05188 1.8871911
1.4304601 1.04062 1.8837922
1.43936 1.03062 1.8800451
1.4375999 1.0188 1.8819119
1.3820701 1.08026 1.8987421
1.42081 1.0524501 1.8806891
1.4314901 1.04144 1.874025
1.43562 1.0291899 1.8743531
1.4388601 1.01745 1.872981
1.39939 1.06032 1.8832279
1.4233201 1.0511299 1.871187
1.4399201 1.04287 1.8611511
1.44095 1.03146 1.862655
1.44007 1.0187401 1.864568
1.35549 1.0671 1.8982681
1.4325 1.05138 1.8582501
1.4388499 1.04284 1.854906
1.4433399 1.03266 1.852805
1.4421 1.02072 1.855684
1.35549 1.05872 1.8928031
1.43488 1.05138 1.847363
1.43586 1.04213 1.849272
1.44463 1.03239 1.8433841
1.4471 1.02017 1.844806
1.42847 1.0521901 1.8417521
1.43621 1.04327 1.839785
1.4449899 1.0328701 1.834725
1.4446601 1.02133 1.837816
1.40069 1.05651 1.8477291
1.42537 1.0518399 1.836156
1.4368601 1.0427999 1.8310971
1.44593 1.03354 1.8266501
1.4439 1.02122 1.829888
1.4203501 1.05994 1.8299451
1.43733 1.05293 1.822381
1.43893 1.0421801 1.822884
1.44444 1.03234 1.820264
1.43067 1.0548301 1.817126
1.44059 1.0440201 1.813736
1.45044 1.0321499 1.808652
1.4250301 1.06345 1.811023
1.43828 1.05477 1.80502
1.44346 1.0428901 1.8044341
1.4549401 1.03405 1.7977661
1.42478 1.06415 1.8029629
1.4453 1.05696 1.792668
1.44847 1.04497 1.794032
1.45672 1.0349 1.7889692
1.4507 1.02303 1.794292
1.41513 1.07154 1.800114
1.4274899 1.06504 1.793682
1.4438499 1.0577201 1.7857831
1.4493401 1.0463099 1.78478
1.4541099 1.03416 1.782097
1.46314 1.0243 1.7809421
1.42027 1.07258 1.789088
1.45657 1.04581 1.772808
1.46192 1.0351501 1.7715249
1.46021 1.02364 1.773661
1.44488 1.05672 1.7700391
1.4527099 1.04566 1.7661121
1.46179 1.03493 1.7645999
1.42342 1.0737799 1.772518
1.4647599 1.0472599 1.75332
1.4579101 1.0359501 1.7585781
1.4270799 1.0743699 1.762763
1.4582001 1.05936 1.7471789
1.42496 1.07643 1.754922
1.4629401 1.0611 1.7376181
1.4507201 1.0697399 1.735557
1.4629101 1.0598 1.7309351
1.43875 1.07962 1.732407
1.3552099 0.99856001 1.916268
1.3552999 1.0074099 1.917279
1.36115 0.99857694 1.90871
1.34883 1.01043 1.911306
1.3436501 1.03262 1.9121261
1.34192 1.04301 1.913479
1.3471899 1.0516601 1.9118891
1.35141 1.06207 1.9123621
1.36787 1.0805401 1.9111569
1.3941001 1.0820301 1.9081259
1.3605599 0.99915296 1.902583
1.3503101 1.0089 1.9052091
1.349 1.01931 1.9048889
1.34372 1.03205 1.906242
1.34412 1.04276 1.9075251
1.34974 1.0527201 1.905928
1.3562 1.0625701 1.9060531
1.3635601 0.99796206 1.8962451
1.35474 1.0086499 1.898607
1.3460001 1.03069 1.8996201
1.3472999 1.0419101 1.9010291
1.34846 1.0517501 1.899971
1.3562 1.0610601 1.899979
1.3472999 1.02027 1.893522
1.3494501 1.0307599 1.893647
1.3501601 1.04135 1.894037
1.3472199 1.05346 1.8951739
1.35175 1.01963 1.8861099
1.3459101 1.03227 1.88854
1.3489 1.0417401 1.888552
1.3524699 1.05126 1.8885181
1.4176899 1.0656301 1.8792959
1.35009 1.02021 1.8811151
1.3543601 1.02895 1.8808551
1.35086 1.04118 1.8829612
1.36098 1.05057 1.8806891
1.35355 1.01957 1.875329
1.35729 1.02873 1.8748529
1.3556199 1.0396 1.875684
1.36233 1.04943 1.8738282
1.37937 1.05562 1.8730261
1.39337 1.06142 1.87135
1.35429 1.02932 1.869462
1.35707 1.04045 1.86961
1.36044 1.04916 1.8683029
1.3765401 1.0562301 1.8668702
1.3967199 1.06021 1.8644711
1.3549 1.0281199 1.862637
1.3560899 1.03929 1.863551
1.3610899 1.0502601 1.862397
1.378 1.05653 1.8606939
1.39072 1.06147 1.8591931
1.35824 1.02871 1.856609
1.35238 1.04097 1.8578601
1.35673 1.04993 1.8568521
1.37369 1.05685 1.855148
1.3513 1.0314499 1.8522971
1.3545101 1.04048 1.851544
1.3611301 1.04996 1.8506311
1.37201 1.05741 1.8489521
1.3903799 1.06169 1.8468801
1.3586 1.02832 1.8449662
1.36244 1.03971 1.843894
1.3761301 1.05804 1.84271
1.3641 1.02825 1.8372281
1.35481 1.04145 1.83899
1.36018 1.0493599 1.839584
1.3689901 1.05752 1.838015
1.3847301 1.06431 1.8349921
1.36518 1.01705 1.831214
1.36177 1.02827 1.831908
1.36411 1.0380501 1.831587
1.3634599 1.04907 1.8334509
1.374 1.05846 1.8306149
1.3928701 1.06469 1.8276111
1.3894501 0.999789 1.8199631
1.3698399 1.01552 1.8238862
1.3658299 1.0276999 1.8255899
1.3666201 1.0386 1.8251621
1.3621299 1.04985 1.827372
1.37622 1.05755 1.823585
1.3861799 1.06573 1.8230789
1.3722301 1.02553 1.818246
1.3641299 1.03758 1.820518
1.36966 1.05875 1.819509
1.3789301 1.06635 1.817839
1.39999 1.0706301 1.815657
1.36926 1.03694 1.813692
1.3713901 1.04781 1.8121921
1.3759301 1.05729 1.8132321
1.3808399 1.06609 1.811383
1.39382 1.0725499 1.809478
1.3706501 1.03693 1.8063021
1.3786099 1.0573001 1.806604
1.38683 1.06683 1.8042121
1.39171 1.07444 1.804252
1.41931 1.07574 1.800534
1.38897 1.01413 1.795683
1.36922 1.03807 1.7998511
1.37051 1.04814 1.800712
1.37906 1.05774 1.8000121
1.38535 1.06732 1.7980951
1.39103 1.0753701 1.797606
1.37239 1.03565 1.7931321
1.3669 1.04837 1.795312
1.37149 1.05726 1.795712
1.3804899 1.06595 1.793573
1.38858 1.07577 1.791568
1.3740401 1.05742 1.789239
1.38201 1.06777 1.786706
1.3924899 1.07626 1.785195
1.4213699 1.0874801 1.7798959
1.37643 1.02525 1.7803439
1.36929 1.03644 1.7823761
1.36492 1.0481 1.7829911
1.3718201 1.05784 1.7827231
1.3855001 1.0669 1.779151
1.38745 1.07777 1.7805619
1.37455 1.02626 1.7748071
1.36728 1.03899 1.776588
1.36508 1.05014 1.7779001
1.37336 1.05865 1.7754891
1.3842701 1.06756 1.7734469
1.38149 1.02318 1.7670391
1.36906 1.03589 1.770007
1.3698399 1.04775 1.770547
1.3720599 1.05723 1.7695661
1.37752 1.0665799 1.769079
1.3910099 1.07612 1.76712
1.39819 1.01328 1.756225
1.37875 1.02544 1.7614881
1.3681599 1.0388 1.7642459
1.3667799 1.04961 1.7652889
1.37611 1.05731 1.763036
1.38073 1.06745 1.7624539
1.38789 1.07628 1.760916
1.37971 1.03423 1.755963
1.37406 1.04677 1.7573971
1.37763 1.05813 1.756243
1.3856 1.06767 1.7556909
1.37582 1.03611 1.7508121
1.3706599 1.05878 1.7518511
1.3817301 1.0669 1.7501489
1.3739799 1.03708 1.7446671
1.37983 1.04521 1.742601
1.4160899 1.1051999 1.737309
1.4011099 1.02153 1.7298731
1.37909 1.04731 1.736974
1.40133 1.02868 1.724813
1.37819 1.04781 1.724696
1.3582801 0.995242 1.9171939
1.3571899 1.00401 1.9185621
1.3670399 0.992167 1.9101779
1.3608299 1.0017099 1.912382
1.36292 1.07105 1.914001
1.3618201 1.0026001 1.906122
1.35698 1.0162799 1.906813
1.34623 1.04276 1.9079199
1.3482699 1.05152 1.9088761
1.3582699 1.05989 1.9077741
1.3646899 1.0773101 1.907949
1.3640801 1.0004699 1.899827
1.36208 1.01113 1.9001489
1.3525701 1.05083 1.901938
1.36235 1.05987 1.90097
1.3628399 1.0693901 1.9025149
1.3648801 1.00069 1.8938769
1.3507899 1.04082 1.8954409
1.35335 1.05041 1.895925
1.36013 1.05814 1.8954791
1.3556 1.01588 1.8882401
1.3535 1.02918 1.8886
1.3666 1.05791 1.8886331
1.3517799 1.0187401 1.882381
1.35446 1.02917 1.8822892
1.3567599 1.0387 1.883794
1.3641299 1.04829 1.8821189
1.37681 1.0568299 1.881107
1.41353 1.06321 1.8767481
1.35586 1.02641 1.875892
1.35947 1.0379 1.8767982
1.363 1.04767 1.8763031
1.3766701 1.05392 1.874413
1.38763 1.06169 1.8743341
1.4093201 1.0638 1.871323
1.35181 1.0281501 1.870914
1.36186 1.03441 1.8699951
1.3671401 1.04514 1.869799
1.37432 1.0546 1.868258
1.38938 1.061 1.867346
1.4079 1.06376 1.865321
1.35523 1.02702 1.865243
1.3640699 1.03553 1.8635861
1.3701401 1.0461 1.8623669
1.3798599 1.0553 1.86202
1.3868099 1.06226 1.86194
1.4078799 1.06319 1.859796
1.36037 1.0255001 1.85813
1.3647901 1.03651 1.856763
1.3689101 1.0458599 1.8565711
1.3739101 1.05475 1.8561881
1.3850999 1.06147 1.856573
1.3623101 1.0133001 1.8488681
1.36338 1.0253501 1.8508279
1.36138 1.03719 1.85146
1.3677299 1.04638 1.8507919
1.3717999 1.0558 1.8505721
1.37871 1.0630699 1.8496231
1.33649 0.96971804 1.8458741
1.36515 1.0240899 1.84386
1.36385 1.0368199 1.8451889
1.36341 1.0486901 1.845048
1.37501 1.05585 1.8442301
1.38385 1.06345 1.842491
1.4077499 1.06323 1.839483
1.38019 1.00685 1.8343221
1.36836 1.02266 1.837097
1.36303 1.0359 1.838799
1.3665299 1.0570201 1.8395751
1.3804899 1.0637001 1.837057
1.3937 1.0680699 1.8362451
1.36826 1.02246 1.830937
1.36738 1.03427 1.831926
1.36388 1.04609 1.8335739
1.3710001 1.0561 1.8322259
1.3797799 1.06475 1.830755
1.3924401 1.06854 1.8301489
1.36464 1.04679 1.8273941
1.3781799 1.0539601 1.823882
1.37608 1.06478 1.8257871
1.3899001 1.0696499 1.823545
1.3733001 1.03091 1.818177
1.37082 1.04492 1.8190911
1.37932 1.0537699 1.817906
1.3825901 1.0637699 1.817975
1.3910699 1.07108 1.8162671
1.3738699 1.03417 1.8120129
1.37694 1.05451 1.812296
1.38342 1.06478 1.811355
1.39039 1.07173 1.811106
1.38317 1.02143 1.802305
1.3791001 1.03171 1.8046249
1.3753101 1.04387 1.8066601
1.3791901 1.06445 1.806625
1.3935499 1.07094 1.8041381
1.41605 1.0726399 1.8002591
1.38688 1.02038 1.7948771
1.38125 1.06454 1.800233
1.39306 1.07065 1.7976171
1.3951499 1.0701699 1.791653
1.38709 1.01967 1.77754
1.3747799 1.04223 1.7796811
1.4287 1.0727401 1.7713281
1.37703 1.03286 1.7736151
1.3783001 1.04264 1.7731869
1.3837199 1.06438 1.7736881
1.4246401 1.08253 1.7677231
1.38519 1.0209401 1.7635322
1.3719299 1.04617 1.768328
1.37122 1.05624 1.7689191
1.38302 1.06247 1.767068
1.38823 1.07323 1.766528
1.3906701 1.01888 1.755626
1.37728 1.05441 1.7614521
1.38574 1.06469 1.7603619
1.39209 1.07314 1.7597861
1.40213 1.01546 1.746601
1.3722701 1.04601 1.7558521
1.37586 1.0549901 1.755596
1.3804801 1.06441 1.754693
1.40308 1.0231099 1.741774
1.3832699 1.04137 1.746945
1.3753301 1.05518 1.750059
1.37626 1.04737 1.7290092
1.35487 1.0049 1.914816
1.36614 0.99972606 1.907292
1.3520799 1.0143399 1.9104331
1.34949 1.0273499 1.9108411
1.34492 1.04223 1.9129809
1.3522301 1.06353 1.911741
1.36432 1.08162 1.911936
1.3511701 1.0159 1.904166
1.34754 1.02967 1.9044061
1.3469 1.04135 1.9062891
1.3457 1.05408 1.9060349
1.34658 1.06469 1.905786
1.38608 1.08129 1.9020591
1.35595 1.01298 1.8978469
1.34675 1.0419999 1.8992771
1.3453599 1.05539 1.9004959
1.3525701 1.06314 1.8995191
1.39826 1.07644 1.8940949
1.3498399 1.01879 1.891463
1.347 1.03106 1.892294
1.35183 1.04047 1.891759
1.3499 1.05281 1.8939621
1.35745 1.0615699 1.892745
1.4079601 1.07182 1.887153
1.3528501 1.0166301 1.883396
1.3525101 1.03768 1.885735
1.35997 1.04827 1.8854221
1.35412 1.02633 1.8788409
1.3569 1.0385801 1.8790399
1.35944 1.0486901 1.879032
1.3712699 1.05599 1.8781301
1.3947301 1.0584201 1.8759619
1.3537601 1.02494 1.8717331
1.3558099 1.0363801 1.873248
1.36321 1.04637 1.8720402
1.36895 1.05762 1.8713211
1.3930701 1.0585901 1.869579
1.3543601 1.02545 1.8658911
1.3585 1.03478 1.8661301
1.3626199 1.04553 1.8651651
1.3648 1.0569301 1.8654159
1.38433 1.0609 1.863855
1.4001499 1.0636901 1.862923
1.35265 1.02588 1.8601609
1.3567101 1.0377101 1.85946
1.35797 1.04927 1.8604519
1.3653599 1.05607 1.8590469
1.37617 1.06253 1.8583161
1.3944701 1.06495 1.8562741
1.35707 1.02601 1.8526419
1.36312 1.03452 1.85232
1.3638699 1.04562 1.853206
1.37392 1.0541201 1.851908
1.38274 1.06197 1.851046
1.3931 1.0668 1.8492459
1.36357 1.0339 1.845852
1.36524 1.04723 1.8463111
1.3762 1.05572 1.84521
1.38557 1.0625701 1.8443741
1.39722 1.06566 1.8429431
1.36567 1.033 1.8391391
1.36981 1.05523 1.8392441
1.38169 1.06249 1.838403
1.3906399 1.06818 1.838158
1.37403 1.01701 1.8305709
1.36411 1.03444 1.8334311
1.36604 1.0464 1.8334851
1.36334 1.05812 1.8343649
1.37371 1.0637699 1.833094
1.38928 1.0684301 1.830536
1.3674099 1.0315 1.8261279
1.37122 1.05409 1.827093
1.3802699 1.0630001 1.825628
1.3904401 1.0696601 1.8236982
1.3668699 1.0436599 1.82091
1.37938 1.0526 1.8186041
1.3884101 1.06159 1.8184661
1.39416 1.0694799 1.8169769
1.4104201 1.07153 1.8146881
1.37114 1.0314701 1.8131031
1.37212 1.04387 1.8134531
1.37535 1.05381 1.81216
1.3832401 1.06268 1.8130209
1.38905 1.07095 1.8113331
1.41242 1.07105 1.807955
1.37571 1.03066 1.805086
1.37412 1.04273 1.8065649
1.3708099 1.05545 1.807413
1.38311 1.0625 1.8056841
1.39446 1.07046 1.80446
1.38168 1.02934 1.796418
1.37432 1.0419 1.7995639
1.38158 1.06264 1.798594
1.3856 1.07284 1.7993569
1.3764 1.06462 1.793717
1.38634 1.0711499 1.79257
1.39784 1.07734 1.7906289
1.37517 1.04087 1.7863131
1.37977 1.06358 1.7868829
1.39397 1.0701799 1.785307
1.3706399 1.0451599 1.7804711
1.3737601 1.0560399 1.7808951
1.3818099 1.0631 1.7802789
1.38401 1.0735099 1.7807791
1.4166299 1.08259 1.774935
1.3970701 1.01162 1.7655541
1.3782099 1.02876 1.7706381
1.3741901 1.04134 1.7729191
1.37433 1.0539 1.774207
1.37642 1.06524 1.775636
1.3895301 1.07231 1.7725821
1.38748 1.0229499 1.762966
1.377 1.03791 1.765843
1.37362 1.05209 1.767462
1.3785499 1.0641201 1.767575
1.38903 1.0739 1.7658279
1.38539 1.02552 1.757182
1.37466 1.04254 1.760151
1.3716701 1.0564901 1.7617121
1.3747001 1.0657001 1.761726
1.38454 1.0722799 1.760376
1.37914 1.03977 1.7526901
1.38039 1.0632701 1.7541541
1.3808399 1.04048 1.745465
1.38143 1.0526 1.7262869
1.38745 1.0858001 1.72729
1.36269 0.99950898 1.916464
1.3675301 0.99646699 1.9090021
1.3518699 1.01547 1.912208
1.3422501 1.04668 1.914505
1.35515 1.0671099 1.914879
1.35545 1.01318 1.905079
1.3460201 1.03135 1.907146
1.3408 1.04838 1.9087989
1.3431599 1.05917 1.9085621
1.35534 1.06481 1.907331
1.38293 1.07649 1.9055541
1.36367 1.00876 1.8978491
1.3465401 1.0300701 1.900417
1.34547 1.0443901 1.901366
1.3476601 1.05652 1.902406
1.35954 1.06188 1.900092
1.3830099 1.07477 1.898826
1.35261 1.0383201 1.8937851
1.35295 1.05268 1.8947281
1.3598 1.06304 1.8939371
1.35346 1.02711 1.8862081
1.34989 1.0429 1.8883551
1.3554699 1.05275 1.88757
1.35352 1.0278701 1.8792511
1.35498 1.03992 1.881128
1.36095 1.05049 1.879832
1.3656501 1.06074 1.8804879
1.37642 1.06407 1.878104
1.35155 1.02677 1.8733901
1.35686 1.03833 1.8732691
1.35517 1.05257 1.8741211
1.36985 1.0569301 1.8729919
1.37717 1.06398 1.8708459
1.35332 1.0267299 1.8662381
1.35238 1.04088 1.867326
1.36334 1.0483999 1.866611
1.37323 1.0568 1.8662469
1.37703 1.06486 1.864958
1.39899 1.06198 1.8620889
1.3543401 1.02678 1.8590991
1.35572 1.03943 1.8603901
1.36075 1.05049 1.8597831
1.3664399 1.05999 1.860889
1.3763299 1.0667701 1.858552
1.4227201 1.0584201 1.8496871
1.36098 1.02104 1.85223
1.36067 1.03417 1.852713
1.3614 1.04735 1.853304
1.3696001 1.05795 1.8526691
1.38325 1.0654 1.8506629
1.4141001 1.06118 1.846839
1.4401699 1.05752 1.8431711
1.3616999 1.0237 1.845643
1.3543899 1.0410501 1.847278
1.36089 1.05029 1.8473411
1.3636 1.06015 1.846557
1.37997 1.06493 1.8445981
1.40648 1.064 1.84199
1.43313 1.05979 1.8391949
1.3678999 1.0217401 1.8376129
1.3602699 1.03591 1.839416
1.3591 1.05085 1.840475
1.37163 1.05787 1.83952
1.37659 1.06743 1.8382379
1.39785 1.06722 1.8368411
1.42697 1.06217 1.8334039
1.36358 1.02566 1.83164
1.3582201 1.03925 1.833112
1.3591499 1.05136 1.8331031
1.36405 1.0619999 1.834203
1.39891 1.06683 1.82942
1.38237 1.0160199 1.821936
1.3692501 1.03171 1.825181
1.36422 1.0459 1.8260491
1.36946 1.0571901 1.8257071
1.37657 1.06734 1.82666
1.4269501 1.06259 1.818266
1.36647 1.0354 1.818884
1.36845 1.0469201 1.8188111
1.37718 1.05419 1.818045
1.3800399 1.06549 1.818313
1.4224499 1.06555 1.812695
1.3708501 1.03373 1.811094
1.37468 1.0419899 1.810433
1.373 1.05694 1.812677
1.3808501 1.06475 1.8118961
1.3884801 1.07199 1.8108569
1.37089 1.03441 1.804693
1.3754201 1.0414801 1.8027569
1.3771001 1.05353 1.804502
1.38116 1.06497 1.8059131
1.3926101 1.07161 1.8031861
1.4082 1.07318 1.801017
1.37883 1.03029 1.796333
1.37572 1.05337 1.7972
1.38283 1.06501 1.7982612
1.3939 1.0713 1.796537
1.4041901 1.07567 1.794933
1.37082 1.0562201 1.7911381
1.37799 1.06602 1.7915649
1.39214 1.07284 1.7903531
1.3714501 1.0442901 1.7852411
1.3774899 1.06419 1.7846521
1.3858399 1.07416 1.7837341
1.4344701 1.0735 1.7763619
1.3739901 1.04291 1.7774899
1.37217 1.05656 1.7791561
1.3777499 1.06585 1.7781491
1.38551 1.07463 1.7766479
1.38671 1.0250701 1.7665421
1.37643 1.05339 1.77123
1.38257 1.0647399 1.7700109
1.38815 1.07576 1.77026
1.3831799 1.0286499 1.761395
1.37254 1.04528 1.764039
1.37383 1.0576999 1.7647181
1.36763 1.07205 1.7669311
1.3824699 1.07568 1.764814
1.3768899 1.04319 1.756017
1.3782899 1.05337 1.756848
1.3769799 1.06744 1.758847
1.3789001 1.05264 1.749783
1.3896099 1.09814 1.751738
1.4000701 1.0316 1.72874
1.38018 1.0519201 1.7354779
1.39924 1.03223 1.722059
1.3479401 1.06151 1.916539
1.3557899 1.0703399 1.918036
1.36629 1.00982 1.9055181
1.34123 1.0520301 1.911396
1.35132 1.05873 1.910253
1.3569701 1.06874 1.910669
1.36566 1.07752 1.9095269
1.38077 1.0782 1.9074051
1.34374 1.04792 1.904485
1.3496801 1.05907 1.9043649
1.35897 1.06845 1.903349
1.35278 1.0591301 1.897326
1.35648 1.03833 1.888193
1.3579401 1.0535901 1.8894769
1.35341 1.02968 1.8810571
1.3512199 1.04529 1.8828399
1.36015 1.05338 1.881783
1.37466 1.05858 1.880067
1.40256 1.06182 1.87739
1.35675 1.0407 1.874563
1.3632801 1.05283 1.8743179
1.37959 1.0564901 1.872877
1.3894501 1.0608001 1.8727609
1.3564 1.02657 1.867103
1.3513499 1.04365 1.8683701
1.36289 1.04889 1.8673959
1.36866 1.05955 1.86722
1.3844501 1.06187 1.865715
1.36264 1.0374501 1.860428
1.36689 1.04916 1.8607531
1.37569 1.05671 1.85903
1.38217 1.0631 1.8590851
1.34663 1.0000701 1.852603
1.3607401 1.03931 1.8533771
1.36826 1.04792 1.8537899
1.36824 1.06038 1.8524441
1.37815 1.06522 1.8530011
1.35803 0.99032998 1.8456891
1.3633599 1.03961 1.8458499
1.36485 1.04951 1.8466361
1.3671299 1.06054 1.8457681
1.37541 1.06707 1.8455429
1.3607001 1.05406 1.840735
1.3703101 1.06077 1.8386041
1.3882699 1.06292 1.8360791
1.3620501 1.05274 1.8337359
1.37212 1.05847 1.8312759
1.38143 1.0663201 1.8305609
1.37044 1.0477101 1.8246139
1.37672 1.0585901 1.824223
1.3882099 1.0631601 1.8230911
1.39196 1.07086 1.823127
1.37349 1.04452 1.8165381
1.3747301 1.0577101 1.817626
1.38726 1.06481 1.8165649
1.3994701 1.06919 1.814169
1.37734 1.0417199 1.808859
1.3717901 1.05747 1.81162
1.38149 1.0660501 1.8098171
1.4003199 1.0687001 1.8075299
1.42424 1.0643699 1.803766
1.3902 1.02387 1.798275
1.37184 1.04611 1.803004
1.38003 1.05329 1.8034481
1.38302 1.0651799 1.8022821
1.3947099 1.07126 1.801358
1.41958 1.06761 1.79776
1.37272 1.04672 1.795789
1.37631 1.05712 1.796627
1.38669 1.0664901 1.79514
1.4227201 1.06789 1.7901291
1.3733901 1.05742 1.78994
1.38175 1.06636 1.7884841
1.3968201 1.07278 1.7869949
1.37428 1.0583999 1.7822521
1.37772 1.06919 1.7827011
1.3903999 1.0746701 1.780663
1.4232899 1.07997 1.776742
1.3733799 1.06005 1.775238
1.37925 1.0685 1.776348
1.3760099 1.05752 1.7678701
1.38114 1.06739 1.769138
1.39106 1.0753399 1.7670959
1.3818699 1.0670099 1.7618341
1.39299 1.0756099 1.759317
1.3836 1.06601 1.7532431
1.4182299 1.09689 1.743174
1.4029201 1.02905 1.730581
1.3929 1.04607 1.7349271
1.40794 1.02651 1.7229401
1.38649 1.06379 1.7237161
1.38677 1.10209 1.728215
1.4085801 1.06341 1.908311
1.41794 1.05167 1.91039
1.42028 1.03754 1.909698
1.42774 1.02976 1.908515
1.40766 1.06419 1.900991
1.4196 1.05555 1.90219
1.4260899 1.0425299 1.903658
1.43004 1.03 1.9011019
1.40028 1.07209 1.894176
1.4192599 1.06832 1.8966141
1.42477 1.05904 1.8955619
1.4263201 1.04417 1.895178
1.43092 1.03162 1.893625
1.4117301 1.06622 1.8880099
1.42045 1.05497 1.887431
1.4293 1.04381 1.8872281
1.4256301 1.02653 1.886053
1.41941 0.996333 1.8812091
1.41538 1.0666001 1.880026
1.4271201 1.05704 1.881323
1.42872 1.0453299 1.8795661
1.4284599 1.02966 1.8790261
1.41519 1.06835 1.8722351
1.42557 1.0579901 1.873136
1.42417 1.04123 1.872103
1.4182899 1.06841 1.8660721
1.42711 1.06039 1.86544
1.43112 1.0467601 1.8656509
1.4342901 1.0346299 1.8647361
1.3807001 1.07353 1.8524191
1.4061099 1.07736 1.8576199
1.4157001 1.0685099 1.85817
1.43152 1.06056 1.858519
1.42993 1.0446299 1.857211
1.42987 1.0339299 1.855952
1.41099 1.07681 1.850616
1.4257001 1.07128 1.852249
1.4316299 1.06089 1.850304
1.4335999 1.0491101 1.85095
1.4304401 1.03583 1.8487711
1.41328 1.0769 1.84163
1.42688 1.07244 1.844566
1.43198 1.06078 1.8428149
1.43718 1.05003 1.8437171
1.42681 1.03298 1.840046
1.4153 1.07898 1.8339109
1.41958 1.0708001 1.835524
1.42891 1.0625701 1.8357141
1.4375 1.05135 1.8353491
1.4372001 1.03746 1.834215
1.40931 1.07784 1.8249221
1.4209801 1.07099 1.8273419
1.43176 1.06049 1.8283039
1.43927 1.05145 1.82841
1.43968 1.03897 1.8270069
1.42608 1.0146 1.8217371
1.3937199 1.0808001 1.815853
1.4140899 1.08094 1.8189331
1.42784 1.0744799 1.820824
1.43042 1.0624601 1.8212689
1.4394701 1.05141 1.8208721
1.42968 1.01536 1.8152601
1.42287 1.07473 1.812626
1.43627 1.06589 1.814662
1.4444799 1.05492 1.8132651
1.43565 1.01875 1.80996
1.4400901 1.0660399 1.8077381
1.4413699 1.0546601 1.8053811
1.4441099 1.0417501 1.804651
1.4394701 1.0210299 1.801705
1.4279699 1.07533 1.798497
1.4380701 1.06647 1.799767
1.4417399 1.0529 1.798135
1.4386901 1.0351501 1.794758
1.43571 1.01816 1.79198
1.42614 1.0881 1.7907311
1.43905 1.0646499 1.7916299
1.4415401 1.03764 1.7884259
1.4267 1.0885 1.7835621
1.42978 1.07849 1.784153
1.4387 1.0692401 1.7844172
1.44528 1.05711 1.784102
1.4272901 1.09048 1.777306
1.43591 1.0813099 1.778161
1.44621 1.05489 1.776893
1.4275399 1.08999 1.7694299
1.4401699 1.08119 1.771219
1.4353501 1.03228 1.763256
1.44222 1.08319 1.763552
1.44682 1.0563099 1.759679
1.42872 1.08913 1.753407
1.4456799 1.0836101 1.755782
1.44371 1.085 1.748116
1.45345 1.07513 1.7493179
1.45237 1.07649 1.7409531
1.4575 1.06473 1.741683
1.4569701 1.0780001 1.734858
1.45663 1.06406 1.733133
1.45486 1.07714 1.7270471
1.45259 1.05981 1.7229401
1.41037 1.06835 1.9140429
1.42064 1.0595601 1.9139081
1.41918 1.0447299 1.9130609
1.42944 1.0369999 1.912375
1.3736399 1.0941 1.903349
1.3894701 1.07628 1.903093
1.41118 1.0695601 1.906742
1.42325 1.0619 1.9075799
1.4263201 1.05022 1.9071569
1.43319 1.04018 1.9059809
1.42478 1.02279 1.904001
1.40687 1.07085 1.8982251
1.42027 1.0615001 1.9002709
1.43147 1.0518399 1.900434
1.43135 1.0370899 1.8984451
1.42908 1.0214801 1.8979191
1.3931799 1.0749099 1.889048
1.4158599 1.07032 1.892482
1.42948 1.06302 1.894599
1.4305201 1.0508 1.8928891
1.43392 1.03961 1.891508
1.4335001 1.0239 1.890633
1.41282 1.0711499 1.8845181
1.4223399 1.06027 1.8857911
1.4318401 1.05055 1.8864211
1.4309 1.03661 1.8836761
1.4266 1.0201499 1.8813549
1.44066 1.0126899 1.8837781
1.4072701 1.07082 1.8768151
1.4210299 1.06234 1.877449
1.4272701 1.0497299 1.87848
1.43248 1.03871 1.876356
1.4280499 1.02359 1.8754001
1.43636 1.01359 1.875054
1.41117 1.0705301 1.869949
1.4279201 1.06459 1.8714861
1.4304401 1.05197 1.870752
1.43522 1.0403501 1.870423
1.43366 1.02658 1.869194
1.4323 1.01183 1.8664389
1.41219 1.0713099 1.862312
1.4247301 1.06336 1.863517
1.4386799 1.05582 1.8652389
1.4390601 1.04241 1.864436
1.4328301 1.0237499 1.8605121
1.38705 1.07031 1.849178
1.41713 1.07216 1.8559439
1.42005 1.06222 1.854672
1.4347099 1.0539 1.856877
1.43584 1.03843 1.855787
1.43336 1.02482 1.853689
1.38039 1.07146 1.840327
1.4129801 1.07205 1.847198
1.4328301 1.06621 1.850782
1.43581 1.05493 1.8487451
1.44099 1.04401 1.850209
1.43129 1.0249801 1.8463901
1.36571 1.07566 1.8321091
1.3839301 1.0732499 1.834672
1.4154201 1.07453 1.839816
1.42677 1.06511 1.8419769
1.43644 1.0557801 1.841826
1.4389501 1.04224 1.841598
1.42567 1.0197799 1.836772
1.3971499 1.07823 1.8295701
1.4204401 1.07415 1.833877
1.43488 1.06627 1.836091
1.43747 1.0541101 1.835627
1.43687 1.04123 1.83272
1.4281501 1.02399 1.830856
1.3784 1.08048 1.82024
1.39776 1.0796399 1.822287
1.4133 1.0745 1.8250101
1.4248101 1.06542 1.8267159
1.4361501 1.05562 1.828046
1.44461 1.04557 1.8268139
1.4258901 1.02195 1.8224859
1.4465699 0.982153 1.820496
1.3923199 1.0856199 1.815973
1.4007499 1.07899 1.815924
1.43295 1.06645 1.8215719
1.4405299 1.05707 1.82122
1.4447501 1.04653 1.819961
1.4328101 1.02754 1.81634
1.4064 1.0817 1.8107699
1.41822 1.07584 1.8116159
1.4330499 1.06718 1.813555
1.44275 1.05674 1.814773
1.44028 1.0422 1.8115869
1.43058 1.02245 1.808189
1.43401 1.0102 1.8083332
1.45163 0.99214798 1.8083071
1.4333 1.06767 1.8049771
1.4379801 1.05489 1.8059561
1.44841 1.04658 1.8067582
1.43735 1.02835 1.80198
1.4219201 1.0888801 1.7968091
1.4330701 1.0678099 1.7983279
1.43899 1.0571901 1.797966
1.4373399 1.02808 1.794947
1.4435401 1.01796 1.79451
1.42076 1.09044 1.789704
1.42659 1.07937 1.790105
1.43538 1.06835 1.792025
1.44438 1.05874 1.791784
1.4387801 1.02837 1.788349
1.44047 1.01613 1.786656
1.4348301 1.08191 1.7845001
1.44807 1.06233 1.786922
1.44121 1.03248 1.781394
1.4456301 0.96079397 1.772926
1.4296601 1.0824701 1.776593
1.4421699 1.07311 1.778028
1.4405999 1.0577201 1.7773309
1.4464999 1.0460299 1.777247
1.43714 1.08254 1.7706671
1.44682 1.0475299 1.7697901
1.4405299 1.03019 1.7643591
1.41382 1.0887799 1.7583209
1.43284 1.08394 1.762551
1.44807 1.0759 1.7649139
1.44726 1.06129 1.7647241
1.44059 1.0844799 1.757563
1.4500301 1.0625 1.75748
1.45495 1.05058 1.7554431
1.44059 1.08496 1.749981
1.4571 1.0793 1.752635
1.4593401 1.05195 1.749346
1.45039 1.07687 1.7434821
1.46102 1.05531 1.742836
1.45135 1.07724 1.736479
1.4594001 1.06846 1.737551
1.42181 1.10508 1.7262671
1.45802 1.06721 1.7292459
1.45427 1.0645 1.7202139
1.3513299 1.07266 1.9192261
1.34636 1.05985 1.916978
1.3762801 1.08261 1.9099951
1.41931 1.05718 1.9142849
1.4284199 1.04698 1.915242
1.3778701 1.0806199 1.9031421
1.4117399 1.06546 1.9066581
1.4242101 1.05594 1.907655
1.4263201 1.0424199 1.9078281
1.4380001 1.03364 1.9094839
1.4204299 1.06613 1.901252
1.42636 1.0570301 1.9015759
1.42984 1.04637 1.900972
1.4296499 1.0319899 1.9010501
1.42693 1.0185701 1.897581
1.40159 1.07406 1.890952
1.41724 1.0671099 1.893743
1.4256101 1.0574299 1.8953
1.4253 1.04524 1.892782
1.4324499 1.0333 1.893455
1.3981301 1.0741301 1.883902
1.4103501 1.06624 1.885921
1.4209399 1.05612 1.8864999
1.4329 1.0453501 1.887175
1.4347301 1.0327801 1.8861191
1.42737 1.01763 1.884917
1.41556 1.06666 1.879802
1.4223399 1.05704 1.8796952
1.4302001 1.04814 1.8800281
1.43784 1.0367401 1.87985
1.43795 1.02305 1.879458
1.42176 1.0686799 1.8744431
1.4269501 1.0585999 1.873901
1.4389999 1.04895 1.873996
1.44052 1.0374401 1.873665
1.43976 1.02545 1.8727181
1.42339 1.06634 1.867117
1.4356101 1.0598 1.86739
1.43515 1.04791 1.8665359
1.44101 1.0376101 1.8667871
1.43642 1.0210199 1.864539
1.3908299 1.06814 1.849993
1.42293 1.06668 1.858508
1.4378101 1.06171 1.8614191
1.4414901 1.05152 1.861478
1.4454601 1.0406801 1.8600891
1.43681 1.02446 1.8576241
1.38396 1.0695701 1.8427881
1.41373 1.0671901 1.84892
1.43348 1.06064 1.854342
1.43718 1.0489299 1.8530771
1.43841 1.036 1.8513169
1.4342301 1.02027 1.8496051
1.36541 1.07287 1.8340689
1.3840899 1.0696701 1.8368679
1.41694 1.06856 1.842025
1.43112 1.05933 1.84597
1.4377099 1.0479599 1.8462149
1.44315 1.03934 1.845417
1.4372901 1.02465 1.843267
1.46093 0.99690199 1.8453962
1.39082 1.07164 1.830996
1.41843 1.06938 1.8350259
1.42531 1.05931 1.8373129
1.4374299 1.04927 1.8387561
1.4435 1.0377201 1.839172
1.3993201 1.0746399 1.825618
1.4237601 1.07172 1.8295472
1.4324499 1.06124 1.831266
1.43774 1.04984 1.8315561
1.44129 1.03781 1.8310682
1.4079201 1.07636 1.8199099
1.42905 1.0715699 1.824761
1.4307899 1.06092 1.8233889
1.4381 1.05053 1.824665
1.4473399 1.04096 1.8249201
1.38811 1.08029 1.8090521
1.40833 1.0772899 1.8124539
1.4265199 1.07103 1.816855
1.43727 1.0611 1.8179641
1.4435099 1.05024 1.818436
1.4503101 1.04056 1.819339
1.42909 1.02115 1.8128492
1.40459 1.07832 1.805086
1.4234101 1.07318 1.8087759
1.4307899 1.06268 1.8096421
1.4450999 1.05476 1.8118939
1.44585 1.04254 1.811262
1.45409 0.98977 1.807005
1.43019 1.0728 1.803584
1.43908 1.06382 1.8043399
1.44526 1.05364 1.8044931
1.4438001 1.04333 1.80232
1.4340401 1.0747399 1.79667
1.4427299 1.0634301 1.7982612
1.4165699 1.0813301 1.785983
1.4326401 1.07552 1.788636
1.4411501 1.06436 1.7900571
1.4535099 1.05668 1.7923889
1.44575 1.04495 1.7892411
1.4190899 1.08167 1.779899
1.4359 1.07585 1.7826151
1.4437699 1.06573 1.7824771
1.4496499 1.05583 1.784866
1.45366 1.04794 1.783546
1.4179 1.0828 1.772346
1.4411999 1.07727 1.776618
1.45026 1.0560601 1.7767681
1.4477 1.04541 1.775226
1.42483 1.08346 1.7662811
1.44507 1.07688 1.770488
1.45381 1.06775 1.772036
1.45078 1.05593 1.768854
1.4550101 1.04846 1.770842
1.4386799 1.0786099 1.761708
1.45558 1.04889 1.7635721
1.4286599 1.08663 1.7529559
1.4545399 1.0814 1.758139
1.4594001 1.05067 1.7569571
1.4522099 1.0803399 1.750241
1.44584 1.08014 1.741362
1.46118 1.07242 1.746084
1.4596801 1.06019 1.742926
1.46424 1.0509 1.7425931
1.45049 1.08191 1.7347589
1.4572799 1.07048 1.736913
1.4617101 1.05922 1.7368261
1.46021 1.07217 1.7226269
1.41422 1.06348 1.9139261
1.42741 1.0537 1.915495
1.42693 1.0429 1.914521
1.43093 1.03289 1.9142529
1.43086 1.01845 1.914254
1.4109199 1.06452 1.906024
1.42818 1.05594 1.908927
1.42987 1.04408 1.909205
1.43875 1.03562 1.9087939
1.4393401 1.0238099 1.908596
1.4182401 1.0553601 1.899979
1.4319501 1.04474 1.9018341
1.4402499 1.03394 1.9030051
1.4393899 1.02197 1.9016709
1.40268 1.07286 1.891295
1.41345 1.06328 1.8926461
1.42791 1.05448 1.8948261
1.42696 1.0432 1.893903
1.4324899 1.0321801 1.894213
1.43392 1.01903 1.894035
1.4102499 1.0646701 1.8849411
1.4191099 1.0548 1.8870461
1.4316701 1.04561 1.8883969
1.43576 1.0335 1.8865781
1.4336799 1.01923 1.886835
1.41916 1.06581 1.879313
1.4233 1.0555 1.881081
1.43216 1.04488 1.880769
1.43481 1.03335 1.8792709
1.44181 1.02324 1.8810519
1.40503 1.0639701 1.8701129
1.4259 1.05584 1.8734829
1.43841 1.04526 1.8749881
1.4327099 1.03308 1.8730731
1.4407201 1.02469 1.8739749
1.39463 1.06955 1.8614269
1.4255201 1.0664001 1.867012
1.4208599 1.05478 1.865383
1.43853 1.04849 1.8684561
1.43907 1.03527 1.8681281
1.4411399 1.02239 1.866684
1.39499 1.06979 1.854491
1.4153 1.06618 1.8581259
1.4291 1.0574299 1.860045
1.43899 1.04574 1.86151
1.44112 1.0339299 1.8614861
1.4402001 1.02325 1.8594861
1.39869 1.07081 1.8485901
1.42344 1.06741 1.8525591
1.4271801 1.05744 1.8520321
1.4360601 1.0478801 1.853882
1.44164 1.0356899 1.854328
1.43909 1.02188 1.8532181
1.4022599 1.07235 1.840963
1.4246401 1.0666001 1.845567
1.43512 1.05715 1.8474001
1.4399 1.04679 1.848255
1.4420199 1.03721 1.8469161
1.44635 1.02653 1.847712
1.4019799 1.07524 1.833871
1.4165801 1.0685 1.8369461
1.4294701 1.05925 1.8393461
1.4405299 1.04852 1.8412
1.4447 1.03652 1.840217
1.4415401 1.02443 1.8384551
1.4416701 0.98976898 1.835441
1.3870701 1.07973 1.8251721
1.40868 1.07621 1.8289169
1.42116 1.06778 1.8310111
1.43819 1.05951 1.8342191
1.44396 1.04784 1.8341119
1.4461701 1.0372 1.8342581
1.4462399 1.02687 1.833421
1.4001 1.08288 1.82048
1.4135001 1.0760701 1.8228009
1.43033 1.06803 1.8261521
1.44039 1.05872 1.827971
1.44183 1.04822 1.826205
1.44392 1.03678 1.827764
1.44233 1.02414 1.8256781
1.42948 1.00726 1.8210251
1.4398199 0.98755097 1.8214691
1.39268 1.08235 1.811723
1.40716 1.0775499 1.814501
1.42355 1.07029 1.817525
1.43893 1.06038 1.8204651
1.4417399 1.04845 1.8190241
1.44347 1.0365599 1.820505
1.43177 1.00738 1.814985
1.44207 0.98890704 1.815007
1.4194299 1.07952 1.810341
1.4289 1.06971 1.811066
1.4427 1.05944 1.8138211
1.44767 1.04987 1.814272
1.44151 1.03678 1.812373
1.4361099 0.98472297 1.8065939
1.42821 1.07056 1.8035971
1.43944 1.0615001 1.806161
1.4495 1.05059 1.8079449
1.4410001 1.02266 1.804487
1.4224899 1.07867 1.7965271
1.43593 1.07042 1.7990069
1.44907 1.06142 1.8016541
1.44879 1.0508699 1.8008209
1.4480901 1.04015 1.7998528
1.44446 1.02554 1.7981851
1.4340199 1.0732499 1.7920151
1.4404401 1.06251 1.7927209
1.4513099 1.05257 1.7948709
1.4408799 1.03661 1.790589
1.4421899 1.02369 1.789232
1.43958 1.0117199 1.7870489
1.4225301 1.08087 1.7824302
1.44365 1.07379 1.7878881
1.44872 1.0633399 1.7877201
1.44871 1.05032 1.7864031
1.4390301 1.03439 1.7823081
1.4446001 1.02512 1.7834591
1.4263999 1.08269 1.775846
1.43812 1.0732 1.7790179
1.44104 1.06031 1.777773
1.4101199 1.0886799 1.765419
1.4365401 1.0833 1.772367
1.45121 1.0639701 1.773789
1.4480001 1.05239 1.7722061
1.4324299 1.08383 1.7636169
1.44127 1.07371 1.765142
1.4473399 1.04972 1.764775
1.42967 1.0842299 1.7551651
1.44469 1.07558 1.759382
1.43656 1.08365 1.7509249
1.45293 1.07547 1.753818
1.4604201 1.0656301 1.7558841
1.46 1.05428 1.754442
1.4199899 1.0924801 1.738694
1.45653 1.0762401 1.7473129
1.45781 1.06452 1.7479321
1.4599899 1.0522 1.7472501
1.44883 1.0766701 1.738183
1.46297 1.0559 1.741986
1.45512 1.07732 1.733325
1.46584 1.06875 1.7288671
1.4597099 1.06787 1.7205349
1.34601 1.0648999 1.9137812
1.3731799 1.07652 1.912358
1.3700501 1.0847 1.90433
1.37896 1.07695 1.9071921
1.41521 1.05985 1.910791
1.4261099 1.04916 1.913164
1.43564 1.0371701 1.9135449
1.44543 1.02741 1.915027
1.3819299 1.0773001 1.900607
1.42197 1.0595 1.905605
1.43321 1.04831 1.906894
1.4374499 1.03798 1.9076489
1.43765 1.02632 1.907111
1.44156 1.01561 1.9074169
1.40978 1.0682 1.896757
1.4287699 1.05911 1.899909
1.4365401 1.04888 1.900605
1.43733 1.03813 1.9015671
1.43749 1.0266 1.899372
1.3960899 1.07538 1.888014
1.40165 1.06805 1.8887249
1.4218601 1.0613201 1.8921911
1.4317501 1.0506901 1.893452
1.4401699 1.03891 1.894508
1.4354401 1.02653 1.892738
1.44224 1.01656 1.893435
1.40991 1.0691301 1.8838931
1.4279201 1.0598301 1.886508
1.43726 1.0490299 1.8878021
1.43967 1.03878 1.887833
1.4422901 1.028 1.887606
1.43484 1.01458 1.8855081
1.41922 1.06144 1.8783209
1.4338001 1.05141 1.880352
1.44107 1.03996 1.8817199
1.44558 1.0294499 1.881153
1.4272 1.0603399 1.872357
1.43828 1.0493801 1.8744351
1.44405 1.03882 1.8756061
1.44119 1.02731 1.873648
1.4090199 1.06637 1.863481
1.4275301 1.0613999 1.8654389
1.43401 1.0520201 1.8665631
1.44147 1.03951 1.867614
1.4447999 1.0265499 1.867619
1.41119 1.06679 1.8567621
1.43478 1.0617601 1.8605541
1.43916 1.0512201 1.8609421
1.4456 1.04141 1.86106
1.44687 1.02946 1.860965
1.39466 1.07487 1.8431131
1.41401 1.0679799 1.8494201
1.4360001 1.0603601 1.8541
1.4441701 1.0506099 1.855582
1.44502 1.03956 1.854272
1.44151 1.02797 1.8534671
1.40339 1.06911 1.8400199
1.4304299 1.06231 1.846702
1.44265 1.0517401 1.847977
1.4501899 1.04024 1.8486512
1.45002 1.02944 1.849494
1.4433399 1.01772 1.846173
1.39342 1.07042 1.8312
1.4361999 1.0633 1.8408951
1.44066 1.05295 1.8400241
1.44548 1.04143 1.840683
1.45022 1.02986 1.8427271
1.4453101 1.01688 1.839792
1.38432 1.07593 1.823441
1.4365699 1.0631 1.8333969
1.44435 1.05177 1.833941
1.4421099 1.04002 1.833464
1.4469399 1.02924 1.8342309
1.4003999 1.07714 1.8202831
1.41625 1.07095 1.822597
1.4405299 1.0636001 1.827263
1.4433501 1.0520999 1.826277
1.4489599 1.0405201 1.8287162
1.452 1.0305101 1.828859
1.4485699 1.01963 1.8271521
1.4012399 1.07722 1.8131931
1.4244299 1.0719399 1.817543
1.4402901 1.06345 1.8202372
1.44561 1.05283 1.8197892
1.44603 1.04108 1.820766
1.4533099 1.0306 1.8232269
1.41017 1.07803 1.807435
1.4307801 1.0720099 1.812535
1.4403701 1.06287 1.813257
1.4525101 1.05424 1.815722
1.4466901 1.04254 1.813656
1.4528 1.03089 1.8160491
1.4287 1.07225 1.8047861
1.4463201 1.06468 1.8084241
1.4469299 1.0539399 1.808135
1.45007 1.04286 1.807446
1.44742 1.0303199 1.8069921
1.4263901 1.07416 1.79693
1.44521 1.06496 1.801194
1.4491099 1.05235 1.8013879
1.44873 1.04 1.8005201
1.44836 1.0276899 1.7998221
1.44199 1.0162899 1.797686
1.4351699 1.0735099 1.791803
1.45028 1.06596 1.795705
1.4525101 1.05612 1.795679
1.45504 1.0442901 1.795374
1.4469299 1.0301 1.792171
1.4303999 0.96644205 1.783103
1.42259 1.08074 1.7821771
1.4380901 1.07347 1.785406
1.4496601 1.0653701 1.7893801
1.4533 1.0541201 1.788479
1.45205 1.0414 1.787606
1.4500101 1.0306 1.786401
1.4512 1.01992 1.7857471
1.42171 0.96473503 1.774666
1.43221 1.0746499 1.777377
1.45196 1.0652699 1.7825751
1.4561701 1.05515 1.78262
1.4560699 1.04478 1.78211
1.45375 1.03201 1.780979
1.42822 1.07663 1.769335
1.45443 1.05488 1.775358
1.4536 1.04239 1.7750469
1.4589 1.0321701 1.7750351
1.45862 1.06523 1.770067
1.46381 1.0558 1.77097
1.45701 1.04328 1.7684951
1.4585401 1.03154 1.7685031
1.44619 1.0771199 1.759596
1.4620799 1.05559 1.76399
1.4572001 1.04382 1.761618
1.46056 1.03332 1.76177
1.4428101 1.0783401 1.751775
1.46319 1.05852 1.7571491
1.46324 1.04594 1.756771
1.4665899 1.0354199 1.755982
1.45065 1.07859 1.747443
1.4588499 1.0671901 1.748858
1.46689 1.0564901 1.7518451
1.4545599 1.0782399 1.7414031
1.4599899 1.06743 1.7415531
1.4646499 1.05653 1.744386
1.4600799 1.0782599 1.736388
1.45657 1.0672699 1.73332
1.46583 1.05647 1.7370001
1.45938 1.0576301 1.727314
1.3395101 0.97115999 1.8805161
1.34298 0.97266299 1.8490241
1.3579899 1.03971 1.84417
1.35873 0.973189 1.7899631
1.3584399 0.98453104 1.7893469
1.36077 0.97494203 1.7823581
1.3602901 0.97417998 1.775187
1.36215 0.98692596 1.773829
1.3560001 0.996705 1.7723221
1.35838 0.97359395 1.768515
1.36543 0.99069297 1.76476
1.3645799 0.97848898 1.7589569
1.36013 0.99915701 1.7578281
1.36209 0.97608298 1.7522931
1.36226 0.98755896 1.75112
1.35947 1.00137 1.751062
1.3612399 0.97523099 1.745699
1.35727 0.99867302 1.743602
1.37481 1.0405201 1.7289621
1.36052 1.00078 1.727865
1.43679 0.96235603 1.891348
1.43879 0.96409798 1.8832269
1.4375701 0.96292901 1.875465
1.3830701 0.96217698 1.8675079
1.33521 0.98167801 1.87147
1.38563 0.96310699 1.8589169
1.38998 0.96289301 1.8506851
1.38913 0.96226603 1.844207
1.33821 0.97297204 1.8492459
1.3428 0.97666001 1.8413281
1.4340301 0.97393501 1.8122909
1.34961 0.98161203 1.8065702
1.3622 0.97546899 1.7991381
1.3542999 0.98619401 1.7976151
1.36418 0.97751999 1.7911
1.35515 0.98594397 1.7908651
1.35627 0.98624003 1.7838049
1.35132 0.99719 1.782957
1.35201 0.99558294 1.7766031
1.35834 0.98754901 1.770619
1.3521299 0.99707001 1.769442
1.3625 0.99054605 1.7624661
1.3588001 1.0028601 1.7527729
1.35367 1.01019 1.754127
1.3627 0.99001402 1.7471161
1.35597 0.99857497 1.746949
1.35592 1.0016301 1.7389511
1.35244 0.99940801 1.7332199
1.37248 0.97224599 1.7986951
1.35668 0.97699797 1.80028
1.3498199 0.98249704 1.80081
1.35597 0.98523104 1.793234
1.3608501 0.97826797 1.7866721
1.3572099 0.98605901 1.7864221
1.3567599 0.98571998 1.7804611
1.3633 0.98926598 1.7510861
1.41974 0.99226898 1.72637
1.38579 0.96546501 1.8759149
1.3979601 0.96947896 1.868104
1.3703599 0.96686602 1.8720651
1.4047099 0.97131205 1.860629
1.37623 0.96941203 1.86421
1.3968401 0.96982801 1.855204
1.37494 0.96986997 1.857671
1.4011799 0.97043502 1.8485651
1.39377 0.97646898 1.814037
1.3773301 0.97072196 1.799578
1.347 1.0568399 1.9076722
1.3493201 1.0505999 1.903433
1.3490801 1.05691 1.9034091
1.32101 1.02705 1.8773419
1.34277 1.02237 1.761008
1.34513 1.03336 1.7472892
1.3582699 1.05208 1.736248
1.34744 1.01378 1.735628
1.35033 1.0258 1.7267239
1.36525 1.06485 1.721895
1.45187 1.03667 1.7622931
1.40687 1.06344 1.7433749
1.4606799 1.0257599 1.782886
1.4676801 1.0233101 1.7783841
1.4655299 1.02426 1.770233
1.396 1.0683 1.7415671
1.39145 0.96034795 1.869729
1.3902299 0.96072096 1.8621171
1.4039999 0.964311 1.858283
1.3713601 0.96465403 1.85155
1.45048 1.02706 1.7876291
1.3940401 1.0767701 1.7637841
1.4328799 1.04782 1.7450531
1.4175999 0.96437401 1.826246
1.44036 1.02846 1.7984619
1.45006 1.02431 1.786922
1.45153 1.02315 1.7798071
1.3994701 1.0395501 1.903757
1.42011 1.02597 1.891302
1.43088 1.01886 1.8857061
1.43088 1.02926 1.861945
1.43433 1.02755 1.8549221
1.4409599 1.01442 1.8557211
1.44109 1.0233001 1.848683
1.44039 1.02255 1.839774
1.44252 1.0228801 1.8312551
1.4419999 1.0235801 1.8238831
1.43981 1.02423 1.8084689
1.4583501 1.0004901 1.8057261
1.44936 1.01966 1.7935901
1.44829 1.02332 1.7851241
1.4530001 1.0197899 1.78008
1.41687 1.07383 1.7563361
1.4577 1.01864 1.773208
1.35274 0.998658 1.9033611
1.37466 0.97469902 1.8864279
1.37195 0.97220701 1.8654431
1.36575 0.97949404 1.865074
1.3704201 0.97137201 1.8560361
1.3525101 1.04495 1.867835
1.35649 1.03667 1.8594201
1.3631901 1.05283 1.8660159
1.3675901 1.04477 1.8575602
1.3787601 1.06401 1.867871
1.36315 1.02712 1.841424
1.38728 0.98044801 1.826398
1.37078 0.99870002 1.825713
1.35957 1.00792 1.822953
1.3652201 1.02593 1.8317649
1.3627499 1.03707 1.835976
1.3800701 0.987773 1.817439
1.37198 0.99906802 1.815918
1.3646001 1.00888 1.8177969
1.36254 1.02163 1.8206131
1.3676 1.03758 1.828501
1.3913901 0.98054397 1.8106439
1.38228 0.99089104 1.809507
1.37026 0.99796206 1.8055099
1.36702 1.01098 1.810881
1.3924699 0.98357302 1.802967
1.3726401 0.998263 1.797847
1.3668 1.00879 1.8001209
1.3846 0.99144697 1.7933301
1.37612 1.00199 1.791319
1.3702201 1.0102401 1.7923861
1.3943601 0.98464203 1.7873651
1.38569 0.99401802 1.7844532
1.37703 1.003 1.7817
1.37511 1.01346 1.786172
1.3862801 0.99564499 1.774994
1.37981 1.0057399 1.77474
1.37679 1.01529 1.777761
1.3911 0.99752504 1.768891
1.3825999 1.0048001 1.7676721
1.37608 1.0141799 1.768047
1.39213 0.99790198 1.7604041
1.38271 1.0068699 1.760097
1.3740699 1.0121 1.756427
1.3718699 1.01089 1.7460089
1.37246 1.01196 1.738371
1.39022 0.995619 1.7323281
1.38548 1.0063701 1.7330451
1.37683 1.01468 1.731703
1.4283999 1.08 1.763103
1.40457 0.99141699 1.728932
1.39448 0.99912399 1.7262781
1.38545 1.01009 1.724167
1.4197501 1.08709 1.7569721
1.39267 1.0639499 1.7239411
1.35604 0.99266702 1.9002429
1.3607299 1.0071701 1.8970041
1.38713 0.969634 1.8930941
1.38481 0.97080004 1.882113
1.36764 0.98414803 1.876228
1.38862 0.97360098 1.875375
1.37862 0.97814202 1.872153
1.36651 0.98454905 1.8673911
1.38852 0.97437203 1.867399
1.36326 1.04145 1.861786
1.3500999 1.04392 1.8590271
1.3912899 0.97680199 1.847926
1.3722701 1.05759 1.864429
1.4008099 0.98075598 1.8439701
1.36201 1.0251499 1.8393899
1.39037 1.0608799 1.865934
1.3782001 1.0623001 1.8614819
1.36632 0.99880403 1.826142
1.36323 1.01253 1.8271341
1.36254 1.02335 1.8306022
1.3744999 0.989384 1.8177631
1.36615 0.99987704 1.81646
1.35858 1.00851 1.813936
1.36571 1.02398 1.8235279
1.37568 0.99234498 1.8107131
1.36738 1.00081 1.808367
1.3615899 1.00991 1.807088
1.35947 1.01959 1.809546
1.37774 0.99310499 1.802677
1.3681599 1.01519 1.8029269
1.3649499 1.0236599 1.8042239
1.38352 0.99410599 1.796643
1.3747799 1.0052301 1.795184
1.3667301 1.02484 1.796553
1.40961 0.95177901 1.788494
1.38146 0.99392301 1.7871741
1.3758999 1.00554 1.7852831
1.3844701 0.99581999 1.7790521
1.3791299 1.00747 1.77913
1.3724899 1.01686 1.7786161
1.37798 1.0074401 1.7702539
1.3746001 1.01956 1.7712342
1.37975 1.0057399 1.761129
1.37464 1.0179499 1.7620581
1.37707 1.03064 1.7678061
1.38437 0.99725097 1.7426209
1.3772 1.00705 1.743257
1.3924299 0.99861199 1.738276
1.37905 1.00614 1.7345401
1.37651 1.01842 1.738131
1.3702 1.02619 1.7367221
1.4218601 0.99011499 1.740419
1.37744 1.03119 1.730811
1.42995 1.0899299 1.7622521
1.4321899 0.99622899 1.7384241
1.3950701 1.00264 1.7223831
1.3791701 1.03356 1.7236081
1.4112101 1.09078 1.7498441
1.40429 1.0706401 1.7257401
1.39169 0.96966004 1.891709
1.39108 0.97165799 1.882061
1.3905001 0.972633 1.874514
1.37323 0.97536302 1.8659201
1.4430901 0.97807401 1.8959259
1.38589 0.97331703 1.864419
1.3494201 0.99249494 1.848793
1.39237 0.97853202 1.859177
1.3692501 0.97789198 1.847581
1.36177 1.0226101 1.8454071
1.4067199 0.98416603 1.848945
1.38269 0.981574 1.835616
1.3663499 1.02449 1.840618
1.39994 0.97870696 1.835694
1.3733701 0.99250901 1.8257941
1.36288 0.99948198 1.822251
1.3619701 1.01059 1.8241761
1.36646 1.02345 1.831622
1.37868 0.99215204 1.8193412
1.3662601 1.00072 1.8160269
1.36315 1.02158 1.820027
1.3878599 0.98497003 1.8128079
1.3735299 0.99284101 1.8086971
1.3722301 1.00542 1.81147
1.3657001 1.0126001 1.8085229
1.3651401 1.0224 1.8110549
1.3916401 0.985623 1.8060291
1.38043 0.99323797 1.802956
1.37041 1.00306 1.8012351
1.3683 1.01499 1.8023779
1.36821 1.02477 1.803628
1.3889301 0.98671401 1.796765
1.37676 0.99495202 1.7931561
1.36961 1.00534 1.792552
1.36426 1.0226799 1.7923959
1.3978599 0.98760396 1.792729
1.38359 0.99516296 1.787171
1.37446 1.0043499 1.7864059
1.36904 1.0147899 1.785875
1.38857 0.997069 1.781231
1.37823 1.00589 1.7792929
1.36994 1.01662 1.776842
1.37334 1.02816 1.7815621
1.38987 0.99935699 1.774357
1.3762 1.00726 1.768761
1.37151 1.01748 1.76889
1.3758099 1.02923 1.775184
1.38705 0.99932897 1.7638102
1.38713 1.01134 1.7667069
1.37679 1.01776 1.7633969
1.38054 1.0072 1.754685
1.38466 0.99797899 1.745773
1.37765 1.0074 1.744589
1.37063 1.01555 1.7424741
