# .PCD v0.7 - Point Cloud Data file format
VERSION 0.7
FIELDS x y z
SIZE 4 4 4
TYPE F F F
COUNT 1 1 1
WIDTH 1586
HEIGHT 1
VIEWPOINT 0 0 0 1 0 0 0
POINTS 1586
DATA ascii
1.4249699 0.93318498 0.67890602
1.4392301 0.949974 0.67391306
1.44259 0.90266997 0.67068505
1.4329801 0.91053301 0.67115402
1.42735 0.92171204 0.67266703
1.4290401 0.93616301 0.67046303
1.44049 0.95243102 0.66564697
1.4420799 0.904526 0.66333205
1.4335001 0.92706299 0.66427505
1.42948 0.93791902 0.66289902
1.44438 0.95540202 0.65883499
1.45258 0.96758699 0.65591204
1.4611501 0.89901495 0.65351206
1.44285 0.90189397 0.65590501
1.4305999 0.91097903 0.65791303
1.42765 0.924245 0.65826601
1.4179699 0.93227303 0.65913904
1.46017 0.97078103 0.64799398
1.4442999 0.90085703 0.64836603
1.4384599 0.91214502 0.64853895
1.42796 0.93592 0.65090299
1.4394701 0.95225096 0.646492
1.4696801 0.97693497 0.63436401
1.4465899 0.904625 0.64047807
1.42533 0.90794897 0.64480698
1.4256901 0.91963094 0.64416701
1.42759 0.93501401 0.64311099
1.4468499 0.95717204 0.63621402
1.46817 0.97712404 0.62948304
1.44179 0.90346801 0.63434905
1.43488 0.91314298 0.63606602
1.4313699 0.92531502 0.63606501
1.43194 0.93940806 0.63365901
1.45093 0.96053004 0.62848204
1.46711 0.97689104 0.62380904
1.44929 0.90480006 0.62602597
1.42828 0.90879303 0.63076502
1.43134 0.92445505 0.628259
1.4286901 0.93748593 0.62686706
1.4431 0.95526201 0.62370503
1.459 0.97250605 0.61877501
1.44464 0.90193003 0.61922503
1.4319701 0.91163397 0.62253302
1.43345 0.924761 0.62086099
1.4250901 0.93307406 0.62150103
1.4417 0.95414901 0.61617804
1.45981 0.97268099 0.61101902
1.4441701 0.90343696 0.611853
1.43358 0.91152 0.61456203
1.42909 0.92289901 0.61562103
1.43088 0.93699098 0.61274403
1.4420199 0.95452696 0.607997
1.45776 0.97196698 0.60390103
1.4419299 0.90099001 0.60545903
1.43775 0.91213 0.60678405
1.4323801 0.92397696 0.60711199
1.44779 0.95916903 0.59979802
1.44559 0.90352094 0.59686804
1.43479 0.91269499 0.60007399
1.4355099 0.927531 0.59855002
1.43241 0.93826699 0.59647799
1.4403399 0.95424795 0.59436601
1.4582601 0.972583 0.589908
1.44698 0.90496802 0.58940804
1.43414 0.91124898 0.59296203
1.43478 0.92592102 0.59112102
1.42834 0.93594599 0.59115201
1.43864 0.95186597 0.58764702
1.44633 0.90232396 0.58270299
1.43397 0.91237605 0.58551198
1.43445 0.92578596 0.58386403
1.43065 0.93741602 0.58368301
1.4584 0.97119904 0.574857
1.43304 0.92513198 0.57670099
1.4283201 0.93714106 0.57618898
1.44683 0.90428495 0.56764203
1.4489 0.90497595 0.56027001
1.43401 0.982279 0.55597001
1.41933 0.95836401 0.55408305
1.4218601 0.97435099 0.553455
1.45261 0.90513998 0.54387903
1.40584 0.94074601 0.55283701
1.42028 0.95857 0.54650199
1.418 0.97046995 0.54692101
1.45857 0.90780997 0.53416902
1.45601 0.90795797 0.52021903
1.4293801 0.92354894 0.52000701
1.4352299 0.939852 0.51503503
1.4403999 0.913324 0.509251
1.43586 0.92539299 0.50968701
1.4346499 0.93924695 0.50694501
1.45199 0.96832001 0.49925101
1.4400301 0.91573 0.50253403
1.43555 0.927324 0.501293
1.4293801 0.93730104 0.50216103
1.44978 0.96802598 0.49290502
1.43839 0.91392702 0.49505204
1.43261 0.92616302 0.49470803
1.4324001 0.93852502 0.49472103
1.43418 0.95086503 0.49151704
1.44653 0.96671301 0.48642004
1.43419 0.88642997 0.49161398
1.4399201 0.914657 0.48594803
1.4290601 0.92233902 0.48967302
1.42827 0.93632203 0.48794702
1.44936 0.96801901 0.47712502
1.4378901 0.90206999 0.48132202
1.43688 0.914545 0.47946301
1.43059 0.92383903 0.48185402
1.4300101 0.93608201 0.47939801
1.5461999 0.89941299 0.44086903
1.4369701 0.91175598 0.47316003
1.43293 0.92510802 0.47269499
1.43405 0.94001502 0.47139701
1.54274 0.89938402 0.43562302
1.44052 0.91597199 0.464533
1.4383999 0.927733 0.462181
1.4306101 0.93804705 0.46514603
1.54811 0.89959699 0.428693
1.4397399 0.928141 0.455073
1.4360001 0.93979299 0.45449802
1.4461701 0.95765901 0.44864002
1.45222 0.97008795 0.44658902
1.4364101 0.92661005 0.44980103
1.4349999 0.93816 0.44718102
1.4397701 0.95252001 0.44402602
1.4915199 0.91161299 0.42548999
1.44249 0.94357002 0.43774402
1.4592 0.97397101 0.41785103
1.47953 0.99246401 0.40250102
1.45867 0.96341401 0.40675601
1.4639101 0.97686094 0.40384799
1.4407001 0.93720299 0.392652
1.43117 0.94404501 0.79380304
1.4237801 0.95050901 0.79408908
1.46763 0.89981902 0.785317
1.4342599 0.92303002 0.78980005
1.4282401 0.93294406 0.79001898
1.43924 0.94868797 0.78735
1.4647099 0.967444 0.78238702
1.47295 0.90084398 0.77834505
1.44424 0.91235703 0.78193003
1.43424 0.92353702 0.78348207
1.43793 0.93896401 0.78199697
1.44366 0.95240402 0.78041804
1.4661099 0.968265 0.77705598
1.47526 0.90178102 0.77172697
1.4338001 0.90929604 0.77673906
1.4333299 0.92029798 0.77637899
1.43275 0.93365699 0.77584898
1.4428799 0.95036799 0.77371401
1.4628999 0.966851 0.77196401
1.47164 0.90153199 0.76565003
1.43613 0.93751407 0.76839709
1.43832 0.94934195 0.76719004
1.4564301 0.96415496 0.76572096
1.47572 0.90366203 0.75818098
1.43144 0.92377001 0.76226503
1.42898 0.93302596 0.76338303
1.43045 0.94443601 0.76225907
1.4584801 0.96589106 0.75769305
1.44743 0.90447998 0.75508904
1.4296499 0.92080098 0.75604403
1.4304401 0.93492699 0.7561
1.4355201 0.94915396 0.75468302
1.45341 0.96428001 0.75171202
1.45093 0.90665102 0.74691498
1.43724 0.92217302 0.74801499
1.42934 0.93305606 0.74841803
1.43215 0.94709098 0.74843806
1.4515899 0.96321702 0.74584901
1.4459801 0.90467298 0.741135
1.4435099 0.913118 0.74167502
1.43418 0.92249197 0.74184602
1.4274499 0.93314904 0.74131894
1.42946 0.94535005 0.74175203
1.44506 0.96002406 0.73995608
1.45012 0.905155 0.73377305
1.4450901 0.91430199 0.73409808
1.4307801 0.92262602 0.73543
1.43054 0.93450201 0.73415601
1.42515 0.94321603 0.73597699
1.43994 0.95767194 0.73304307
1.45083 0.90505099 0.72629702
1.43007 0.92400599 0.728944
1.43248 0.93544799 0.72823602
1.4268601 0.94391501 0.72899801
1.43785 0.95732599 0.72526801
1.4674801 0.90069699 0.71734297
1.4470799 0.902569 0.72059906
1.4459801 0.91274202 0.72020304
1.42838 0.92073303 0.72235399
1.42571 0.932845 0.72364503
1.4266499 0.94457102 0.72175002
1.4392999 0.958202 0.71774203
1.4705 0.90132695 0.70930296
1.44915 0.90420097 0.71367103
1.44036 0.91418195 0.71428704
1.42498 0.93210196 0.71638304
1.4316701 0.94696802 0.713808
1.4426401 0.95964998 0.71036804
1.47598 0.90238404 0.70179999
1.4362301 0.93850702 0.70711207
1.43253 0.94832903 0.70713598
1.45049 0.96259999 0.70219702
1.44655 0.912386 0.69939804
1.42976 0.92095399 0.701482
1.43375 0.93489802 0.70120603
1.43532 0.94807404 0.69956499
1.4483701 0.961613 0.69622803
1.4822301 0.90430701 0.68595606
1.4379201 0.912983 0.69379896
1.4285699 0.92230004 0.69431198
1.4301 0.93503404 0.69464904
1.4257699 0.94491303 0.69472998
1.4453101 0.96014601 0.69017702
1.4791 0.90249497 0.68039399
1.4270101 0.93278199 0.68754107
1.4275301 0.94521201 0.688182
1.44284 0.959746 0.68310302
1.47051 0.90028197 0.67575896
1.4371099 0.91317201 0.68042207
1.4255099 0.92150199 0.68238306
1.42284 0.93221498 0.68074203
1.42775 0.94573599 0.68045503
1.4425999 0.96016604 0.67674303
1.4399201 0.91297895 0.672759
1.4280299 0.92240697 0.67511201
1.4308299 0.93459296 0.67327607
1.42345 0.942895 0.67372495
1.44092 0.95885903 0.67081499
1.43172 0.92198801 0.667211
1.4242599 0.93223703 0.66875303
1.4261099 0.94393897 0.66607904
1.4344901 0.95642197 0.66421402
1.44844 0.91259003 0.65754801
1.4374499 0.92208803 0.65900803
1.42872 0.93373799 0.65993005
1.4405299 0.95941597 0.655936
1.4555701 0.904751 0.64985502
1.44426 0.91486901 0.65142304
1.4317399 0.92328203 0.65352702
1.4268401 0.93313003 0.652457
1.42628 0.944175 0.65339398
1.43646 0.95726699 0.65003604
1.4536099 0.90304601 0.64237505
1.44775 0.913719 0.64428103
1.4322 0.93507797 0.64414704
1.4263901 0.94429499 0.646532
1.4407899 0.95830595 0.64119005
1.4319299 0.92385 0.63900501
1.4194901 0.93096602 0.64099199
1.42825 0.94463098 0.63856101
1.4435 0.95988798 0.63303703
1.44912 0.91367698 0.62874299
1.4365 0.92212194 0.63139701
1.42861 0.93313599 0.63262802
1.43036 0.94632202 0.63016003
1.44484 0.96069396 0.62624604
1.43152 0.923199 0.626118
1.4260499 0.93317598 0.62567598
1.43144 0.94626802 0.62258202
1.4416901 0.95944601 0.620112
1.43067 0.92269796 0.61957902
1.4336301 0.936342 0.61631602
1.4497099 0.96254802 0.61127204
1.46849 0.91105402 0.60302305
1.43555 0.92384201 0.61069399
1.42849 0.93349403 0.61110204
1.42834 0.94406503 0.61023301
1.44274 0.95923799 0.605726
1.4628799 0.90889704 0.59728003
1.44015 0.92305201 0.60221303
1.42887 0.93314695 0.60444605
1.42581 0.944655 0.60363799
1.4464301 0.96124297 0.59687501
1.4316001 0.92387301 0.59706599
1.4295399 0.93627 0.59661204
1.4388001 0.95901 0.592224
1.43953 0.92378306 0.58783704
1.4250799 0.93147004 0.59145701
1.4304601 0.94474798 0.58865201
1.43341 0.92246199 0.582798
1.43519 0.93458003 0.58164102
1.43107 0.935709 0.57452899
1.43364 0.95035797 0.57245505
1.4264599 0.97013199 0.55281305
1.40602 0.94887602 0.55180001
1.43198 0.92323995 0.518911
1.43071 0.93499202 0.51745301
1.42851 0.94610196 0.51633704
1.43162 0.92302901 0.51131999
1.43358 0.93749398 0.50904602
1.4214 0.94388604 0.511783
1.44021 0.91188794 0.50202298
1.4311999 0.92004097 0.50395
1.4328599 0.93393207 0.50237298
1.43181 0.94685096 0.50138104
1.4271001 0.95425397 0.50229704
1.43634 0.91100305 0.49609303
1.4301 0.92304498 0.496851
1.4357699 0.93790495 0.493734
1.43259 0.94769698 0.49316102
1.4326601 0.95625901 0.49357602
1.4391299 0.88843 0.49046302
1.44039 0.912323 0.48743302
1.4321001 0.92150497 0.48860401
1.42953 0.933258 0.48942602
1.43116 0.94545001 0.48709401
1.43125 0.955504 0.48600301
1.4355 0.91013002 0.48231101
1.43435 0.92283899 0.47979203
1.42899 0.93404198 0.48191202
1.43027 0.946989 0.47983903
1.43481 0.95739305 0.47731799
1.5297 0.89150596 0.444664
1.4361 0.91217101 0.47471002
1.4413201 0.92518306 0.47015002
1.42834 0.93219298 0.47504199
1.42933 0.94426 0.47333801
1.4321201 0.95555198 0.47071102
1.4335699 0.93483001 0.46631703
1.42907 0.94510901 0.465765
1.43435 0.95624602 0.46153504
1.5573699 0.89915198 0.42356202
1.43627 0.93648005 0.45804
1.43707 0.94823802 0.45533702
1.43625 0.95704901 0.45314702
1.44084 0.93811601 0.44903603
1.43591 0.94836599 0.448091
1.4394701 0.95895201 0.44464999
1.43791 0.93752503 0.44194499
1.43545 0.94917196 0.44059902
1.44322 0.960464 0.43659303
1.43576 0.94675398 0.43373302
1.4367999 0.95737505 0.43174502
1.4394901 0.94955003 0.42498401
1.43751 0.95738798 0.42311203
1.4401 0.94859803 0.41707203
1.43924 0.95830899 0.41449401
1.4449201 0.95155996 0.40637204
1.44121 0.95934099 0.40677002
1.44566 0.94129896 0.40025502
1.4384301 0.94931799 0.40176103
1.4531399 0.97786403 0.83612704
1.44942 0.96736902 0.82582998
1.4270301 0.94775599 0.79080302
1.4381 0.91009694 0.78699404
1.43144 0.91763496 0.78623605
1.42713 0.92808801 0.78703499
1.42873 0.94052696 0.78652
1.4474499 0.95518798 0.782296
1.46759 0.97014505 0.77835202
1.4352299 0.91067594 0.77991104
1.4327099 0.919797 0.77999902
1.42653 0.92869401 0.78076905
1.43199 0.94178903 0.77938598
1.4529099 0.95899004 0.77587998
1.4742999 0.97251898 0.77265197
1.4314301 0.91801804 0.77332902
1.42844 0.92894 0.77456605
1.4283099 0.94043899 0.77243805
1.45043 0.95694703 0.76983505
1.47136 0.97154802 0.76753998
1.4340199 0.90996903 0.76734602
1.4271899 0.91739303 0.76662004
1.42854 0.92916703 0.76735198
1.42349 0.93918699 0.76718104
1.43993 0.95319802 0.76447999
1.4578799 0.96745795 0.761944
1.43027 0.90976304 0.76058501
1.42627 0.91750902 0.76048303
1.4236799 0.92669195 0.76154405
1.42725 0.94030297 0.76031303
1.45182 0.95826894 0.75627303
1.4606 0.96897399 0.75456899
1.43016 0.91707903 0.75440508
1.42322 0.92684501 0.75457001
1.43092 0.94174302 0.75242907
1.44099 0.95440805 0.75160903
1.4568499 0.96752501 0.74847502
1.4405099 0.91077006 0.74618399
1.42642 0.91611803 0.74830401
1.42504 0.92651701 0.74706405
1.4212101 0.937406 0.74777406
1.4379401 0.95352501 0.74483705
1.45832 0.96769899 0.74132001
1.43823 0.91094804 0.74051201
1.4238901 0.91713899 0.74117005
1.41896 0.928155 0.74187106
1.4293 0.94188797 0.74050707
1.4337801 0.95279199 0.73833406
1.4541401 0.96681297 0.73502403
1.4246899 0.91652495 0.73493004
1.42257 0.92634499 0.734433
1.4216299 0.93967903 0.73487997
1.44142 0.95580298 0.73074204
1.45569 0.96767503 0.72808301
1.43785 0.90929395 0.72562003
1.42337 0.92607003 0.72764605
1.42005 0.93651396 0.72820401
1.4324001 0.951253 0.72583503
1.44987 0.96534598 0.72211701
1.4395599 0.908081 0.71923798
1.4228901 0.92881304 0.72159499
1.42079 0.93948501 0.72220904
1.43279 0.95249498 0.71889204
1.45099 0.96600896 0.71429604
1.4409399 0.90826398 0.71362108
1.4354401 0.91649199 0.71335703
1.42247 0.92640704 0.71460098
1.42252 0.93960798 0.71542901
1.43573 0.95417398 0.71109903
1.45297 0.96695298 0.70790601
1.4376301 0.90991205 0.70726204
1.4157201 0.92547995 0.70949697
1.42119 0.93848097 0.70794797
1.43467 0.95364797 0.70437002
1.45102 0.96627802 0.70215303
1.43487 0.91091299 0.69980603
1.42084 0.92675596 0.70284599
1.4211501 0.93724197 0.70101202
1.4290601 0.95034105 0.699157
1.4456 0.96406198 0.69580597
1.43844 0.91033304 0.691845
1.4289999 0.91723502 0.69412202
1.4248599 0.94010496 0.693497
1.4308701 0.95284599 0.69267499
1.4444901 0.96459901 0.688595
1.4455701 0.91021597 0.68432599
1.4346499 0.91642898 0.68623197
1.42527 0.92682099 0.68809301
1.4199699 0.93815905 0.68707603
1.43032 0.95250201 0.68575501
1.4429899 0.96417296 0.68249804
1.4413699 0.90776902 0.67846406
1.42063 0.92727095 0.68220502
1.4201801 0.93700403 0.68065298
1.4232401 0.94893503 0.67996299
1.4401 0.96311796 0.67647004
1.43967 0.90803999 0.67201102
1.42714 0.91613799 0.67449206
1.42278 0.92645204 0.67513198
1.4262601 0.940458 0.67276901
1.4300799 0.952824 0.67203003
1.4419999 0.96405798 0.66912299
1.45279 0.89965403 0.66359103
1.43984 0.90837502 0.66498506
1.4307899 0.91717303 0.66783303
1.4261501 0.92882597 0.66683799
1.4250799 0.94035894 0.66632795
1.4274499 0.9508 0.66637403
1.43612 0.96168405 0.66361403
1.4161301 0.92629302 0.66227603
1.4228101 0.93801999 0.66114599
1.42713 0.95001197 0.65960604
1.43799 0.96233904 0.65543699
1.4417701 0.90800101 0.65064299
1.41711 0.924806 0.65656096
1.4191201 0.93730795 0.65541703
1.4335201 0.95289099 0.65039605
1.4449699 0.96453905 0.64742106
1.44621 0.90761101 0.64326704
1.42629 0.92837304 0.64776003
1.42415 0.94033599 0.64754701
1.42984 0.95108104 0.64448404
1.4420199 0.96302104 0.64126098
1.44742 0.90598196 0.63633299
1.4225399 0.92642099 0.64134598
1.42548 0.93948501 0.64093
1.43127 0.951617 0.63765401
1.4495399 0.965873 0.63175702
1.44407 0.90788001 0.62977999
1.43268 0.91752601 0.63165301
1.42178 0.92526603 0.63494503
1.42436 0.93846297 0.63389301
1.43901 0.95499098 0.62821603
1.4521 0.96845299 0.62395
1.44407 0.89730698 0.62420601
1.4513099 0.90908402 0.62166101
1.43495 0.91598201 0.62503904
1.42237 0.926476 0.62754303
1.43408 0.94240701 0.62443
1.43258 0.95265698 0.622881
1.4515401 0.968611 0.61765903
1.4778 0.98374295 0.61146402
1.43838 0.90616202 0.618132
1.42995 0.917072 0.61999106
1.4226899 0.92617995 0.62020606
1.42433 0.93914002 0.61926699
1.4423801 0.95732301 0.61381304
1.45656 0.97155899 0.609658
1.4663 0.98138499 0.608069
1.4485699 0.908786 0.60744703
1.4260499 0.91649401 0.61401701
1.4255201 0.92823499 0.61364102
1.4232299 0.93771303 0.61247802
1.4291701 0.95113897 0.610021
1.45158 0.96899301 0.60434002
1.4636501 0.98100305 0.60176504
1.4510499 0.90954101 0.60004103
1.4347399 0.917184 0.604496
1.4207001 0.92622 0.60860997
1.41983 0.93733704 0.606821
1.43279 0.95156199 0.60202801
1.4427099 0.965316 0.59942001
1.4668 0.98155099 0.59312499
1.4508799 0.90657401 0.59407902
1.44012 0.91632301 0.59616399
1.4259399 0.926624 0.59972703
1.4261099 0.93979895 0.59831804
1.43415 0.95390803 0.59490901
1.45044 0.96966398 0.590478
1.46819 0.98275703 0.58541602
1.43685 0.89426696 0.59160304
1.45242 0.909127 0.58659804
1.4311399 0.91768402 0.590958
1.4291201 0.930417 0.591429
1.4320599 0.94254202 0.59032804
1.4289 0.95155603 0.58943605
1.46675 0.982108 0.57867402
1.4461999 0.909989 0.581025
1.4305701 0.91747499 0.58406103
1.42564 0.92760301 0.58515704
1.4256101 0.94043702 0.58509803
1.4676601 0.98339498 0.571446
1.4324899 0.91578001 0.57794005
1.4291999 0.926346 0.57759303
1.45002 0.90805399 0.56530702
1.3999801 0.94431299 0.55735999
1.42531 0.972471 0.54868299
1.40288 0.94504303 0.55013704
1.42716 0.95262003 0.519876
1.4405 0.91803199 0.510647
1.42918 0.92793798 0.51494199
1.42697 0.93927902 0.51312399
1.4243 0.949745 0.51446903
1.43884 0.91724801 0.50434405
1.4301 0.92834002 0.50655603
1.43269 0.94086099 0.50494599
1.42905 0.917732 0.500534
1.42909 0.92926806 0.499457
1.42957 0.94064498 0.49951303
1.4284199 0.951518 0.49883601
1.45095 0.97699302 0.48828903
1.4375399 0.88611901 0.49228302
1.4335899 0.91567701 0.49191001
1.4236901 0.92621201 0.494681
1.4216499 0.93690699 0.49539003
1.42927 0.950894 0.49181801
1.45767 0.97967601 0.47875503
1.43055 0.90477896 0.48757303
1.43467 0.91593301 0.48421901
1.4267 0.92519999 0.48664001
1.4218299 0.93703103 0.48792899
1.42985 0.95280099 0.48306602
1.44373 0.96801698 0.47766003
1.45752 0.97982401 0.47225901
1.43312 0.90580595 0.47938201
1.4338499 0.91864699 0.47780702
1.4210299 0.92723298 0.48194703
1.43336 0.941746 0.47576401
1.42945 0.95161498 0.47637501
1.4374001 0.96386701 0.472864
1.4531 0.97796094 0.46664101
1.43721 0.917656 0.46957999
1.43476 0.93035203 0.46975803
1.42591 0.939381 0.47165403
1.43299 0.95223898 0.46849602
1.44196 0.96680397 0.46350002
1.4581399 0.97954297 0.45771503
1.43854 0.92904097 0.46060002
1.43422 0.94141996 0.46194801
1.43822 0.95567495 0.45872101
1.4425 0.96728301 0.45571405
1.4522099 0.97802103 0.45284301
1.4403501 0.93063903 0.45218003
1.43414 0.93941903 0.45472899
1.43252 0.95079905 0.45395702
1.4377201 0.96411496 0.450872
1.4490199 0.97670698 0.44602203
1.4341099 0.94049799 0.44674301
1.43422 0.95402604 0.44578004
1.43839 0.966254 0.44378802
1.4598 0.98143697 0.43347302
1.4837101 0.99784499 0.42211202
1.4279699 0.93929702 0.441926
1.4282299 0.94963402 0.44094002
1.4366701 0.96486002 0.43694001
1.4825101 0.99823302 0.418044
1.4365 0.94096702 0.432383
1.43424 0.95206398 0.43137205
1.44198 0.96523803 0.42705601
1.48491 0.99939299 0.41283703
1.43919 0.95318902 0.42166901
1.4390199 0.96209002 0.41983101
1.4373699 0.952914 0.414691
1.4425399 0.96345598 0.41061202
1.4397 0.95426595 0.405909
1.44199 0.96469802 0.40318099
1.4380299 0.93107396 0.40138105
1.4317999 0.94041705 0.40424001
1.42958 0.95003897 0.40264702
1.43578 0.96248597 0.39917001
1.4461099 0.97433096 0.39333302
1.4316601 0.93925595 0.39666802
1.4348599 0.952429 0.393558
1.55011 0.90677905 0.83819997
1.5448899 0.89580899 0.83809799
1.53801 0.88717794 0.837695
1.53694 0.87936801 0.83719707
1.55351 0.91594398 0.83338201
1.55032 0.906353 0.83166504
1.54804 0.89627504 0.83235002
1.5367 0.88727301 0.83111197
1.5239999 0.88079906 0.82857299
1.53903 0.92797202 0.82345998
1.54948 0.90692401 0.82536805
1.55 0.89712602 0.82691401
1.54361 0.88799101 0.825845
1.5213799 0.88136297 0.82168001
1.52268 0.93831301 0.81349105
1.5387501 0.92901903 0.81788999
1.54433 0.90798104 0.81847501
1.54725 0.89670599 0.82013601
1.53567 0.88681102 0.81766701
1.51731 0.88131106 0.81476402
1.5400599 0.92729402 0.81210405
1.55224 0.90512604 0.81421798
1.5447 0.89464796 0.813191
1.5355 0.88647497 0.81124407
1.52492 0.88043702 0.81039399
1.5423801 0.90724504 0.80634397
1.55204 0.89670402 0.80862099
1.53967 0.88798696 0.80636507
1.53143 0.88065201 0.80479002
1.54574 0.90670896 0.80109197
1.5500599 0.89508903 0.80289805
1.5402 0.887043 0.80043197
1.52653 0.88088799 0.79667801
1.54532 0.90603101 0.79435807
1.55014 0.89517897 0.79701203
1.5365199 0.88736701 0.79327202
1.52785 0.88059503 0.79048002
1.5403199 0.92637706 0.78575206
1.5485899 0.90707803 0.78967202
1.5452299 0.89676005 0.78935105
1.53705 0.88727999 0.78696603
1.5245301 0.880943 0.783472
1.5202699 0.93809503 0.77536696
1.54757 0.90664297 0.78360802
1.54416 0.89605105 0.78252602
1.5340199 0.887312 0.78007102
1.5242701 0.88095301 0.777098
1.54377 0.90673202 0.77556401
1.54119 0.895374 0.77591902
1.53397 0.88699305 0.77378201
1.5211 0.88061303 0.77026397
1.54758 0.90569198 0.77024198
1.54224 0.89592695 0.76931798
1.53183 0.88632798 0.76709998
1.51903 0.88045305 0.764431
1.54653 0.90542799 0.764229
1.55 0.89530504 0.76503909
1.53539 0.88763702 0.76141
1.52097 0.88077301 0.75937903
1.5440401 0.90706497 0.757061
1.5458701 0.89592397 0.75846899
1.53898 0.88734001 0.75532305
1.5217199 0.88146895 0.75288606
1.5427099 0.908068 0.75055504
1.54368 0.89686304 0.75112802
1.54064 0.88686597 0.74952298
1.52257 0.880979 0.74592203
1.5450101 0.90670097 0.744533
1.5423501 0.89499998 0.744075
1.53223 0.88643503 0.74180299
1.5238 0.88020301 0.74002802
1.5463201 0.91658998 0.73850703
1.54254 0.90712404 0.73749602
1.54651 0.897259 0.73883903
1.5351601 0.88802695 0.73624504
1.52745 0.88021898 0.734451
1.5464901 0.90653801 0.73219103
1.54571 0.89521199 0.73282403
1.53373 0.88696504 0.72914904
1.52143 0.88075995 0.72643006
1.53816 0.90804201 0.72311401
1.5404401 0.89625502 0.72447008
1.53602 0.886774 0.723607
1.52589 0.88035101 0.72121
1.5478301 0.90559995 0.72021604
1.5458701 0.896667 0.71914703
1.5338901 0.88768601 0.71656305
1.52166 0.88094801 0.71371901
1.54338 0.90715897 0.71273202
1.53736 0.89686203 0.71079499
1.5368201 0.887227 0.71036696
1.51933 0.88104105 0.70647705
1.54242 0.90568 0.70633203
1.5379699 0.89606798 0.70418501
1.5266099 0.887124 0.70170504
1.5134801 0.88121003 0.69850403
1.54339 0.90740997 0.69990206
1.5382299 0.89779997 0.69750702
1.5327801 0.88809401 0.69683194
1.51276 0.88150597 0.69174904
1.54203 0.90658402 0.69258004
1.53864 0.89607698 0.69141799
1.52491 0.88738602 0.68834704
1.51188 0.88134694 0.68495005
1.53723 0.92672801 0.683846
1.5483999 0.90451401 0.68859899
1.54985 0.895944 0.68824202
1.53326 0.888107 0.68411607
1.51487 0.88154703 0.67918801
1.5471699 0.90560097 0.68228805
1.5387 0.89613402 0.67884707
1.52934 0.88723898 0.67713702
1.5142399 0.88178003 0.67169303
1.5427201 0.90676999 0.67426801
1.54127 0.896761 0.67283303
1.5338401 0.887137 0.67161298
1.5057001 0.88214993 0.66236001
1.5428101 0.90667897 0.66685599
1.53643 0.89541602 0.66533107
1.52442 0.88691598 0.66202402
1.5092 0.88137102 0.65742201
1.54931 0.905913 0.66241598
1.5435899 0.89719903 0.66092801
1.53308 0.88781404 0.65821505
1.50928 0.88207197 0.65100402
1.53508 0.92795801 0.64983296
1.54522 0.90621102 0.65464205
1.5396401 0.89509201 0.65355802
1.5273 0.88717902 0.65035105
1.50994 0.88215798 0.64379501
1.53354 0.92842793 0.64385408
1.54414 0.89624494 0.648902
1.52913 0.88795197 0.64426696
1.51003 0.88225996 0.63674402
1.5397 0.92567706 0.63939601
1.54198 0.89620596 0.64199203
1.52449 0.88821298 0.63553804
1.50377 0.88232005 0.62797999
1.5393699 0.92434096 0.63151705
1.54108 0.90749395 0.633057
1.5375301 0.896855 0.633241
1.52316 0.88776803 0.62794602
1.50552 0.88200897 0.62252802
1.5364101 0.92451501 0.62326002
1.53891 0.90496999 0.62642902
1.53282 0.89554 0.62525403
1.52643 0.88791001 0.62245005
1.50711 0.88227099 0.61644399
1.5446601 0.906147 0.621566
1.53256 0.89610398 0.61847401
1.53003 0.88681 0.61796904
1.50534 0.88255697 0.60854304
1.54319 0.908472 0.61426502
1.54414 0.89741403 0.61508703
1.52729 0.88804001 0.61015201
1.5090401 0.88199306 0.60279202
1.5409501 0.92565 0.60562301
1.54494 0.90587199 0.608316
1.53553 0.895787 0.60522002
1.52644 0.887003 0.60317403
1.50896 0.88198197 0.59594601
1.5425301 0.904567 0.60093802
1.53763 0.89596498 0.59958702
1.52994 0.88780099 0.59749901
1.5056599 0.88258696 0.58774102
1.53868 0.92721099 0.59059405
1.54431 0.90660203 0.59552306
1.5379699 0.89655602 0.59354001
1.52553 0.88758397 0.58883703
1.50148 0.88256502 0.579427
1.5385699 0.90652299 0.58645803
1.5307801 0.89545196 0.58390599
1.5209301 0.887218 0.58085102
1.5053 0.88232303 0.57401204
1.54059 0.92707902 0.57895899
1.5438901 0.90745902 0.58134699
1.53668 0.89762998 0.57905799
1.52553 0.88783699 0.57564104
1.4996201 0.88222098 0.56523001
1.54427 0.90630895 0.57427001
1.5298899 0.89610803 0.56985402
1.5232899 0.88667899 0.568322
1.48905 0.88023597 0.55507398
1.54907 0.905743 0.56936002
1.54168 0.89719301 0.56726301
1.52929 0.88776898 0.56370902
1.48401 0.87924302 0.54602003
1.54513 0.90619695 0.56116998
1.5396401 0.89558703 0.56044501
1.5181199 0.88764501 0.55209702
1.4819299 0.88039804 0.53793103
1.54313 0.90701795 0.55295801
1.53967 0.89614505 0.55308902
1.51385 0.88744903 0.54320103
1.54462 0.90470904 0.54672599
1.52994 0.894813 0.54207301
1.5011901 0.88708502 0.53108001
1.5469099 0.90493894 0.54046202
1.5387501 0.89563698 0.53826499
1.5131 0.88765603 0.52877599
1.50755 0.95114797 0.51579803
1.5517501 0.90669 0.53626001
1.5426401 0.89722002 0.53280503
1.52013 0.88805801 0.52392203
1.54531 0.90589601 0.52696204
1.5372701 0.89552498 0.52334702
1.52595 0.88591695 0.51915902
1.5442101 0.904728 0.51987302
1.5412601 0.89610702 0.51808405
1.5315 0.88677496 0.514678
1.54624 0.92659104 0.51213902
1.54553 0.90507501 0.513089
1.54153 0.89456099 0.51223701
1.53456 0.88612998 0.50866902
1.5536599 0.92455399 0.50755203
1.55273 0.90375501 0.50869906
1.5431 0.894382 0.50590301
1.5355099 0.88607806 0.502675
1.55261 0.90574896 0.50269002
1.55128 0.895787 0.50220305
1.5398599 0.88621497 0.49759403
1.5334101 0.87894094 0.49526501
1.5546401 0.92420197 0.49491501
1.55019 0.91550303 0.49235603
1.55351 0.90512002 0.49639201
1.5474401 0.89506799 0.493375
1.53698 0.87838304 0.48958603
1.5493 0.93305606 0.48486602
1.5520799 0.91532207 0.48682103
1.55268 0.90497297 0.48844001
1.54634 0.89407504 0.48520201
1.5375199 0.884857 0.482373
1.5493699 0.87640196 0.48841703
1.5511099 0.93282998 0.47898102
1.55204 0.91497594 0.47997704
1.5470901 0.90433401 0.47899804
1.54537 0.89543998 0.47758302
1.54268 0.886051 0.47713602
1.5433999 0.87774599 0.47932601
1.55504 0.93175203 0.47290099
1.5542901 0.92321402 0.47312105
1.55472 0.91406196 0.47418904
1.5485201 0.90482301 0.47212601
1.54045 0.89505696 0.46935502
1.5420599 0.87944901 0.47156101
1.5532899 0.91411799 0.46683502
1.5481 0.90497804 0.46483403
1.54565 0.89565903 0.46482602
1.5305001 0.888686 0.45894802
1.55407 0.93210101 0.45786202
1.55825 0.92350799 0.46020001
1.5556799 0.91535002 0.46095902
1.55202 0.90491402 0.45950204
1.55054 0.89504206 0.46024305
1.55958 0.92374903 0.45379201
1.55925 0.91427904 0.45587599
1.5509599 0.90580004 0.45098701
1.55985 0.91373497 0.44889602
1.55285 0.90390605 0.44467404
1.55487 0.93266195 0.43573502
1.5582401 0.91328597 0.44039902
1.55267 0.90432602 0.43788901
1.55142 0.89517403 0.43781102
1.5576601 0.93331301 0.43064702
1.5621899 0.91494906 0.43509102
1.55542 0.90393603 0.43276301
1.54565 0.894108 0.428974
1.54705 0.87731397 0.43022904
1.55075 0.94090796 0.42192703
1.5596001 0.93233705 0.42709202
1.56353 0.91204298 0.43058002
1.55718 0.903202 0.42811802
1.5522599 0.89348704 0.42663601
1.5454401 0.87702906 0.42429703
1.55153 0.90822798 0.83854902
1.54124 0.89996004 0.837098
1.54845 0.88865095 0.83933699
1.54325 0.88123 0.83768797
1.55354 0.916448 0.83245003
1.5503501 0.907942 0.83217502
1.5515199 0.89732397 0.83300102
1.5445 0.88799101 0.83245605
1.5415699 0.88099295 0.831016
1.5196099 0.93483597 0.81835401
1.54875 0.90888602 0.82575399
1.54379 0.89931101 0.82524103
1.54539 0.888695 0.82585603
1.5413901 0.88124198 0.82524508
1.5160099 0.93542999 0.81146806
1.5397301 0.92100996 0.81739897
1.55084 0.908436 0.82001406
1.5511301 0.89808601 0.82073599
1.54644 0.888888 0.81928802
1.5435699 0.880997 0.81939906
1.51451 0.93598002 0.80637497
1.53759 0.921664 0.81045306
1.5498101 0.90789801 0.81388402
1.54682 0.89714998 0.81385607
1.5424 0.88850802 0.81235999
1.5382299 0.88178301 0.81211901
1.54528 0.89760596 0.80701101
1.5454299 0.88773805 0.80715698
1.53526 0.88234299 0.80533201
1.54128 0.91033095 0.79881597
1.54451 0.89992404 0.79961401
1.53968 0.88943803 0.799963
1.53131 0.88321298 0.79830396
1.5490199 0.90832901 0.79488599
1.54919 0.89952302 0.79413801
1.54022 0.89118797 0.79307097
1.53811 0.88239306 0.79311103
1.54989 0.90926397 0.788257
1.54563 0.89880997 0.78752106
1.5444 0.88864499 0.78769404
1.5342 0.882752 0.78514802
1.54778 0.908041 0.78173602
1.5458599 0.89756304 0.78096902
1.5400901 0.88840204 0.780765
1.5330701 0.88259202 0.77850699
1.52179 0.93384397 0.76841003
1.54522 0.90994 0.77430296
1.5432601 0.89949799 0.77372199
1.54304 0.88877404 0.77460098
1.53102 0.88323599 0.77219409
1.5455 0.91903996 0.76716399
1.5487199 0.90725404 0.76873803
1.54775 0.89703101 0.76942503
1.5474 0.88843805 0.76882905
1.53019 0.88363504 0.76559097
1.54554 0.910662 0.76135004
1.54715 0.898175 0.762748
1.53739 0.88949698 0.76016802
1.53299 0.88268501 0.75987703
1.5488499 0.90715498 0.75580806
1.5416701 0.89706999 0.75476104
1.54004 0.88842303 0.754879
1.53365 0.88247001 0.75374299
1.54664 0.91095901 0.74856299
1.54725 0.89850801 0.74907303
1.5370899 0.88929099 0.74810404
1.5263499 0.88354498 0.74547899
1.54849 0.90903199 0.74259806
1.54375 0.89920402 0.74107003
1.5443801 0.88891 0.74330103
1.53064 0.88191903 0.73962802
1.5498599 0.91778898 0.73693198
1.5480499 0.90884596 0.73619401
1.5404201 0.90055394 0.73400801
1.5400101 0.88928199 0.73508203
1.5293 0.88074094 0.733235
1.5066701 0.87791097 0.72869498
1.5476899 0.91887099 0.73004305
1.5429201 0.909917 0.72846705
1.5433999 0.89848602 0.72902405
1.54664 0.88792098 0.73003501
1.54166 0.88020796 0.72964501
1.50577 0.87727898 0.72413999
1.5426401 0.92004603 0.72123998
1.5456101 0.90732598 0.72265798
1.5464101 0.89591199 0.72366202
1.5377001 0.88846296 0.72193098
1.53657 0.88139397 0.72206903
1.54364 0.91987503 0.71531701
1.5437199 0.91043097 0.715105
1.54761 0.89753306 0.71750098
1.5467399 0.88784105 0.71862108
1.5357801 0.882191 0.71547204
1.5489999 0.909123 0.71004701
1.54381 0.89959699 0.70926499
1.54664 0.88813502 0.71237403
1.52905 0.88379997 0.70641208
1.5436599 0.90894502 0.70236295
1.5369501 0.90020102 0.70035708
1.5357499 0.89036697 0.70248604
1.5333501 0.882918 0.70065904
1.5404201 0.90923899 0.69470602
1.5466499 0.89801496 0.69736701
1.5339199 0.89125395 0.69484299
1.52837 0.88395697 0.69238603
1.54216 0.90980798 0.68904501
1.5424 0.89929301 0.69018906
1.5333 0.89021701 0.68771398
1.52864 0.88297701 0.685987
1.5437 0.90976602 0.68294996
1.53923 0.89802098 0.68241203
1.5303301 0.889741 0.68027705
1.51972 0.88465601 0.67751294
1.5503399 0.90867597 0.67820603
1.5436301 0.90040398 0.67686599
1.53614 0.89105201 0.67531502
1.5259199 0.88428801 0.67270905
1.54605 0.91006106 0.67062902
1.54434 0.89895403 0.67054999
1.53348 0.89084297 0.667781
1.52634 0.88422304 0.66526395
1.54716 0.90843004 0.66436797
1.53574 0.90000606 0.66116899
1.5315601 0.89039004 0.66035402
1.5278701 0.88303804 0.65908504
1.5442799 0.90868795 0.65676606
1.5364599 0.89914596 0.65435702
1.5277699 0.89036399 0.65267104
1.51937 0.88462096 0.65051198
1.54548 0.898592 0.65025902
1.53299 0.89107001 0.64749002
1.5242701 0.88396502 0.64555299
1.546 0.89635003 0.64445996
1.53064 0.88976997 0.64043897
1.52853 0.882779 0.64018708
1.5384101 0.89994901 0.63488501
1.54268 0.888529 0.638197
1.52869 0.883367 0.63361299
1.54213 0.90900099 0.62870699
1.5388401 0.89870399 0.62836903
1.5382299 0.88957101 0.63017601
1.52466 0.88458902 0.62461299
1.54614 0.90870905 0.62243003
1.5433201 0.89943606 0.62380302
1.53588 0.89035898 0.62201804
1.5266401 0.88357002 0.61809701
1.5411301 0.89952302 0.616319
1.53054 0.89036399 0.61255097
1.52299 0.884018 0.61066699
1.54685 0.90815598 0.61131001
1.5399499 0.89838898 0.60852206
1.53082 0.89045304 0.60621804
1.52653 0.88386595 0.60525501
1.54513 0.90884697 0.60384798
1.54425 0.899014 0.60282004
1.5303301 0.89134103 0.59947103
1.52403 0.88433194 0.59690601
1.53606 0.89889097 0.59333402
1.5335001 0.88916498 0.59419101
1.5187 0.88510102 0.588076
1.5433 0.90809602 0.58798403
1.53505 0.89887702 0.586043
1.5359199 0.88915396 0.588431
1.51932 0.88541102 0.581258
1.5459 0.90696001 0.58208203
1.5412899 0.89898902 0.58223301
1.53387 0.89022201 0.58035105
1.51498 0.88560206 0.57268304
1.5471699 0.90803498 0.57598102
1.54254 0.89747101 0.575984
1.53107 0.88925201 0.57217199
1.51826 0.88447899 0.56760305
1.5435801 0.91103303 0.56758904
1.54439 0.89880401 0.56868804
1.54059 0.88902998 0.56929606
1.5203799 0.88498998 0.56165498
1.5456599 0.90753901 0.561333
1.53931 0.89882696 0.56024903
1.53789 0.88969594 0.56109703
1.5187199 0.88526297 0.553132
1.5469 0.90696096 0.55475301
1.5422301 0.897273 0.55515003
1.5364799 0.88845903 0.55379504
1.5147001 0.88551801 0.54419798
1.54339 0.90965599 0.54652101
1.5486599 0.89767194 0.55074704
1.5363201 0.889525 0.546597
1.5075001 0.88551497 0.53401399
1.51196 0.94768304 0.52416998
1.5444701 0.89793402 0.54253
1.52953 0.89023101 0.53625399
1.50632 0.88448197 0.52705103
1.5441 0.91021597 0.53291303
1.5466599 0.89762706 0.53572005
1.52782 0.88927197 0.52797598
1.5486901 0.90663904 0.52905005
1.54563 0.89701498 0.527861
1.5316901 0.88939399 0.52157301
1.50754 0.95218301 0.50053704
1.5469501 0.90760595 0.52157801
1.54247 0.89794999 0.519346
1.5339501 0.88959002 0.515782
1.54567 0.90817803 0.51369005
1.54036 0.89755601 0.51108903
1.53417 0.88758397 0.510167
1.54862 0.90790904 0.50703502
1.55156 0.89545304 0.507833
1.53144 0.87845004 0.50268
1.49481 0.85307002 0.49174401
1.55308 0.90500802 0.50165904
1.55434 0.89503098 0.50278503
1.5487399 0.88656306 0.50107503
1.53894 0.87744105 0.49920303
1.5505099 0.90765196 0.49377403
1.54822 0.89715695 0.49365601
1.54241 0.87797093 0.492704
1.52529 0.870426 0.48564002
1.55322 0.924191 0.48444203
1.55084 0.91742897 0.48551503
1.5506799 0.90666199 0.48621804
1.5454601 0.89522099 0.485255
1.5383501 0.87665701 0.48428902
1.5195301 0.87019998 0.47726402
1.5519999 0.91601503 0.47869503
1.5545399 0.90489501 0.48022401
1.5476401 0.89621401 0.47868502
1.54022 0.88644201 0.47734502
1.5377499 0.87687796 0.47768801
1.55214 0.91678101 0.47099504
1.5492301 0.90721703 0.47118104
1.5536901 0.89613998 0.47452399
1.54616 0.88750297 0.47149903
1.54623 0.91894698 0.46050203
1.54959 0.90830302 0.46437302
1.5439301 0.89776903 0.46260402
1.5410899 0.88059896 0.462951
1.56015 0.91521698 0.46001104
1.55074 0.90705103 0.45718402
1.55312 0.89555001 0.459636
1.5403399 0.93779999 0.44149101
1.5526199 0.91709602 0.44924104
1.55057 0.90691 0.44984803
1.5470901 0.89725095 0.44993702
1.56037 0.91514397 0.44567901
1.5538901 0.90595496 0.44418502
1.5592901 0.91524202 0.43788001
1.5554401 0.93403 0.42642304
1.56415 0.912875 0.43286401
1.5592599 0.90451896 0.43324101
1.52077 0.87488604 0.83788705
1.55571 0.90655404 0.83687806
1.55114 0.897102 0.83683103
1.5449899 0.88626403 0.83594298
1.5273199 0.88071197 0.83314604
1.5222701 0.874107 0.83179301
1.55019 0.90826303 0.83006698
1.54759 0.89649999 0.82889801
1.53856 0.88616699 0.82836103
1.52589 0.88010001 0.82699102
1.51717 0.875175 0.82465005
1.53898 0.92438006 0.81934303
1.5508599 0.90802693 0.82263505
1.55345 0.89541602 0.82357299
1.5421699 0.88788396 0.82187903
1.52816 0.88023102 0.82078099
1.5137801 0.87635803 0.81804395
1.53913 0.93184197 0.81234097
1.55232 0.90687102 0.81651902
1.5473801 0.89723504 0.81621903
1.54321 0.88761902 0.81620198
1.5318201 0.88128096 0.81462306
1.51631 0.87643701 0.81193101
1.54961 0.90768504 0.809609
1.5507699 0.89485705 0.81008697
1.5438401 0.88666803 0.81077498
1.52333 0.88228899 0.80642802
1.5141499 0.87615198 0.80419701
1.53765 0.93262297 0.79946405
1.5461 0.92157304 0.80066299
1.54848 0.91059798 0.80236703
1.5444901 0.898965 0.80211502
1.5420899 0.88646299 0.80345505
1.52047 0.88182801 0.79915202
1.51068 0.87682605 0.79744303
1.5513099 0.906766 0.79727101
1.53924 0.90042502 0.79408699
1.545 0.88797599 0.79734606
1.5305901 0.88142401 0.79480004
1.5052 0.87950301 0.78968596
1.53784 0.93197405 0.78490096
1.54408 0.910016 0.78955901
1.5427499 0.90010399 0.78845805
1.53927 0.88908303 0.78936005
1.49062 0.88368797 0.77918506
1.5404899 0.92334503 0.78083098
1.5445 0.91080099 0.78274506
1.5424299 0.89836198 0.78209001
1.52949 0.88922203 0.780725
1.47996 0.88651198 0.77013201
1.55232 0.90620697 0.77818704
1.54901 0.89775902 0.77690703
1.5431501 0.88822502 0.77654898
1.48374 0.88538098 0.76503998
1.5272599 0.93604398 0.76291394
1.54854 0.90858597 0.77110803
1.5463201 0.89767504 0.77029604
1.5343499 0.88888001 0.76775604
1.5155901 0.88353997 0.76420301
1.49261 0.88232905 0.76079005
1.54897 0.90833002 0.76444101
1.5411301 0.89814001 0.76208407
1.53785 0.88818604 0.76243299
1.52106 0.88340795 0.75927901
1.50676 0.87764001 0.75608999
1.5436301 0.91060698 0.75583297
1.5463001 0.89722097 0.75602305
1.53705 0.88808501 0.75617599
1.5200599 0.88188601 0.75319505
1.5041299 0.87726897 0.74865603
1.47729 0.87662399 0.74243701
1.5490299 0.90676004 0.75016302
1.54968 0.896209 0.75098002
1.54031 0.88909501 0.74973404
1.52474 0.88084704 0.747455
1.4968201 0.877801 0.74043107
1.4734399 0.87659204 0.735551
1.5465801 0.910254 0.74270302
1.54382 0.89785302 0.74320406
1.5344501 0.887977 0.74208999
1.51358 0.882119 0.73777503
1.49862 0.87702799 0.73472601
1.4736 0.876688 0.728962
1.5484599 0.91851401 0.73577303
1.5425301 0.90884596 0.73524803
1.53965 0.89865196 0.73510903
1.53799 0.88925201 0.73655897
1.52245 0.88298601 0.733163
1.5009599 0.87766802 0.72876406
1.47335 0.87698603 0.721174
1.54451 0.91111898 0.72905195
1.53978 0.90093303 0.72870803
1.53625 0.88976896 0.72931999
1.52056 0.88213205 0.72607303
1.4983701 0.87775397 0.72077399
1.47409 0.87637401 0.71411204
1.54479 0.90837896 0.72322404
1.53854 0.898646 0.72182798
1.5362101 0.88742995 0.72320294
1.5163901 0.882783 0.71830505
1.49788 0.87772906 0.71372706
1.4694901 0.87770301 0.70595706
1.5428101 0.92102897 0.71430802
1.54247 0.90924001 0.71563202
1.5413499 0.89779001 0.71559304
1.5349201 0.888592 0.71631205
1.51994 0.881962 0.71240503
1.4916099 0.87960196 0.705194
1.47272 0.87697303 0.70002306
1.53801 0.91378301 0.707385
1.54425 0.89952201 0.709867
1.53771 0.88871104 0.709701
1.51369 0.88367999 0.70386398
1.49312 0.87948197 0.69881403
1.46903 0.87869 0.69278604
1.5242101 0.93582398 0.69360101
1.54553 0.90841001 0.70347804
1.54097 0.89816594 0.702209
1.53348 0.88816202 0.702061
1.51086 0.88439798 0.69629204
1.4929601 0.88051003 0.69187701
1.54311 0.909513 0.69632906
1.53655 0.900662 0.69381404
1.5335201 0.88889998 0.69464201
1.50761 0.885409 0.68889803
1.49632 0.881042 0.68499804
1.53945 0.897475 0.688604
1.5343699 0.88871402 0.688133
1.51446 0.88478601 0.68365008
1.49485 0.88190901 0.67737198
1.53416 0.90171999 0.68086207
1.5340199 0.88916898 0.681431
1.5117 0.88458997 0.676162
1.49497 0.881827 0.67044902
1.54256 0.90935206 0.67427003
1.54199 0.89877802 0.67651504
1.53636 0.88979697 0.67457503
1.5170101 0.88423598 0.67041606
1.49378 0.88244402 0.66291308
1.5415699 0.89923304 0.66900098
1.5379699 0.88783997 0.66871506
1.51354 0.88423699 0.66202807
1.48912 0.88288397 0.65467501
1.5408299 0.90929395 0.66043198
1.54482 0.89607596 0.66357607
1.53179 0.888897 0.65957099
1.5083001 0.88480902 0.65364897
1.48692 0.88332295 0.64778703
1.5435801 0.90879995 0.65456098
1.54 0.89953798 0.65478808
1.5387801 0.88894099 0.65438598
1.51368 0.88575602 0.64812803
1.4906399 0.88318604 0.64189696
1.5444901 0.89741898 0.649073
1.5335499 0.88932002 0.646689
1.51316 0.88500297 0.64113599
1.4911 0.88306296 0.63404298
1.54573 0.89529699 0.64338899
1.53197 0.88891405 0.63968003
1.5078999 0.88583702 0.63242102
1.4893299 0.88295197 0.62631899
1.54214 0.89688301 0.63518703
1.5337801 0.88745904 0.63390702
1.5042599 0.88677597 0.623918
1.4825301 0.88488799 0.617769
1.54313 0.89918 0.627891
1.53503 0.88898301 0.62690902
1.50761 0.88668704 0.61775601
1.4914399 0.88262999 0.61368299
1.5453501 0.90713203 0.62072301
1.54105 0.89704698 0.62109703
1.53013 0.88914102 0.61766797
1.50545 0.88620102 0.61112601
1.4937301 0.88203001 0.60677201
1.54073 0.89779603 0.61328101
1.5382 0.88729101 0.61361003
1.5111901 0.88512802 0.60577899
1.48431 0.88425797 0.596277
1.5443699 0.90724897 0.60655701
1.5423801 0.897223 0.60714602
1.5324 0.88935202 0.604711
1.50384 0.886168 0.595918
1.48478 0.88367498 0.58996004
1.5405 0.90977097 0.59804899
1.5437601 0.89708704 0.60156
1.53276 0.890374 0.597224
1.51217 0.88571501 0.59144205
1.4832801 0.88453203 0.58229899
1.54084 0.89818603 0.59340602
1.52334 0.89094198 0.587125
1.5008299 0.886931 0.58102101
1.4825599 0.88219297 0.57396901
1.53977 0.910245 0.58227801
1.5390199 0.89794403 0.58492202
1.52297 0.89094102 0.57971704
1.5015401 0.885948 0.57395101
1.5508 0.90622902 0.58035505
1.53642 0.90025496 0.576002
1.53557 0.88911903 0.57809699
1.5100399 0.88563299 0.56964201
1.4732001 0.88367701 0.55744398
1.54347 0.908916 0.57167
1.5381799 0.89938003 0.56910503
1.52679 0.89064598 0.56775498
1.49731 0.88749099 0.55844402
1.4763901 0.88373101 0.55064505
1.5442901 0.90878099 0.56470203
1.54017 0.89934897 0.56287104
1.53204 0.89062101 0.56182003
1.50266 0.88718396 0.55292702
1.47047 0.88452697 0.54149002
1.54521 0.90842903 0.55712503
1.5377201 0.89793199 0.555875
1.52811 0.88955498 0.55441403
1.4985601 0.88749099 0.54371703
1.5494599 0.90728599 0.55184001
1.5438499 0.89883798 0.55093199
1.5344 0.88975304 0.54908001
1.5476401 0.90749705 0.54500002
1.54211 0.89789301 0.54338598
1.52842 0.88922602 0.53858
1.54558 0.90767801 0.53714001
1.54162 0.89708602 0.53578699
1.53368 0.88866204 0.53296602
1.5064399 0.88505799 0.52397203
1.54888 0.90601099 0.53069001
1.5395199 0.89643204 0.52788901
1.52564 0.88911796 0.523251
1.54545 0.90912801 0.52092099
1.54775 0.896761 0.52436805
1.5385201 0.88830495 0.52125001
1.54699 0.90800399 0.51466602
1.54414 0.89783597 0.51528901
1.5311099 0.88850802 0.51038003
1.5487 0.90770304 0.50852901
1.5426601 0.89642501 0.50660801
1.5447301 0.88439202 0.50912005
1.50293 0.85313797 0.49667799
1.5492301 0.90649599 0.50099903
1.53988 0.898458 0.49772003
1.52487 0.86804497 0.497471
1.49648 0.85558802 0.48704502
1.5547501 0.92376101 0.49374402
1.55258 0.915025 0.49461803
1.5482601 0.90564901 0.493081
1.5415 0.89618105 0.49233902
1.5423399 0.88527799 0.49286503
1.53124 0.87647003 0.49130401
1.5209199 0.867338 0.48888603
1.50292 0.86276704 0.48172802
1.55539 0.91387999 0.488195
1.5464301 0.90672797 0.48534203
1.54635 0.89513999 0.48677903
1.5370899 0.87721604 0.48569801
1.5245 0.86794996 0.48312604
1.4999299 0.86469495 0.47444499
1.55504 0.91564101 0.47962403
1.55533 0.90347898 0.48232299
1.54719 0.89437205 0.47970703
1.54713 0.88412905 0.48240402
1.5324 0.940952 0.45946404
1.5529699 0.926826 0.46985999
1.5510299 0.91875505 0.47026303
1.5523 0.90628797 0.47254199
1.55487 0.89400399 0.47639102
1.5454201 0.885692 0.47357804
1.55841 0.91319901 0.46699303
1.55562 0.90404403 0.467379
1.55178 0.89481497 0.46756801
1.5541099 0.91562897 0.45712602
1.55813 0.90303397 0.46218404
1.54907 0.89370102 0.458278
1.5370799 0.88622904 0.45445502
1.5591 0.92166799 0.45053601
1.55672 0.91346002 0.45074704
1.55608 0.90352499 0.453493
1.5580601 0.91405702 0.444038
1.55459 0.90370905 0.444841
1.5605299 0.91458505 0.43765399
1.55848 0.90502602 0.438582
1.5543699 0.89407897 0.43867001
1.5626301 0.92068297 0.43002799
1.56358 0.91155297 0.43280101
1.5594701 0.90239406 0.431898
1.54495 0.90750605 0.83677506
1.54581 0.89410299 0.83890098
1.53837 0.884556 0.83863306
1.52565 0.87890297 0.83621603
1.5440899 0.90835601 0.82999605
1.53827 0.897973 0.83032501
1.53391 0.88647699 0.831343
1.52386 0.87883204 0.82866597
1.54353 0.91000801 0.82263601
1.5436599 0.897008 0.824691
1.53196 0.88764703 0.82318902
1.52877 0.87709802 0.82339305
1.53848 0.92267901 0.81451106
1.5449201 0.90835601 0.81592906
1.5423801 0.89590102 0.81702805
1.53036 0.88710296 0.81575906
1.5215801 0.88025099 0.81614304
1.54617 0.90536302 0.81016207
1.5446 0.894189 0.81032896
1.5353199 0.88632202 0.81012297
1.5186 0.88147497 0.80869502
1.49511 0.88249701 0.803069
1.54742 0.89585298 0.80459404
1.5403 0.88652498 0.80410105
1.5211301 0.88184404 0.80179
1.49331 0.88395 0.79626405
1.5492901 0.905074 0.79818505
1.54133 0.89650804 0.796848
1.53251 0.887357 0.79603899
1.5226401 0.88104898 0.79485804
1.541 0.90886599 0.78894204
1.5364701 0.89628601 0.78913903
1.5248599 0.88920403 0.78765798
1.52069 0.88205802 0.78729105
1.5468299 0.90634298 0.78346503
1.53429 0.90028 0.78123504
1.53144 0.888771 0.78248399
1.5219901 0.881769 0.78029203
1.54388 0.90793198 0.776761
1.53385 0.90030801 0.774176
1.5285201 0.88944799 0.77435899
1.49965 0.88101995 0.76947004
1.5227799 0.93846703 0.76195002
1.53791 0.895962 0.76908702
1.53817 0.88504499 0.77005303
1.5240401 0.880539 0.76750898
1.5008501 0.87977302 0.76301801
1.53605 0.899652 0.76226306
1.5324 0.88828498 0.76228005
1.5138201 0.88269699 0.75796908
1.49448 0.88072997 0.75478303
1.54301 0.90839601 0.75518906
1.5375199 0.89879304 0.75563103
1.526 0.889768 0.753425
1.51709 0.88115698 0.75097102
1.49131 0.88098997 0.74684095
1.54267 0.90711701 0.74897301
1.53196 0.89880699 0.74799001
1.5298899 0.888156 0.74744803
1.52082 0.88044196 0.74518007
1.4948 0.87899595 0.74031097
1.46759 0.88095999 0.73551297
1.51439 0.94265801 0.73116702
1.54127 0.90862101 0.74119103
1.5369201 0.89755303 0.74263304
1.5303799 0.88781404 0.74077201
1.5165199 0.88027102 0.73765701
1.48858 0.87998301 0.73198897
1.47414 0.877424 0.73050708
1.5389999 0.89682502 0.73595202
1.5260201 0.88834798 0.73250997
1.5153 0.88145399 0.73120999
1.5012 0.87671697 0.72861296
1.4778999 0.876046 0.723584
1.53488 0.89791495 0.72706705
1.53143 0.88618106 0.72697401
1.5172701 0.88066202 0.72573203
1.49819 0.87715894 0.72102797
1.47753 0.87581706 0.71542203
1.5389501 0.90992796 0.719338
1.53362 0.90028399 0.71889901
1.53333 0.88775998 0.72140604
1.5213799 0.87968904 0.71952498
1.49312 0.87869698 0.71234703
1.4772501 0.87573701 0.70797807
1.53838 0.91066498 0.71267599
1.5338901 0.89895701 0.71158302
1.5311099 0.88779902 0.71423304
1.5183901 0.87974197 0.71150899
1.49058 0.87931901 0.70463806
1.47232 0.87792897 0.69971406
1.54101 0.906977 0.70664805
1.5346899 0.89846003 0.70472997
1.5241499 0.88963401 0.70482707
1.50571 0.88384598 0.70161301
1.48686 0.88132894 0.69669801
1.5376101 0.908427 0.69872802
1.54102 0.89594197 0.70050204
1.53431 0.88775003 0.70002699
1.51229 0.88314402 0.69592804
1.48592 0.88283598 0.68911201
1.5399699 0.89535004 0.69421303
1.5310401 0.88626802 0.69328904
1.50772 0.88447797 0.68665504
1.4902099 0.88205302 0.68285203
1.5279 0.90142304 0.68320298
1.52636 0.88894498 0.68518007
1.51597 0.882671 0.68164301
1.49095 0.88316703 0.67546105
1.54118 0.90720594 0.67766702
1.53054 0.90051901 0.67648607
1.5204201 0.89191902 0.67622805
1.5134 0.88300204 0.67427707
1.48842 0.88381201 0.66704398
1.54048 0.90870905 0.67156303
1.5338 0.90092003 0.67037201
1.5203199 0.89166701 0.66801804
1.5078701 0.88387901 0.66608202
1.49017 0.88241404 0.660528
1.53686 0.90956199 0.66393906
1.5287801 0.900886 0.66202605
1.5242101 0.89020503 0.66079497
1.50899 0.88407207 0.65903997
1.4844201 0.88488197 0.65224701
1.53186 0.89831805 0.65623504
1.52748 0.88979894 0.65500307
1.5154401 0.88347101 0.65317398
1.4898801 0.88359702 0.64657301
1.5311099 0.89990896 0.64850599
1.52334 0.88988501 0.64812201
1.5119901 0.88370204 0.64524305
1.49066 0.883053 0.63851303
1.53553 0.90944701 0.641828
1.52202 0.89128095 0.64021105
1.5120101 0.882833 0.638008
1.4853901 0.88416201 0.62948501
1.52833 0.90010905 0.63274503
1.5192399 0.89027494 0.632182
1.50888 0.88302594 0.63038504
1.4804 0.88443702 0.62034804
1.5353301 0.908283 0.62701601
1.53633 0.89717001 0.62876105
1.52437 0.891559 0.62612104
1.5150701 0.88258201 0.62504601
1.4749299 0.88495499 0.61207902
1.5337399 0.898476 0.62174702
1.5239199 0.88955003 0.61895502
1.50422 0.88474798 0.61504102
1.47961 0.88423896 0.60820103
1.52802 0.90073502 0.61231303
1.5232401 0.89016294 0.61071402
1.5123399 0.88319397 0.61073703
1.4819 0.88664705 0.59617305
1.52595 0.90080398 0.60370904
1.5285201 0.88762099 0.606076
1.51192 0.88369101 0.60177702
1.47867 0.88655603 0.58990502
1.53871 0.90916097 0.59869599
1.5278 0.90213305 0.59604901
1.51925 0.89157099 0.59621501
1.49989 0.88699603 0.59099299
1.5315601 0.90064901 0.58980501
1.52356 0.89211404 0.58928204
1.51336 0.88446599 0.58746904
1.53791 0.90777802 0.583597
1.52976 0.89784598 0.582968
1.5124099 0.89297301 0.57859904
1.50028 0.88611704 0.57534605
1.53345 0.909181 0.57455504
1.5332201 0.89787298 0.576819
1.5187399 0.89183402 0.57365501
1.5077901 0.88471299 0.57173103
