# .PCD v0.7 - Point Cloud Data file format
VERSION 0.7
FIELDS x y z
SIZE 4 4 4
TYPE F F F
COUNT 1 1 1
WIDTH 355
HEIGHT 1
VIEWPOINT 0 0 0 1 0 0 0
POINTS 355
DATA ascii
1.36166 1.0217299 1.953508
1.36621 1.03231 1.945923
1.37029 1.0185601 1.9550431
1.3801301 1.02592 1.9601401
1.39079 1.02947 1.968011
1.3631101 1.03144 1.939325
1.3622501 1.04415 1.9343381
1.3776699 1.02332 1.945583
1.37805 1.03681 1.9416181
1.3675901 1.05581 1.9297211
1.3806599 1.01773 1.955547
1.37132 1.03838 1.9330732
1.38737 1.04679 1.9398789
1.40456 1.0583 1.937453
1.38885 1.0555201 1.921414
1.40776 1.0562999 1.929068
1.41102 1.05583 1.921392
1.37519 1.0214801 1.952894
1.3697901 1.03848 1.942095
1.4165199 1.0204901 1.979861
1.4261501 1.01309 1.978271
1.41085 1.03049 1.9715409
1.4141099 1.0207 1.972291
1.4261501 1.0125 1.9703109
1.40933 1.03268 1.9623471
1.42813 1.03063 1.9531711
1.4272599 1.01439 1.9602319
1.43774 1.00615 1.955997
1.40504 1.0427899 1.9528909
1.4114799 1.0357 1.9512579
1.42593 1.0297 1.944717
1.42987 1.01526 1.948741
1.41263 1.04846 1.9388431
1.4228799 1.04195 1.936113
1.43013 1.0325199 1.9328189
1.4325 1.0177701 1.936734
1.4081199 1.05109 1.9295651
1.4193699 1.04265 1.9279209
1.4181 1.0154099 1.974651
1.43387 1.01148 1.966801
1.4006701 1.0197899 1.973271
1.4268899 1.02116 1.959362
1.43485 1.0121 1.9580591
1.4144299 1.02874 1.955145
1.42979 1.02433 1.947283
1.43081 1.00958 1.952294
1.4108599 1.03861 1.9460449
1.41891 1.03248 1.9430749
1.4288601 1.02432 1.938476
1.43185 1.0110099 1.9417031
1.42162 1.04469 1.9304651
1.42399 1.03459 1.9317321
1.43095 1.02538 1.9284101
1.42345 1.01859 1.974821
1.40582 1.02274 1.9749111
1.41731 1.0168 1.970121
1.4301 1.01 1.9668311
1.43214 0.99748999 1.967101
1.41644 1.01868 1.9620349
1.42427 1.00846 1.9604291
1.43318 0.99708003 1.9571952
1.4013499 1.02206 1.961427
1.41699 1.01763 1.953117
1.42793 1.0082901 1.9486929
1.4025 1.022 1.951587
1.42794 1.0205799 1.936924
1.43038 1.00726 1.9385331
1.41934 1.0303 1.930799
1.41228 1.0254101 1.983631
1.42349 1.01975 1.9781109
1.40626 1.02486 1.9785711
1.4240899 1.02056 1.9692611
1.43251 1.0111799 1.9640509
1.43376 0.99938399 1.967081
1.4183501 1.0285 1.963063
1.42588 1.02099 1.958464
1.43602 1.01254 1.9532721
1.43799 1.00037 1.95533
1.42076 1.02992 1.9513221
1.4294901 1.02136 1.947032
1.43349 1.00965 1.9477969
1.4172 1.03895 1.9433819
1.42081 1.0308599 1.941766
1.42014 1.01965 1.944254
1.41241 1.03857 1.937858
1.4269201 1.03348 1.9288101
1.42981 1.0225101 1.9307971
1.4141999 1.0400901 1.9276841
1.37129 1.06179 1.928311
1.3879499 1.02881 1.985121
1.4095799 1.02317 1.974581
1.42071 1.01557 1.9690509
1.4251699 1.0038099 1.9686611
1.43375 0.99355006 1.963572
1.40557 1.03238 1.9678509
1.41045 1.02364 1.9668311
1.41996 1.01465 1.961514
1.43247 1.0043399 1.9551889
1.39933 1.0431401 1.9589
1.39862 1.03395 1.9626911
1.41022 1.02529 1.9579941
1.4260299 1.01476 1.9487621
1.42834 1.0024099 1.949778
1.4108 1.04577 1.944939
1.4066901 1.0362201 1.950327
1.41607 1.0264801 1.9450461
1.4251699 1.0158 1.939466
1.42655 1.0034699 1.9424051
1.39696 1.04423 1.9454831
1.41557 1.03827 1.9362179
1.42062 1.02707 1.933248
1.4109501 1.04598 1.93004
1.3886099 1.02808 1.9809109
1.3674001 1.02564 1.9749411
1.38165 1.0297799 1.974501
1.3654201 1.00682 1.969131
1.36726 1.0257499 1.9691809
1.3825001 1.03012 1.968611
1.3624099 1.0167 1.9634311
1.3672099 1.02671 1.9627429
1.3804699 1.03124 1.9630859
1.36329 1.0265499 1.9568521
1.3742399 1.03321 1.9571891
1.3576199 1.0283999 1.951028
1.3762699 1.03354 1.950628
1.39951 1.0352501 1.9506491
1.3529299 1.02028 1.946642
1.35888 1.0275 1.945497
1.36234 1.03658 1.94552
1.37067 1.04523 1.944068
1.36148 1.02873 1.9404072
1.36928 1.03784 1.9388601
1.37435 1.04741 1.9385279
1.39686 1.05135 1.937132
1.36622 1.04897 1.934002
1.36041 1.04922 1.9291409
1.3680701 1.02266 1.9730209
1.3806 1.02616 1.9735211
1.36497 1.01086 1.967991
1.36957 1.0200499 1.9673709
1.37429 1.0280499 1.9671111
1.36718 1.0106701 1.9615829
1.3722099 1.0209401 1.960623
1.3704201 1.0298101 1.9611371
1.3722399 1.02131 1.9547281
1.37358 1.0290101 1.9546591
1.36282 1.02446 1.949257
1.36911 1.0327899 1.9480591
1.3587601 1.0266401 1.943629
1.36983 1.0332299 1.942251
1.38649 1.03807 1.9405029
1.37003 1.0350599 1.936196
1.3764999 1.04294 1.936049
1.3864 1.04997 1.93504
1.3638699 1.0357801 1.9312689
1.3713299 1.04478 1.930629
1.38337 1.05235 1.93005
1.3959199 1.0278 1.978761
1.37474 1.02724 1.972991
1.3884701 1.03084 1.972061
1.3599499 1.0104901 1.966459
1.3632801 1.0205899 1.9658689
1.3744501 1.02821 1.9659201
1.38615 1.03313 1.965525
1.36637 1.02074 1.959806
1.36904 1.0315 1.9590051
1.3758999 1.03833 1.9594979
1.3621899 1.0236599 1.9535919
1.36297 1.03451 1.953997
1.37202 1.04045 1.953572
1.3897099 1.04232 1.951872
1.35972 1.0235 1.9469811
1.36694 1.0335 1.9478891
1.37696 1.0410199 1.947078
1.38493 1.0462 1.946244
1.3644501 1.03292 1.9409931
1.3726401 1.04144 1.941817
1.36352 1.0344501 1.9344461
1.3693401 1.04354 1.9357581
1.37052 1.05558 1.934588
1.3653101 1.0464 1.9294211
1.37099 1.05549 1.929001
1.39399 1.02946 1.976781
1.3610001 1.01107 1.9712911
1.3738 1.0286499 1.9703311
1.3927499 1.03167 1.969931
1.42067 1.02676 1.968421
1.3638099 1.02153 1.964538
1.37141 1.03144 1.963809
1.38254 1.03678 1.9638211
1.4163201 1.03219 1.9618561
1.35954 1.0233101 1.9578861
1.36869 1.03161 1.957496
1.37695 1.03977 1.9581031
1.4003999 1.0408599 1.9560721
1.4025 1.0526299 1.956452
1.36103 1.02487 1.9517511
1.36378 1.03545 1.951741
1.3801401 1.03966 1.9507099
1.40084 1.04238 1.949306
1.40203 1.05282 1.950882
1.36024 1.02235 1.9458721
1.36799 1.03289 1.9448199
1.37572 1.0434101 1.9440061
1.3888 1.0484201 1.9440171
1.3983501 1.05363 1.9446789
1.3594 1.03747 1.937946
1.3684801 1.04614 1.9383551
1.3839 1.05129 1.9379449
1.3619299 1.0490201 1.9323059
1.39714 1.02561 1.9825009
1.37783 1.02912 1.9758509
1.39034 1.0315 1.976521
1.4138901 1.02588 1.9753009
1.35631 1.01509 1.9704309
1.3585299 1.0273499 1.9699411
1.3735299 1.0307 1.9697109
1.3859801 1.0355201 1.9698709
1.3587601 1.02518 1.9636081
1.36599 1.03394 1.9638752
1.37714 1.04158 1.9627411
1.40354 1.0374401 1.9611859
1.36278 1.0198799 1.9563479
1.36589 1.03487 1.956333
1.37911 1.0426 1.9555221
1.3944099 1.04524 1.955664
1.35912 1.0257 1.949527
1.3622301 1.03763 1.949937
1.37517 1.0431501 1.9489889
1.36637 1.03465 1.94332
1.37265 1.04476 1.9417261
1.3850501 1.05193 1.942884
1.36317 1.03579 1.9362922
1.3711301 1.04505 1.9350299
1.36239 1.05301 1.9294479
1.4216901 1.03258 1.991411
1.41985 1.0332199 1.984171
1.42211 1.02167 1.984401
1.4030499 1.03696 1.9747211
1.4167199 1.03426 1.9766809
1.42155 1.02385 1.977041
1.425 1.01127 1.9753311
1.3976899 1.03623 1.9672711
1.4174 1.03529 1.9695112
1.4177699 1.02011 1.9692709
1.43425 1.01393 1.9690812
1.40003 1.0395401 1.9601309
1.41382 1.03496 1.9603571
1.4217 1.02343 1.9623719
1.42893 1.0128 1.960041
1.3854401 1.0434201 1.9517571
1.4055099 1.04422 1.953454
1.40965 1.03414 1.952292
1.4240601 1.02632 1.954404
1.42582 1.01239 1.952458
1.4343801 1.00202 1.952724
1.3942399 1.04962 1.946106
1.40327 1.04364 1.945532
1.4160299 1.03529 1.945963
1.42365 1.02403 1.947093
1.42733 1.0121499 1.945598
1.4322301 1.00076 1.944718
1.39228 1.05152 1.9371701
1.41028 1.04694 1.938356
1.4199899 1.03826 1.939335
1.42265 1.02482 1.939178
1.4295501 1.0118099 1.9379871
1.39788 1.05629 1.9299179
1.4125301 1.0496399 1.931752
1.4185699 1.03821 1.931631
1.4214901 1.0221601 1.930746
1.4280499 1.01175 1.9306711
1.41207 1.0507801 1.924556
1.40677 1.0336699 1.9953711
1.3979499 1.03114 1.9836811
1.4072599 1.0261 1.983031
1.4221801 1.02091 1.984261
1.40285 1.0347 1.9762911
1.41644 1.02933 1.9773709
1.42361 1.01882 1.977211
1.3881199 1.0414 1.966477
1.4086 1.03786 1.9702811
1.41821 1.02887 1.9699411
1.43344 1.02189 1.972021
1.43542 1.0126001 1.9712911
1.36404 1.0427899 1.95739
1.3862 1.04395 1.9596341
1.40488 1.0390899 1.9622061
1.41553 1.02904 1.9613119
1.4323599 1.02246 1.9645638
1.3659101 1.0448201 1.951627
1.3939199 1.04713 1.954247
1.4063001 1.03913 1.954648
1.4188499 1.03061 1.954275
1.42654 1.0211799 1.955973
1.3997799 1.04877 1.947189
1.42048 1.04425 1.949749
1.42472 1.03361 1.947956
1.42765 1.0218101 1.94849
1.4399201 1.0172 1.95108
1.40242 1.05189 1.9401211
1.4192101 1.04532 1.9419751
1.4250901 1.0342 1.9419641
1.43117 1.0238301 1.941367
1.43505 1.0134799 1.941835
1.3928101 1.0575 1.93319
1.4111501 1.0550901 1.934389
1.41688 1.04426 1.9335681
1.4282401 1.0356801 1.936196
1.4269501 1.0215499 1.9329849
1.40231 1.06383 1.926373
1.4161501 1.05672 1.928189
1.41517 1.044 1.9257212
1.4232899 1.0335701 1.9278101
1.3796699 1.05127 1.93619
1.40487 1.05258 1.938966
1.3888401 1.0546601 1.931942
1.41697 1.0555999 1.9337811
1.4188 1.05452 1.9269021
1.42953 1.0308499 1.940325
1.4354601 1.0196199 1.941416
1.4235699 1.04125 1.9341171
1.42994 1.03014 1.934647
1.43151 1.0181099 1.935027
1.41817 1.06233 1.926578
1.4194701 1.0514801 1.9280471
1.41914 1.03973 1.9266291
1.43527 1.03233 1.929173
1.4211301 1.0327201 1.955959
1.43239 1.02441 1.9575649
1.43941 1.01359 1.9583811
1.4017999 1.03932 1.948547
1.4119099 1.03328 1.9496741
1.42818 1.0241799 1.951925
1.4344001 1.01278 1.9523581
1.4067501 1.04216 1.9434781
1.4153999 1.03397 1.944209
1.43177 1.025 1.945585
1.4350301 1.01489 1.947054
1.3845199 1.048 1.9338751
1.41105 1.04388 1.937487
1.42476 1.0345401 1.9385
1.42758 1.0238401 1.9389582
1.39263 1.0502601 1.9287399
1.41397 1.0445501 1.930571
1.42799 1.03538 1.9323699
1.43317 1.02449 1.9336849
1.40216 1.05445 1.9226489
1.42316 1.03706 1.9258389
1.4377 1.0281199 1.927579
1.4360299 0.99986804 1.950057
1.3787601 1.04222 1.9391999
1.3711901 1.05591 1.9310681
1.3873301 1.03614 1.932639
1.4073801 1.0590301 1.9257879
