# .PCD v0.7 - Point Cloud Data file format
VERSION 0.7
FIELDS x y z
SIZE 4 4 4
TYPE F F F
COUNT 1 1 1
WIDTH 1605
HEIGHT 1
VIEWPOINT 0 0 0 1 0 0 0
POINTS 1605
DATA ascii
1.49985 0.994138 0.45589
1.51456 0.99221998 0.459263
1.52759 0.986866 0.46257201
1.53601 0.97735298 0.46369401
1.5425999 0.966429 0.46358901
1.5349699 0.94501001 0.45689404
1.52741 0.92338502 0.449229
1.5271201 0.90952796 0.44609502
1.53722 0.90318 0.44755101
1.54974 0.89773804 0.44903702
1.4991499 0.99493104 0.446823
1.50714 0.98960704 0.44937703
1.52254 0.98540002 0.45235801
1.5346299 0.97765505 0.45531002
1.5427099 0.96901298 0.45659703
1.54142 0.953803 0.45225701
1.53339 0.93204802 0.44474301
1.5271201 0.90979695 0.43790999
1.54442 0.90557599 0.44278899
1.55817 0.90182704 0.44425103
1.49591 0.99294299 0.43752801
1.5116299 0.99185401 0.44242603
1.5236099 0.98483497 0.444244
1.53467 0.97879899 0.44784603
1.5426899 0.96891296 0.44831303
1.54248 0.95241302 0.44378003
1.53225 0.92971903 0.43527102
1.52171 0.90579104 0.42648003
1.5470901 0.90706098 0.43617499
1.56463 0.90293503 0.43845204
1.50108 0.99549794 0.43161401
1.51267 0.99274004 0.43499202
1.52136 0.985663 0.43614304
1.5381199 0.980151 0.44088599
1.5395199 0.96461505 0.43753701
1.54014 0.94995201 0.43423998
1.53386 0.93286699 0.42806202
1.54504 0.90306199 0.42641404
1.54416 0.89086503 0.42106801
1.5027299 0.99746805 0.42340702
1.5135601 0.99264002 0.427219
1.5317999 0.988823 0.43204501
1.54203 0.97948194 0.433301
1.54199 0.96483397 0.43057302
1.5399001 0.95033699 0.42661202
1.5346899 0.93536001 0.42206502
1.5478799 0.89286399 0.41702104
1.53862 0.87662905 0.409356
1.50254 0.99801695 0.41655004
1.5149699 0.99572301 0.42030403
1.52985 0.99152398 0.42431301
1.54107 0.983208 0.42558601
1.55252 0.97488999 0.42710403
1.52291 0.937518 0.41313604
1.54737 0.89240193 0.41077399
1.51547 1.00493 0.41689301
1.5261999 0.99987102 0.41916502
1.54159 0.99553901 0.42246002
1.5621201 0.99390703 0.425955
1.5659599 0.983105 0.424173
1.5584301 0.96829599 0.41882202
1.5771099 1.04022 0.43135101
1.5932499 1.04013 0.436847
1.5876601 1.02318 0.43235099
1.5873801 1.01115 0.43049604
1.58938 1.0004001 0.42850503
1.58455 0.98424399 0.42234403
1.5956 1.04254 0.43333203
1.5952801 1.03157 0.430601
1.59144 1.0149 0.42549103
1.5875701 0.99672598 0.41859999
1.60423 0.99489999 0.424155
1.59813 0.98146898 0.41796401
1.5889 1.0367199 0.42467299
1.5841 1.02176 0.41864902
1.57699 1.00416 0.40918103
1.57797 0.99041003 0.40510201
1.5845101 0.98158896 0.40724403
1.58486 0.97161102 0.40311605
1.5685099 0.97102302 0.39100403
1.48317 0.76666099 0.83766997
1.43925 0.96586502 0.83895904
1.48386 0.77660298 0.83191603
1.50207 0.77794296 0.83202398
1.47189 0.746369 0.83029306
1.46267 0.97567296 0.83793503
1.5044501 0.778355 0.82654101
1.5025901 0.76521701 0.822658
1.48632 0.97543502 0.83486903
1.51588 0.97926301 0.83835202
1.53177 0.97360396 0.83947897
1.5405 0.964252 0.83980805
1.5399499 0.95130801 0.83837503
1.53579 0.93944299 0.83659905
1.5028701 0.77474403 0.81808001
1.5002 0.76037401 0.81448102
1.53145 1.0525399 0.83876097
1.5456901 1.0421801 0.83865005
1.51832 0.98046601 0.831343
1.5294099 0.97415602 0.83218104
1.54073 0.967354 0.83358103
1.54539 0.95706004 0.83271199
1.5429 0.94412804 0.83113402
1.49992 0.77065903 0.80913603
1.50069 0.75986397 0.80748701
1.50633 0.751679 0.80841905
1.53461 1.0539 0.83313006
1.5443801 1.04972 0.83287901
1.5446899 1.04137 0.832219
1.5194501 0.97965103 0.82404101
1.52492 0.97276098 0.82430196
1.5404899 0.96715498 0.82588798
1.54368 0.95432401 0.82508802
1.5364799 0.94026899 0.82285202
1.4900501 0.76360494 0.80004603
1.5011901 0.76097101 0.80145103
1.50563 0.74991399 0.80018908
1.5309199 1.0513999 0.82465202
1.54972 1.05241 0.82744104
1.5428101 1.0406801 0.82547808
1.5254401 0.98158097 0.81818604
1.53144 0.97427595 0.81880003
1.53748 0.96665102 0.81782895
1.5456901 0.95821297 0.81854707
1.54166 0.94456804 0.81684899
1.4999001 0.757276 0.79294097
1.50551 0.74733001 0.791471
1.5350599 1.05462 0.81787705
1.5437601 1.04984 0.81987602
1.54673 1.04276 0.81951106
1.52043 0.97897798 0.81007302
1.52946 0.97373801 0.81123197
1.54258 0.96790099 0.81215805
1.54739 0.95823401 0.811979
1.5328101 0.94058603 0.80812103
1.49502 0.75234497 0.78276306
1.50203 0.74580801 0.783719
1.52702 1.05171 0.81025201
1.5493801 1.05414 0.81393504
1.54671 1.04365 0.81246704
1.52071 0.97884202 0.80281603
1.5347199 0.97460198 0.80480695
1.54047 0.96505898 0.80538702
1.5394901 0.95482802 0.80352205
1.4864399 0.74529803 0.77386099
1.53325 1.0541301 0.80534202
1.5496401 1.05325 0.80707502
1.5447999 1.04223 0.80431902
1.51826 0.97803301 0.795075
1.5274299 0.972844 0.79580396
1.5412601 0.96755099 0.79879206
1.53517 0.95423597 0.79491699
1.5383501 1.0552 0.79869002
1.54693 1.05085 0.79988205
1.54521 1.04184 0.79756004
1.5230401 0.98051202 0.78898299
1.52931 0.974015 0.78930205
1.53511 0.96491504 0.78933799
1.5387199 0.955706 0.78859299
1.5383501 1.05568 0.790622
1.54694 1.05101 0.79303199
1.54185 1.04022 0.79089797
1.52003 0.97881699 0.78130102
1.52991 0.97371596 0.78243202
1.5313499 0.96221399 0.78160799
1.53723 0.95376199 0.78080004
1.51718 0.93176401 0.77400702
1.53716 1.05643 0.78343999
1.54601 1.05188 0.78552401
1.54414 1.04195 0.785326
1.52154 0.97920197 0.77409804
1.5319 0.97415805 0.77536803
1.53521 0.96432406 0.77620006
1.53827 0.954238 0.77423704
1.5206 0.93377995 0.76876402
1.53297 1.05474 0.77640897
1.54995 1.0546399 0.77958208
1.5487199 1.04518 0.77862602
1.5210899 0.97982401 0.76616204
1.5278599 0.972642 0.76765001
1.53245 0.96257502 0.768583
1.53321 0.950019 0.76614499
1.51508 0.92921096 0.75996804
1.53785 1.05636 0.770868
1.5523 1.05457 0.773628
1.5433099 1.04163 0.76955003
1.48637 0.97408503 0.75081903
1.5156599 0.97893602 0.75764602
1.5290401 0.97408599 0.760638
1.5305099 0.96042198 0.76028603
1.5299001 0.94633794 0.75805801
1.5111799 0.92643702 0.75260603
1.53739 1.0560601 0.76365697
1.55102 1.0537601 0.765885
1.54758 1.04371 0.76425397
1.48835 0.97517198 0.74579501
1.5120101 0.97834802 0.75072008
1.5267501 0.97413301 0.75317103
1.5332899 0.96366096 0.75336802
1.53293 0.95007002 0.75204301
1.5180701 0.93110299 0.74789602
1.5340401 1.05432 0.75570405
1.55504 1.0559 0.75953102
1.545 1.0426201 0.75740504
1.5124 0.97747594 0.74393404
1.52239 0.972848 0.74586898
1.53133 0.96373999 0.74548203
1.53826 0.95464206 0.74654603
1.52659 0.93715101 0.74218398
1.5354899 1.05538 0.74861699
1.55382 1.05618 0.75340301
1.55085 1.0464 0.75143206
1.51659 0.97830498 0.73655599
1.5239199 0.97140402 0.73854101
1.53913 0.96683699 0.74058896
1.5344701 0.95202696 0.73781604
1.5331399 0.94045198 0.73613799
1.5323501 1.0542901 0.74083704
1.54839 1.0537 0.74546504
1.5449899 1.0436599 0.74213201
1.5133799 0.97655898 0.72891897
1.52633 0.97323501 0.73111403
1.53509 0.96494901 0.73341006
1.53758 0.954292 0.73109102
1.5318899 0.94037902 0.72829604
1.52996 1.05336 0.73378009
1.54751 1.05309 0.73761606
1.5430901 1.0418 0.73425502
1.5186701 0.97899199 0.72304803
1.5275 0.97289801 0.72393698
1.5329601 0.96381402 0.72563797
1.53246 0.95081401 0.72283304
1.52784 0.93799597 0.71913302
1.54291 1.05888 0.73010606
1.5455 1.0510601 0.729756
1.54773 1.0436901 0.729038
1.51151 0.97646695 0.71423906
1.5226401 0.97176099 0.71549398
1.5316701 0.96280599 0.71802503
1.5310899 0.949242 0.71495199
1.5268101 0.93646204 0.71141404
1.53616 1.05628 0.72063398
1.55293 1.05588 0.72526097
1.5466701 1.04403 0.722256
1.5125799 0.97764504 0.70726204
1.52377 0.97311801 0.70793605
1.52797 0.96059799 0.70890307
1.53183 0.94869697 0.70768201
1.5228701 0.93407303 0.70383298
1.5402299 1.05821 0.71504503
1.5498599 1.05451 0.71691102
1.5460299 1.04397 0.71492302
1.4908099 0.97510499 0.69580805
1.5153301 0.97926599 0.70136297
1.52485 0.97429103 0.70152402
1.53076 0.96479899 0.70201302
1.53399 0.95255202 0.70144302
1.52407 0.93539703 0.69715905
1.5389 1.05742 0.707901
1.5524499 1.0555999 0.71058106
1.5457801 1.0439399 0.70779997
1.47911 0.973692 0.68121505
1.5182401 0.98027903 0.69490701
1.52643 0.97207499 0.69495201
1.5307001 0.96070898 0.69453204
1.5323 0.94929802 0.69339597
1.5239 0.93509501 0.68969405
1.5407801 1.05862 0.70165998
1.54875 1.05388 0.70261604
1.5459399 1.04387 0.70103896
1.4730901 0.98128098 0.67566901
1.4799401 0.97533602 0.67649597
1.5036999 0.97622597 0.68271905
1.5224099 0.97252601 0.68696898
1.53245 0.96373802 0.68796802
1.5356101 0.95286596 0.68782598
1.52554 0.936728 0.68298906
1.5405201 1.05835 0.69478601
1.55248 1.0557901 0.69565505
1.5469999 1.0447 0.69457603
1.47812 0.97508699 0.67146403
1.50256 0.97735 0.67650801
1.5156101 0.97117698 0.67800105
1.52539 0.96265405 0.67898703
1.53177 0.95152801 0.67875308
1.52349 0.935857 0.67487305
1.54027 1.0578901 0.68697202
1.5547 1.05695 0.69011903
1.54697 1.04522 0.68693101
1.47594 0.97409898 0.66631204
1.516 0.97975194 0.67166102
1.52373 0.97209096 0.67312902
1.5342 0.96505404 0.67374802
1.53914 0.95524198 0.67290902
1.5204401 0.93447196 0.666399
1.54123 1.05887 0.67958903
1.5546499 1.05699 0.68392897
1.54405 1.0434201 0.67831606
1.51557 0.98000604 0.66350204
1.5237399 0.97237098 0.66496396
1.53585 0.96369499 0.66678405
1.53668 0.95240802 0.66586304
1.52074 0.93446404 0.65850306
1.54031 1.05873 0.67252803
1.5507699 1.0552 0.67475802
1.54548 1.04399 0.67187303
1.4923599 0.97697198 0.65123999
1.5186701 0.98161697 0.65819502
1.5251601 0.97416997 0.65722501
1.52767 0.96185303 0.65718299
1.5349801 0.95232695 0.65856707
1.5192599 0.93418002 0.65034902
1.5409399 1.05848 0.66571307
1.5528599 1.0560601 0.66845
1.54705 1.0448899 0.66560102
1.5208299 0.98179495 0.65147001
1.52784 0.97590899 0.65185702
1.5315601 0.96626002 0.651205
1.5313201 0.95169294 0.64955503
1.51906 0.93384397 0.64261597
1.54284 1.05972 0.65841901
1.5513 1.05527 0.661201
1.55013 1.04636 0.65943605
1.51745 0.98003 0.64208001
1.5276101 0.97529101 0.64534205
1.5256101 0.96037298 0.64134794
1.5294099 0.94872999 0.64113998
1.5138099 0.93043196 0.63344502
1.54048 1.0588 0.65071601
1.5525999 1.05695 0.654805
1.5487 1.04637 0.65203905
1.47812 0.97242498 0.620386
1.5149601 0.97974604 0.63435602
1.52053 0.97207999 0.63513601
1.5308299 0.964858 0.63540101
1.52828 0.94970804 0.63334602
1.51358 0.93044603 0.62775099
1.52573 1.0507901 0.63995701
1.55145 1.0557901 0.64776099
1.5487399 1.04614 0.64404905
1.47698 0.97338796 0.61499703
1.50955 0.97846496 0.625552
1.5252401 0.97391999 0.62943703
1.52939 0.96364301 0.62787002
1.5399899 0.95872098 0.62880802
1.5097799 0.92835897 0.62174898
1.5477901 1.05261 0.63945603
1.54633 1.04404 0.63562703
1.4525101 0.974729 0.60032201
1.46674 0.97165197 0.60561401
1.5043499 0.977772 0.61719698
1.52536 0.97494501 0.62208903
1.53576 0.96642601 0.62204802
1.5407699 0.95857698 0.62251002
1.51315 0.93163902 0.60853201
1.54875 1.0516 0.63224906
1.54097 1.04067 0.627446
1.4496499 0.97470593 0.59300202
1.45547 0.96930999 0.59517306
1.5194401 0.98101097 0.61348301
1.5276899 0.97389901 0.61477202
1.5290101 0.96288598 0.612019
1.53343 0.95339698 0.61291498
1.5201601 0.93647599 0.60591102
1.5459599 1.0500901 0.62568498
1.5254899 1.0327801 0.61738604
1.4323 0.96583503 0.580423
1.4491701 0.96703798 0.58531702
1.5178101 0.97983396 0.60417801
1.52797 0.97449201 0.60726804
1.52596 0.96183997 0.60435098
1.5338401 0.95526701 0.606004
1.4338601 0.96645898 0.573138
1.45237 0.96824205 0.578511
1.5152699 0.97877699 0.59555602
1.53056 0.97766501 0.60107905
1.5339 0.96698499 0.60000402
1.5352901 0.957223 0.59873205
1.4346601 0.96602994 0.56450701
1.45602 0.96829396 0.57176298
1.5187199 0.98215598 0.58964998
1.5247 0.973728 0.59124601
1.5282 0.96400297 0.59045202
1.53722 0.95946801 0.59175301
1.4286599 0.96427202 0.55461806
1.45778 0.96982497 0.56501901
1.49863 0.97650903 0.57756305
1.52265 0.97531599 0.58314401
1.5332201 0.96761101 0.58493501
1.5392599 0.95994598 0.58409601
1.43531 0.96800596 0.55008298
1.4507401 0.96780401 0.55418003
1.5142999 0.97984803 0.57478404
1.5297099 0.97632402 0.57709402
1.5329601 0.96549201 0.57638502
1.5353 0.95717001 0.57549202
1.44249 0.97127801 0.54522699
1.46658 0.97431296 0.55051303
1.5204101 0.98240799 0.56830603
1.53026 0.97761595 0.57006502
1.53581 0.96965599 0.570463
1.53705 0.95920801 0.56898904
1.46106 0.97964305 0.54315102
1.47218 0.97623497 0.54550004
1.5066701 0.98132497 0.55626398
1.5291499 0.97693002 0.56223202
1.53274 0.96625197 0.56207705
1.5386 0.95962501 0.56129199
1.4831599 0.90405196 0.533216
1.46803 0.88608903 0.52565801
1.4571 0.977817 0.53389299
1.47352 0.97700995 0.53852499
1.52026 0.98383301 0.55287403
1.53047 0.976448 0.55406803
1.5365199 0.96764505 0.55547202
1.5444299 0.96205598 0.55621904
1.4894201 0.90728998 0.52986002
1.47752 0.89192098 0.52443302
1.4818201 0.88314497 0.52269602
1.46681 0.98272496 0.52960002
1.4738901 0.97695398 0.53073305
1.5056701 0.98122197 0.540663
1.52588 0.97635001 0.54505801
1.53851 0.96943003 0.54829806
1.53966 0.95836699 0.54663903
1.49503 0.91012299 0.52550298
1.4821401 0.89283699 0.51877505
1.4890801 0.88459998 0.518062
1.4833299 0.872136 0.51459301
1.4606301 0.97948897 0.51928705
1.48309 0.98066801 0.526191
1.5162899 0.98368102 0.53637999
1.5261099 0.975375 0.53720403
1.5312899 0.96576399 0.53792
1.53787 0.95720202 0.53874499
1.5185499 0.93285501 0.52681398
1.4839599 0.89422303 0.51237202
1.48906 0.88522601 0.51082402
1.49257 0.87680399 0.51138902
1.46892 0.98399001 0.51440603
1.4856 0.98192495 0.51864403
1.5087399 0.98228204 0.52683198
1.52528 0.97676104 0.52984804
1.53198 0.96696699 0.531214
1.5358599 0.95447195 0.52940297
1.51719 0.92842001 0.51813006
1.49834 0.90313798 0.50918102
1.4974899 0.88890404 0.50570101
1.4949499 0.87800598 0.50446802
1.46683 0.98359495 0.50589299
1.4828 0.98198402 0.5104
1.51132 0.983132 0.51928902
1.5310899 0.97871804 0.52381998
1.53714 0.96805 0.52520001
1.54204 0.95749605 0.52450901
1.52741 0.93634003 0.51520604
1.51359 0.91286498 0.50713402
1.5060099 0.89479202 0.50198001
1.49658 0.87881106 0.497141
1.4733901 0.98604798 0.50016803
1.4889799 0.98255801 0.50471604
1.51954 0.98703599 0.51503503
1.5228701 0.97701597 0.51413202
1.53602 0.96940804 0.516469
1.54168 0.95796204 0.51758403
1.53101 0.93936998 0.50906199
1.5225101 0.92012399 0.50260699
1.5095199 0.89807898 0.495401
1.50357 0.88362294 0.49199802
1.47017 0.98531306 0.490228
1.48578 0.98255503 0.49593601
1.5204201 0.98679602 0.50823098
1.53616 0.98187697 0.51210505
1.5371801 0.97053498 0.50898099
1.5417 0.95859802 0.50914305
1.5328101 0.93850499 0.50197703
1.52254 0.91952598 0.49453202
1.5185601 0.90432298 0.491034
1.50933 0.88709903 0.48526803
1.46778 0.985241 0.48124802
1.4743201 0.98031801 0.48397702
1.52321 0.98837304 0.50197905
1.53228 0.98027802 0.50290704
1.53634 0.96782303 0.50057906
1.5364799 0.95242995 0.49822503
1.53246 0.93589801 0.49366102
1.52442 0.91741204 0.48755303
1.5166401 0.89972198 0.48165703
1.5135001 0.88768995 0.47838202
1.47852 0.99036402 0.47855005
1.47978 0.98289001 0.47720301
1.5257499 0.98725504 0.49406001
1.5332201 0.97892898 0.49497002
1.53721 0.969495 0.492668
1.5419 0.95882303 0.493595
1.53504 0.94088 0.48737898
1.5319501 0.92509198 0.48424104
1.52645 0.90736395 0.47772902
1.52268 0.89233804 0.47397202
1.4711599 0.98644996 0.468227
1.4825599 0.98276901 0.469933
1.5142999 0.98662204 0.48164099
1.5325199 0.98078501 0.48701501
1.53606 0.96942198 0.48470303
1.54037 0.95745695 0.484543
1.53795 0.94249701 0.48112899
1.53424 0.92694998 0.47702801
1.5304899 0.90891296 0.470294
1.5296201 0.89579201 0.46875703
1.53382 0.88845199 0.469053
1.47921 0.98976701 0.46282199
1.4893401 0.98404199 0.46496102
1.5220799 0.98738098 0.47669601
1.53573 0.98040605 0.47965702
1.5460899 0.97183198 0.48140702
1.54976 0.96188599 0.48106903
1.5370599 0.94186598 0.473297
1.5303999 0.92210996 0.46577504
1.5328599 0.90935206 0.46352804
1.53868 0.90062797 0.464625
1.53918 0.89100301 0.46415401
1.4665101 0.98438501 0.44973701
1.4858299 0.98481798 0.45608401
1.51623 0.98796201 0.46674702
1.53186 0.98193097 0.470833
1.54138 0.97238702 0.47175601
1.54721 0.96042603 0.47236201
1.5349201 0.93805003 0.46307603
1.5226101 0.91722101 0.45414102
1.53185 0.91067904 0.45693302
1.5398101 0.90232903 0.45706204
1.5445 0.89448601 0.45838302
1.4823899 0.99185401 0.44894001
1.49066 0.98550695 0.44926402
1.5219799 0.98797697 0.46075302
1.53834 0.98239499 0.46522003
1.54496 0.974172 0.46578202
1.5464901 0.96336401 0.46439904
1.54219 0.94658303 0.45954102
1.5245799 0.92120004 0.44780502
1.5294299 0.90800005 0.44784901
1.5247099 0.89252502 0.442615
1.54763 0.89665103 0.45085201
1.48558 0.99282801 0.44144499
1.4955001 0.98878896 0.44390401
1.51529 0.98766404 0.45052403
1.53046 0.981224 0.45448002
1.5410401 0.971425 0.45620903
1.5441099 0.95898199 0.45556003
1.5395 0.94352502 0.45020702
1.5256101 0.92302102 0.44124001
1.52967 0.90901804 0.44071403
1.54299 0.903332 0.444224
1.5352401 0.88883001 0.43655002
1.4812801 0.99139297 0.43286601
1.4949001 0.987679 0.43654501
1.5251601 0.98903102 0.44634101
1.53783 0.98180199 0.44920701
1.54647 0.97366095 0.45002902
1.54483 0.959705 0.44781902
1.53925 0.94428498 0.443129
1.54711 0.90448195 0.438759
1.53166 0.88552999 0.42825302
1.48373 0.99294996 0.42866403
1.52588 0.98913497 0.43845502
1.5375301 0.98328501 0.44181004
1.54694 0.97642899 0.44425201
1.55409 0.96828198 0.444471
1.53759 0.94764602 0.43437901
1.54961 0.90460294 0.43376702
1.53756 0.99407798 0.43471801
1.53719 0.98354399 0.433469
1.5511999 0.97833705 0.43876904
1.55231 0.96640897 0.43558803
1.5347301 0.94681001 0.42514503
1.53977 0.99490303 0.42925504
1.5436301 0.98760396 0.428996
1.5513 0.97847801 0.42996201
1.5487601 0.96512103 0.42694202
1.54834 0.99822402 0.42746699
1.5595399 0.992899 0.42964202
1.5651 0.986103 0.42955101
1.5667999 0.97791898 0.42920601
1.5845101 0.99691004 0.43424302
1.4967101 0.78736299 0.83799696
1.50503 0.78048599 0.83709306
1.4981301 0.767618 0.835177
1.4852099 0.77847099 0.82741499
1.50305 0.77942497 0.83070505
1.5067799 0.77028197 0.82907504
1.50556 0.98162103 0.83923399
1.5211301 0.91966003 0.83621103
1.47412 0.77137703 0.81861001
1.49894 0.77528298 0.82257003
1.50334 0.76593596 0.82134902
1.50017 0.75174302 0.81805801
1.5268899 1.02492 0.83768302
1.49939 0.979011 0.831698
1.5206701 0.97845101 0.83489901
1.5283501 0.97056097 0.83551198
1.5367301 0.96287102 0.83630908
1.54056 0.95073301 0.83639205
1.52811 0.93169504 0.83235306
1.5148801 0.91610497 0.82842803
1.49254 0.77065498 0.81473702
1.50151 0.76359701 0.81400001
1.50056 0.74902803 0.811225
1.51902 1.05027 0.833
1.5379201 1.04764 0.83597702
1.5455499 1.04019 0.83697897
1.52446 1.0240101 0.831815
1.50363 0.98083395 0.82571703
1.5194501 0.977548 0.827268
1.53039 0.97014201 0.82957101
1.54003 0.96126294 0.83070701
1.5363001 0.94664598 0.82797205
1.52871 0.93133199 0.82635003
1.51018 0.91455299 0.82198799
1.49172 0.76731402 0.80720103
1.50726 0.76622701 0.80831003
1.50414 0.75319701 0.80612803
1.5134599 1.0493 0.82579303
1.53705 1.0497 0.82934797
1.5450901 1.04164 0.83038801
1.5248599 1.02475 0.82703203
1.49812 0.97914594 0.81800807
1.5153799 0.97774696 0.82044601
1.53014 0.97190803 0.82195204
1.5353799 0.959961 0.82311201
1.5394599 0.94992399 0.82113504
1.53351 0.93588996 0.82107496
1.50082 0.76093698 0.80081296
1.49709 0.74682701 0.79734802
1.52116 1.05181 0.82112199
1.5380299 1.04854 0.82219905
1.55233 1.0441201 0.82376307
1.50026 0.979599 0.81159806
1.5181301 0.977593 0.81454802
1.5321201 0.972911 0.81538802
1.5362101 0.96092397 0.81548303
1.5431399 0.95196402 0.81586701
1.53631 0.93964404 0.81387705
1.4986 0.75691104 0.79228503
1.4978 0.74555498 0.789222
1.52048 1.0508699 0.81415504
1.5433 1.05136 0.81604707
1.5477 1.04286 0.816746
1.5336701 1.02873 0.81351501
1.4978399 0.978504 0.80407602
1.5182099 0.97762901 0.80741304
1.53576 0.97276002 0.81008303
1.5344599 0.95989996 0.80751997
1.5380701 0.94978696 0.80896807
1.5303501 0.93671 0.80527502
1.49429 0.75281799 0.78384101
1.4973301 0.74546701 0.78259706
1.5272701 1.054 0.80875999
1.5387199 1.05073 0.80907798
1.54759 1.04413 0.81023401
1.5376401 1.03022 0.80776602
1.49651 0.97764504 0.79677504
1.5234101 0.98026198 0.80173707
1.52979 0.97140902 0.80211902
1.5412899 0.96326303 0.801808
1.5360899 0.94865996 0.80104798
1.52668 0.93480104 0.79796904
1.5277499 1.0541 0.802221
1.54459 1.05153 0.80399299
1.54862 1.04232 0.803545
1.53219 1.0271701 0.79985201
1.4997001 0.97897798 0.78958505
1.52145 0.97836995 0.79459602
1.5393 0.97319502 0.79687101
1.5417999 0.96357697 0.79628503
1.54417 0.95437503 0.795941
1.5291499 0.93702501 0.79172301
1.53056 1.0543699 0.79515302
1.54759 1.05099 0.79799604
1.54748 1.0416501 0.79728699
1.5357699 1.029 0.79401505
1.49744 0.979298 0.78214002
1.51897 0.97899902 0.78671402
1.53441 0.97330904 0.78942901
1.5433999 0.96450996 0.79104596
1.5409199 0.952039 0.78840005
1.5288 0.93678904 0.783723
1.5319501 1.05583 0.78793305
1.54053 1.04992 0.79004401
1.5520799 1.04413 0.79246902
1.53107 1.0271801 0.78576905
1.49821 0.979918 0.77615094
1.51039 0.97667605 0.77828401
1.52957 0.973589 0.78153002
1.53627 0.962071 0.78211898
1.5378101 0.94968003 0.78057504
1.5290401 0.93652201 0.77676606
1.5283 1.05469 0.78053004
1.5391999 1.05077 0.78359103
1.54891 1.04373 0.78452402
1.53645 1.0295 0.78076798
1.49949 0.97939599 0.76971
1.5157499 0.97671896 0.77303606
1.53257 0.97138703 0.77453804
1.53327 0.95748901 0.77390897
1.5325501 0.94608706 0.77294803
1.5259399 0.93467599 0.76943702
1.5272701 1.0538601 0.77347505
1.53961 1.05023 0.77728701
1.5511301 1.04514 0.77809602
1.5375999 1.0308599 0.77522904
1.49567 0.97811896 0.76095504
1.5197099 0.97777903 0.76647806
1.53289 0.97150803 0.76754797
1.5388299 0.96229398 0.76831001
1.5328599 0.94716001 0.76622301
1.5186599 0.93156999 0.76150805
1.52272 1.0527101 0.76554704
1.5432401 1.0508699 0.77082604
1.5527699 1.04487 0.772838
1.52362 1.02362 0.76111299
1.49642 0.979029 0.75458097
1.51334 0.97723001 0.75752801
1.5307699 0.97259104 0.76100802
1.53917 0.96450502 0.76237106
1.5374299 0.95214999 0.760463
1.5231 0.93471396 0.75569099
1.52203 1.05285 0.75924605
1.53951 1.05077 0.76249295
1.54222 1.04047 0.76270205
1.5240899 1.02422 0.75660795
1.4991901 0.979541 0.74842298
1.5148101 0.97772902 0.75145006
1.52413 0.971223 0.75269806
1.53534 0.96234399 0.75448501
1.5360401 0.94957399 0.75268906
1.5232899 0.933909 0.74784201
1.5273499 1.0543901 0.75405401
1.53843 1.05059 0.75615305
1.5450701 1.04353 0.75680101
1.52694 1.02598 0.75146604
1.49657 0.97857594 0.74015403
1.5184599 0.97818601 0.74564803
1.53225 0.97111201 0.74746102
1.53731 0.96004403 0.74733901
1.5322099 0.94632101 0.74459404
1.5236099 0.933752 0.74146605
1.5239301 1.05321 0.74592
1.5432299 1.0517299 0.75123101
1.54339 1.04091 0.74907202
1.5280099 1.02593 0.74495608
1.4953599 0.97832298 0.732611
1.5110099 0.97653002 0.73706496
1.52773 0.971569 0.739393
1.53531 0.96246099 0.74089795
1.53925 0.95254207 0.74013704
1.51976 0.93321198 0.73372805
1.52694 1.05462 0.74014503
1.5424 1.0513099 0.74326301
1.54299 1.0406899 0.74190301
1.53251 1.02777 0.73965907
1.49169 0.97705299 0.72456801
1.51522 0.977036 0.73062807
1.5354401 0.97300303 0.73389602
1.5379801 0.96304297 0.73489898
1.53567 0.949736 0.73198599
1.52291 0.93402898 0.72668403
1.5334599 1.05671 0.73525202
1.5463001 1.0535901 0.73794401
1.54556 1.04388 0.73665804
1.5351601 1.03002 0.73289704
1.4927001 0.977902 0.71839797
1.5117199 0.97698301 0.72221601
1.5237801 0.96983701 0.72452199
1.53676 0.96142197 0.726933
1.52797 0.94488096 0.72268903
1.51847 0.93167198 0.71904099
1.53631 1.0578099 0.72861403
1.54528 1.05287 0.731785
1.54673 1.0434101 0.73024905
1.52951 1.02754 0.72365499
1.4984699 0.97966796 0.71299499
1.5089101 0.97565597 0.71499604
1.52288 0.97134501 0.71752703
1.53166 0.96208298 0.71847802
1.53697 0.95142305 0.71843201
1.51428 0.930327 0.71119708
1.52833 1.05531 0.71950203
1.5447999 1.05252 0.72473407
1.54403 1.04178 0.72249103
1.52599 1.0257499 0.71576601
1.48959 0.97609198 0.70293504
1.51432 0.97686303 0.70964599
1.52713 0.96953201 0.71135402
1.53619 0.96057296 0.71233606
1.52397 0.94352204 0.70766306
1.5141701 0.93009597 0.704018
1.53262 1.05704 0.71429199
1.5426199 1.05138 0.71647501
1.54439 1.04116 0.71625501
1.5268101 1.0264 0.70961303
1.49367 0.97877294 0.69696802
1.50754 0.97586799 0.70101899
1.52493 0.97156996 0.70377195
1.53478 0.96287805 0.70587504
1.5295799 0.94877899 0.70262605
1.51819 0.93299699 0.697927
1.5342599 1.05732 0.70796907
1.55004 1.0543901 0.711299
1.54399 1.04221 0.70997602
1.52965 1.0288301 0.70449007
1.49203 0.97818398 0.69035798
1.50981 0.97681201 0.69444704
1.5249499 0.97176903 0.69638097
1.5344 0.96311206 0.69863701
1.52724 0.94705498 0.69458097
1.51143 0.93003702 0.68799001
1.5369099 1.05865 0.701419
1.55022 1.05589 0.705616
1.54935 1.04651 0.70454806
1.4937601 0.97827101 0.68430901
1.5156599 0.97734702 0.68814605
1.5299801 0.97157598 0.69183505
1.52908 0.95920402 0.68980604
1.5289199 0.94728798 0.68767899
1.5074899 0.92815202 0.679456
1.53171 1.05662 0.692994
1.5545 1.05759 0.70040202
1.54198 1.04383 0.694574
1.5096699 1.01895 0.68076402
1.49755 0.97949404 0.67709196
1.5178 0.97828203 0.68146402
1.52782 0.97117698 0.68473208
1.53056 0.96001506 0.68317503
1.52714 0.94657701 0.68008608
1.50714 0.928096 0.67213303
1.53348 1.0576 0.68654996
1.54796 1.05446 0.69137901
1.5343 1.0384899 0.68470603
1.513 1.021 0.67743498
1.49228 0.97815299 0.66848898
1.51502 0.978383 0.67377603
1.52716 0.97150803 0.67762297
1.5315 0.96037203 0.67627305
1.5259399 0.94560301 0.67246705
1.5050399 0.92640799 0.66440004
1.5309501 1.05678 0.67943799
1.5467999 1.05354 0.68339002
1.53596 1.03949 0.67957306
1.5266401 1.02737 0.67659807
1.49586 0.97940397 0.66217202
1.51539 0.97805601 0.66674101
1.5285201 0.97219497 0.67075402
1.52741 0.958197 0.66724604
1.51916 0.94164199 0.663342
1.49814 0.92307001 0.65587699
1.53707 1.05849 0.67421305
1.55188 1.0556901 0.67773801
1.54294 1.0435901 0.67599702
1.49562 0.979747 0.65448797
1.51333 0.97849298 0.65996504
1.52423 0.971165 0.66178703
1.5358 0.963714 0.66266799
1.5303301 0.94937301 0.659926
1.51041 0.92959398 0.65258902
1.53813 1.05923 0.66726404
1.5547099 1.05796 0.67208701
1.54818 1.0471801 0.67025
1.4935899 0.97887903 0.64704496
1.5136099 0.97788805 0.652273
1.53302 0.97257501 0.65673602
1.5360899 0.96163499 0.65665102
1.52669 0.94648302 0.65131807
1.50475 0.926956 0.64349103
1.536 1.05809 0.66073203
1.55591 1.0587699 0.66642499
1.5511301 1.04935 0.66372299
1.4974201 0.98035598 0.64123899
1.5150701 0.978899 0.64548105
1.5271801 0.972417 0.64763308
1.5340199 0.96166497 0.64951497
1.52911 0.94876295 0.64503801
1.5087301 0.92949796 0.637254
1.5530601 1.0563999 0.65923798
1.5506101 1.048 0.65557599
1.4939599 0.97899699 0.63288903
1.51591 0.97864097 0.63835299
1.53204 0.97307503 0.64175707
1.5335001 0.96204597 0.64232802
1.5281199 0.94777703 0.637842
1.50717 0.92836702 0.62876302
1.55502 1.05568 0.65225202
1.5449201 1.0452501 0.64643008
1.5008099 0.98212403 0.62765503
1.5154099 0.97852099 0.63040805
1.5258701 0.97130203 0.63315701
1.53536 0.96243596 0.63582903
1.5234101 0.94508201 0.62857801
1.5098 0.92939597 0.62281305
1.5426601 1.0510399 0.64102906
1.54968 1.04791 0.64107102
1.49071 0.97852403 0.61731201
1.5133001 0.97922599 0.62331402
1.52546 0.97237504 0.62553203
1.5287801 0.960356 0.62640703
1.5289799 0.94920701 0.62327898
1.51138 0.93104696 0.61615199
1.54989 1.05549 0.63593698
1.52843 1.0410399 0.62792104
1.49691 0.98092699 0.61196703
1.5148101 0.97796094 0.616422
1.531 0.97391701 0.62041205
1.5313801 0.96231496 0.61957002
1.52654 0.947469 0.61554503
1.50692 0.92824 0.60669202
1.4746201 0.90100998 0.59131998
1.53262 1.05715 0.624542
1.54478 1.05559 0.62751502
1.49517 0.98056704 0.60409498
1.5067199 0.97630996 0.60675699
1.52391 0.97069097 0.61094099
1.52513 0.95744598 0.61015505
1.5211099 0.94367898 0.60627002
1.4987199 0.92149496 0.59621698
1.47647 0.90150595 0.58677405
1.54203 1.06206 0.62136197
1.5424 1.05593 0.61906099
1.49528 0.98043299 0.596735
1.51954 0.98000503 0.60355604
1.5308599 0.97357595 0.60588098
1.5257499 0.95877296 0.60248202
1.51836 0.94084096 0.59779602
1.4960899 0.92002195 0.58897203
1.5396299 1.0615001 0.61342299
1.54176 1.05505 0.61103499
1.49269 0.97973096 0.58849901
1.51305 0.97933602 0.594437
1.5252099 0.971762 0.59676003
1.53105 0.96195394 0.597054
1.525 0.94750297 0.593265
1.50174 0.92494398 0.58370703
1.47868 0.90468198 0.57575399
1.53957 1.06065 0.60593903
1.5493201 1.05665 0.60665303
1.53859 1.04571 0.60274601
1.50176 0.98267698 0.58419901
1.51923 0.98057199 0.58964002
1.5252 0.97227597 0.58904397
1.5331 0.962569 0.59034997
1.52362 0.94510001 0.58517098
1.50717 0.92800695 0.57791305
1.54371 1.06183 0.59955502
1.55415 1.05813 0.60185903
1.5435001 1.04687 0.59823805
1.4956599 0.98046994 0.57367605
1.52213 0.98136002 0.58290404
1.53148 0.972592 0.58427501
1.53574 0.96369398 0.58438104
1.52811 0.94977999 0.57999802
1.5121001 0.93192202 0.572263
1.54545 1.06303 0.59274501
1.5532601 1.0585901 0.59584004
1.5501 1.04972 0.59332901
1.4975301 0.98184896 0.56741804
1.51709 0.98088402 0.57307905
1.52863 0.97339702 0.57637703
1.5341001 0.96303904 0.57739604
1.52739 0.94829804 0.57203001
1.51065 0.93061996 0.563398
1.54521 1.0633301 0.58555102
1.5560601 1.05981 0.59010702
1.5499001 1.04978 0.58524305
1.5001401 0.98222506 0.56085199
1.51951 0.98074096 0.56641203
1.5254101 0.97326303 0.56829703
1.52924 0.96103102 0.567366
1.52377 0.94531995 0.562886
1.50977 0.92991203 0.55614501
1.4614 0.88567597 0.53008604
1.5480299 1.06458 0.58004403
1.5564301 1.0598999 0.58261102
1.54984 1.0493901 0.57770103
1.5008501 0.98343396 0.55327106
1.51606 0.98032302 0.55828601
1.5260401 0.97211701 0.56095201
1.53596 0.96463203 0.56254804
1.53274 0.95219302 0.55939698
1.51308 0.932293 0.55019403
1.4600799 0.88524497 0.52434999
1.4599 0.87692499 0.52295101
1.54838 1.06401 0.57337803
1.5591999 1.06015 0.57672304
1.5480299 1.04854 0.57001501
1.50034 0.98369497 0.54628199
1.51205 0.980147 0.54960406
1.52851 0.97557402 0.55442202
1.5306599 0.962614 0.55358404
1.53106 0.94977498 0.55053705
1.51752 0.93374002 0.54396504
1.4644001 0.887326 0.52032501
1.4696699 0.88138098 0.52041304
1.4566799 0.86675102 0.51455504
1.54849 1.0639399 0.565247
1.5566701 1.0593699 0.56893802
1.54724 1.0481501 0.562693
1.5027699 0.98407 0.53979701
1.52086 0.98133796 0.54531002
1.5329601 0.97396004 0.54842299
1.53214 0.96130097 0.546489
1.53644 0.95291704 0.54499799
1.51748 0.93197304 0.53553402
1.47741 0.893821 0.51843804
1.4859101 0.88856596 0.51862001
1.4772 0.87595201 0.51549101
1.55187 1.06573 0.55909204
1.55441 1.05872 0.56041104
1.54673 1.0479 0.555852
1.49786 0.98223799 0.53032702
1.51828 0.98146498 0.53654504
1.53282 0.97644895 0.541776
1.53742 0.96526396 0.54129702
1.52984 0.94825101 0.534756
1.51745 0.92935401 0.52750802
1.49933 0.90702003 0.51930106
1.49518 0.89300698 0.51484203
1.48715 0.88019699 0.51142401
1.5518299 1.06601 0.55210298
1.5549099 1.05986 0.55385804
1.55085 1.0503399 0.55076903
1.50703 0.98597002 0.52614301
1.5211301 0.98209101 0.52983803
1.53 0.97423303 0.53286099
1.52888 0.95940399 0.52959204
1.53203 0.94961405 0.528817
1.52552 0.93543899 0.524216
1.51148 0.91488504 0.516105
1.50186 0.89797801 0.51124501
1.4960001 0.88490701 0.50670302
1.5487801 1.0646399 0.54379404
1.5556301 1.05996 0.54728502
1.54591 1.04849 0.54076403
1.5055299 0.98583603 0.51857102
1.5181301 0.982297 0.52156699
1.5324299 0.977314 0.52664602
1.53362 0.96505094 0.52468503
1.53246 0.94970596 0.521496
1.52223 0.93058801 0.51505399
1.5138299 0.91474295 0.50963098
1.5061301 0.899728 0.50464898
1.49692 0.88524199 0.499044
1.5486799 1.06493 0.53648603
1.5532299 1.05882 0.53881299
1.5452299 1.04791 0.53286004
1.50377 0.98538202 0.51103997
1.52291 0.98464304 0.51593202
1.52863 0.97490901 0.51676601
1.5357801 0.963337 0.51729703
1.5351501 0.95062101 0.51435202
1.52651 0.93428701 0.50935304
1.5170399 0.91563398 0.50369799
1.50666 0.89916801 0.497141
1.5022701 0.88777 0.49351901
1.5513099 1.0660399 0.530828
1.5537399 1.05911 0.53091002
1.5464901 1.0484201 0.5266
1.50815 0.98642504 0.505086
1.52607 0.98417097 0.509561
1.5294299 0.97505599 0.50985205
1.53917 0.968364 0.51209503
1.5370599 0.95473701 0.508771
1.53565 0.94131398 0.50592601
1.52593 0.92220098 0.49899402
1.5082099 0.89990306 0.490419
1.5030299 0.887909 0.486375
1.5530701 1.06636 0.52458602
1.5573801 1.06056 0.52550703
1.54838 1.0496399 0.52047998
1.5102 0.98697096 0.49729303
1.5313001 0.98643404 0.50417101
1.5357801 0.97758597 0.50577301
1.54237 0.96824098 0.50578201
1.53556 0.952362 0.500552
1.53607 0.93966502 0.49811202
1.5294 0.923742 0.49185303
1.51438 0.90417099 0.48472103
1.5074 0.89044601 0.481058
1.55319 1.0662301 0.51654303
1.5597301 1.06138 0.51987803
1.546 1.04838 0.51154906
1.51222 0.98834801 0.48983699
1.52508 0.98527801 0.495242
1.5356599 0.97738099 0.49742803
1.5377499 0.96449995 0.49642503
1.5381199 0.95269305 0.49403203
1.53065 0.93676203 0.488204
1.5335801 0.92683703 0.486637
1.52197 0.90944505 0.48032501
1.5209399 0.89831805 0.47890604
1.5555201 1.0676301 0.50993401
1.5549099 1.05946 0.50996602
1.54651 1.04838 0.50471205
1.50696 0.986884 0.47987103
1.52774 0.98573995 0.48851901
1.53808 0.97858 0.49074402
1.54207 0.96748298 0.49031103
1.53503 0.95053297 0.48546901
1.53608 0.93915296 0.48319301
1.52677 0.92255205 0.47696301
1.5208099 0.90806699 0.47329101
1.5066701 0.89098096 0.466407
1.5530499 1.06748 0.50190902
1.5588901 1.0620999 0.50465304
1.54751 1.04978 0.49819902
1.5139199 0.98999703 0.47626799
1.5232 0.98517799 0.47889802
1.53556 0.97771001 0.48204404
1.5404401 0.96719706 0.48191303
1.5399899 0.95357203 0.47952402
1.53205 0.93638003 0.47434902
1.52446 0.921848 0.46836802
1.5562199 1.06856 0.49659002
1.55913 1.06212 0.49729702
1.5510401 1.0509601 0.49125701
1.51051 0.98744398 0.46810099
1.53265 0.98693603 0.47530001
1.54015 0.97959703 0.47648701
1.54178 0.96801496 0.474832
1.5465 0.95645106 0.47407401
1.53327 0.93778998 0.46685302
1.523 0.92232203 0.45883101
1.5548199 1.06734 0.48895401
1.56224 1.06225 0.49137002
1.5483099 1.04962 0.482535
1.5320899 0.98673898 0.46834701
1.5365199 0.978306 0.46778601
1.54382 0.969441 0.46732602
1.5458 0.95866305 0.46755302
1.54203 0.94479203 0.463269
1.5280099 0.925726 0.45435101
1.5273199 0.91542506 0.45107701
1.5539399 1.06713 0.48031804
1.56127 1.06221 0.48399103
1.5498199 1.05059 0.47590899
1.53251 0.98535895 0.45981601
1.5375999 0.97757697 0.46035701
1.54916 0.97277606 0.462578
1.5488499 0.95995599 0.46107402
1.5389999 0.94109398 0.453264
1.5245301 0.92213601 0.44516101
1.5259 0.91441596 0.44291604
1.55769 1.06875 0.47435203
1.5579 1.0613099 0.47507203
1.5471001 1.04961 0.46722001
1.53091 0.98455703 0.45099699
1.5425999 0.98059303 0.45518002
1.5474 0.97085404 0.45465901
1.5488601 0.958453 0.45274502
1.53871 0.94194198 0.44533002
1.53119 0.926341 0.44066602
1.5166701 0.91033697 0.43189603
1.55379 1.06785 0.46529201
1.5583701 1.06172 0.467747
1.54785 1.05021 0.45989701
1.53488 0.98558801 0.44496101
1.5460299 0.98064101 0.44903001
1.5465699 0.969329 0.446123
1.5470799 0.95689797 0.44480202
1.5350101 0.93946898 0.43732101
1.5271001 0.92466301 0.43257701
1.55209 1.06762 0.45800003
1.5616001 1.0633399 0.46126401
1.5461099 1.04915 0.45127702
1.53887 0.98738098 0.43784302
1.5447 0.98016 0.44047502
1.55232 0.97315496 0.44198403
1.54759 0.96034795 0.43800801
1.52984 0.92686701 0.42846802
1.5558901 1.06819 0.45309103
1.56472 1.06371 0.45454103
1.5490401 1.0503 0.44606102
1.53756 0.98737699 0.42965603
1.54936 0.98351198 0.43468902
1.55156 0.97356498 0.43490002
1.5550599 0.96546203 0.43268502
1.56629 1.07128 0.45108101
1.56972 1.06591 0.45089203
1.5592901 1.0549099 0.44530001
1.5447201 0.99036103 0.42666301
1.5490601 0.98425001 0.42771801
1.56032 0.97785103 0.430316
1.55138 0.963202 0.42326
1.5756 1.06841 0.44932503
1.59407 1.01393 0.44010502
1.57636 0.99582702 0.43309903
1.58015 0.987005 0.43177003
1.57964 0.97662598 0.43070504
1.5667 0.96213895 0.42370501
1.5972501 1.0240101 0.43753803
1.61008 1.022 0.44229802
1.6024899 1.00749 0.43698901
1.61101 0.99789202 0.43892699
1.6210899 0.99148202 0.43980399
1.61799 0.98044997 0.43517804
1.6055299 1.0276101 0.43622002
1.60481 1.0190101 0.43383202
1.6005599 1.0070601 0.42795199
1.6059899 0.99720198 0.42918801
1.61342 0.98778999 0.43049103
1.62111 0.98078799 0.43185502
1.6047301 0.96558899 0.42207
1.56463 1.0101399 0.40637803
1.5801101 1.00853 0.41419601
1.5725101 0.995233 0.40647602
1.58163 0.988065 0.41019002
1.5874499 0.97830802 0.410126
1.6069 0.97571999 0.42009103
1.6246699 0.97505498 0.427834
1.55351 0.99749202 0.39253503
1.56532 0.97991204 0.394281
1.4718601 0.77252406 0.83831704
1.49762 0.77315497 0.83982396
1.48672 0.76017797 0.83747101
1.50446 0.77493501 0.83453202
1.50596 0.76669902 0.83372998
1.5117999 0.77630097 0.82779002
1.51476 0.76942706 0.82882303
1.5016999 0.75099897 0.82366103
1.5026401 0.97523099 0.83412099
1.5217799 0.97279602 0.83852106
1.53299 0.96690297 0.83861101
1.53934 0.95765704 0.83929706
1.54914 0.93612504 0.83883303
1.54557 0.92587501 0.83770299
1.49809 0.76925397 0.81785601
1.5072501 0.76353896 0.81997198
1.5057001 0.75024801 0.81782895
1.50099 0.97493899 0.82669902
1.52297 0.972817 0.83163399
1.5381199 0.966748 0.83388603
1.5448101 0.95774102 0.83390307
1.54731 0.946464 0.83327806
1.54843 0.93667394 0.83217001
1.54693 0.927221 0.83150101
1.4872999 0.76434898 0.80890501
1.5086501 0.76483399 0.81300902
1.50977 0.75294995 0.81262201
1.49897 0.97532701 0.81979597
1.5187199 0.97273904 0.82377303
1.5372901 0.96659899 0.82713401
1.5476199 0.95710504 0.82779998
1.5531399 0.94772798 0.82839799
1.5432299 0.93459898 0.82521003
1.54515 0.92664003 0.82397902
1.4857401 0.76299697 0.80226898
1.50278 0.76217198 0.80507004
1.51396 0.756181 0.80658007
1.49455 0.97419298 0.813052
1.5149001 0.97275704 0.81650102
1.5342799 0.96855301 0.81977797
1.5451199 0.95999604 0.82107198
1.5491 0.94825304 0.82120705
1.5424401 0.93414396 0.81826401
1.5363001 0.92284101 0.81555998
1.5039301 0.76129401 0.79821897
1.5116299 0.75600898 0.79968399
1.51193 0.74547201 0.79842699
1.49334 0.97342402 0.80634099
1.5238401 0.97352403 0.81176203
1.5381501 0.967264 0.81434202
1.54804 0.95968497 0.81501305
1.54676 0.94681299 0.81361699
1.5425999 0.93383598 0.81128603
1.53573 0.92258298 0.80953705
1.4934 0.75421405 0.78798902
1.50571 0.75122398 0.79091501
1.51402 0.74579102 0.79141504
1.48803 0.97205901 0.79857397
1.5117999 0.97127199 0.80277705
1.5388901 0.96847099 0.80790198
1.54704 0.95894796 0.80817902
1.5453501 0.94646001 0.80660599
1.54337 0.93541604 0.80487603
1.53773 0.924164 0.80340904
1.49798 0.74666494 0.78186005
1.4974099 0.97427201 0.79348296
1.5186701 0.97117501 0.79751897
1.54528 0.968822 0.80269504
1.54136 0.95644897 0.80043405
1.54391 0.94564599 0.79990095
1.54422 0.93514705 0.79902506
1.5365801 0.92381698 0.79589599
1.4942 0.97327596 0.78519702
1.5177699 0.97204 0.79054701
1.5382 0.96699405 0.794532
1.54041 0.95500296 0.79364896
1.5408299 0.943537 0.79334801
1.5427699 0.93454301 0.792162
1.53231 0.92217201 0.78812701
1.49283 0.973804 0.77818406
1.5116299 0.97116899 0.78251207
1.5379699 0.96975499 0.78830504
1.53903 0.95836198 0.78704804
1.54321 0.946163 0.78712302
1.5414 0.93379205 0.78522599
1.53433 0.92270106 0.78202403
1.4916701 0.97370303 0.77194303
1.51053 0.97158402 0.77564204
1.53336 0.96760297 0.78029501
1.54054 0.95631105 0.77989
1.54216 0.94352502 0.77981508
1.5402299 0.932423 0.77889407
1.53283 0.92222399 0.77528405
1.4921899 0.97312897 0.76543802
1.52117 0.97262704 0.77125603
1.5340199 0.96462995 0.773049
1.5479201 0.95897299 0.77521205
1.54173 0.94598395 0.77282602
1.54339 0.934798 0.77342904
1.52772 0.920941 0.76742601
1.4967599 0.97445798 0.75891
1.50868 0.97021896 0.76226103
1.53606 0.968086 0.76677507
1.5385699 0.95578599 0.76703399
1.54138 0.94570297 0.766738
1.54164 0.93534601 0.76601601
1.5270599 0.92078501 0.76025701
1.49228 0.973427 0.75080198
1.51271 0.97071505 0.75612605
1.5366901 0.96802497 0.760571
1.53987 0.95795798 0.76021105
1.5414599 0.94585901 0.76098406
1.54168 0.93488801 0.75889504
1.5253301 0.92002195 0.75296402
1.4905701 0.97327697 0.74420601
1.5125 0.97153503 0.74865401
1.53591 0.967399 0.754264
1.54526 0.95943999 0.75521904
1.54355 0.94749999 0.75425303
1.5382899 0.933604 0.75112605
1.52722 0.92080802 0.74663603
1.48991 0.97299498 0.73738098
1.5155799 0.97212195 0.74241805
1.52939 0.96687698 0.74621302
1.53825 0.95754504 0.74748099
1.54202 0.945889 0.74667299
1.53619 0.93230498 0.74368596
1.52687 0.920008 0.73990703
1.48961 0.97329497 0.73069197
1.5124699 0.97221899 0.73549604
1.53064 0.966304 0.73928201
1.54057 0.95652699 0.74116498
1.5421699 0.94533998 0.73935503
1.53563 0.93127996 0.73686701
1.52025 0.91742206 0.73221701
1.48851 0.97253996 0.72338808
1.5205001 0.97271103 0.73064303
1.53071 0.965819 0.73256898
1.54085 0.95818198 0.73448801
1.54607 0.94875002 0.73359406
1.5442101 0.936827 0.73257005
1.52413 0.91975898 0.72720397
1.4891901 0.97293401 0.71659303
1.5094 0.97086304 0.72076601
1.5331399 0.96655405 0.72684306
1.54259 0.957452 0.72825599
1.5413201 0.94575995 0.72582102
1.53825 0.93372297 0.72547102
1.51864 0.91763395 0.72049105
1.48966 0.97285402 0.70990098
1.5109801 0.97184402 0.71496201
1.52837 0.96787399 0.71873903
1.5424 0.95915902 0.72133303
1.5409801 0.94695002 0.71843505
1.54504 0.93856597 0.720438
1.49105 0.97269601 0.70287508
1.51489 0.97245198 0.710006
1.5345 0.96796 0.71360308
1.53736 0.95671999 0.71259201
1.53768 0.94587302 0.71061498
1.5436901 0.93945903 0.71333504
1.49143 0.97272903 0.69615096
1.5169901 0.97209394 0.703264
1.53851 0.967843 0.70832705
1.5351199 0.95574301 0.70522302
1.54084 0.94703102 0.70466501
1.5412601 0.93882596 0.70571405
1.52126 0.97383201 0.69654304
1.5295399 0.96582299 0.69953001
1.53896 0.95662999 0.69928408
1.5366499 0.945355 0.69783503
1.5441099 0.94008905 0.69924301
1.49354 0.97358298 0.68188101
1.51948 0.973234 0.68894899
1.53011 0.96623701 0.69239306
1.53965 0.95747 0.69230103
1.54233 0.94769204 0.69367796
1.54268 0.93951499 0.69152904
1.4944099 0.97438794 0.67540801
1.51132 0.97179604 0.68077904
1.5339199 0.96779406 0.68573499
1.53319 0.95447195 0.68364406
1.53922 0.94637704 0.68585801
1.5398599 0.93796998 0.68367201
1.4895101 0.97344595 0.66697603
1.5120101 0.97127801 0.67402601
1.53768 0.969051 0.68020707
1.5381199 0.95771796 0.678523
1.53528 0.94465101 0.67749196
1.5379801 0.937051 0.67707801
1.48598 0.97291297 0.65988702
1.5085601 0.97171205 0.66541803
1.52907 0.96614802 0.67103106
1.53851 0.95725602 0.67159301
1.53822 0.94677103 0.67115098
1.53698 0.93722898 0.67077804
1.48823 0.97352499 0.65422404
1.51045 0.97267199 0.65902406
1.5216299 0.96643996 0.66186404
1.53801 0.95989901 0.66552401
1.5439399 0.95022601 0.66592807
1.5381 0.93836898 0.66338897
1.4945799 0.97453797 0.64849401
1.51659 0.97306502 0.65489107
1.5273499 0.96605003 0.65663201
1.5394701 0.95812899 0.65891999
1.5362899 0.94577301 0.65622801
1.53722 0.93742698 0.65589905
1.4991001 0.97617203 0.64177305
1.5147001 0.97189796 0.64719301
1.5344599 0.96649396 0.65190506
1.5406799 0.95726198 0.65279406
1.53553 0.946527 0.64912105
1.5390199 0.93871397 0.64935404
1.49263 0.97502601 0.63252002
1.5128101 0.97251803 0.63907301
1.5283501 0.96717399 0.64395499
1.53791 0.95820999 0.645432
1.53618 0.94625503 0.64273405
1.5366901 0.93748999 0.64105105
1.4946699 0.97555399 0.62711805
1.5115199 0.97261703 0.63128603
1.5290101 0.96635401 0.63688701
1.54102 0.95752096 0.63956904
1.53556 0.94513601 0.63522202
1.53154 0.93524599 0.63320202
1.49777 0.97583097 0.62185001
1.5127699 0.97267604 0.62507802
1.5281799 0.96710604 0.62859499
1.5337199 0.956002 0.630418
1.53939 0.94727302 0.62915903
1.53622 0.93747598 0.62840801
1.51954 0.973499 0.61984599
1.52802 0.96530801 0.621014
1.5362899 0.95642799 0.62354106
1.54207 0.94794601 0.62382001
1.5372 0.93816102 0.62134504
1.4982001 0.97543502 0.60601306
1.51712 0.97331202 0.611485
1.5291901 0.96674895 0.61489099
1.53687 0.95744902 0.616597
1.5377201 0.94653296 0.61609203
1.5339999 0.93678004 0.61333603
1.49277 0.97411799 0.59787798
1.51493 0.973786 0.60493201
1.52979 0.96846396 0.60804302
1.53496 0.95784205 0.60892403
1.54079 0.94893098 0.61040401
1.53496 0.937567 0.60673201
1.5182401 0.97385901 0.59848803
1.5369201 0.97016406 0.60388201
1.5365199 0.95945197 0.60251302
1.5397999 0.94800204 0.60227001
1.5356599 0.93763 0.599944
1.49157 0.97400099 0.58300704
1.5172701 0.97453904 0.59013301
1.52988 0.967053 0.59455305
1.53863 0.95692199 0.595815
1.54704 0.94952101 0.59714901
1.53424 0.93709898 0.59275502
1.49568 0.97644502 0.57769305
1.51671 0.97555703 0.58312303
1.52492 0.96758699 0.58537203
1.5350701 0.95808798 0.58742899
1.5419099 0.94929099 0.58931601
1.54333 0.94095904 0.58843803
1.50091 0.97900802 0.57143199
1.5188299 0.97432703 0.57721102
1.5335801 0.96713996 0.58119702
1.5372 0.95777398 0.58130801
1.54168 0.94915301 0.581761
1.53853 0.93912399 0.57940805
1.47831 0.98148501 0.55631101
1.4945599 0.97820997 0.56210303
1.5188401 0.97653097 0.57108301
1.52273 0.96581703 0.57013702
1.53785 0.95755303 0.57498205
1.5428101 0.94901705 0.57533801
1.54082 0.94023699 0.57320303
1.4724699 0.98138499 0.54719305
1.49195 0.97829002 0.55437201
1.51451 0.97488195 0.56268001
1.5306599 0.968211 0.56520903
1.53193 0.95683295 0.56532198
1.5413901 0.94886702 0.56843203
1.53843 0.93927693 0.56449103
1.47771 0.89652395 0.53485
1.4736 0.98229301 0.54106903
1.4894501 0.97883302 0.54591399
1.51703 0.97530699 0.55561304
1.53444 0.968413 0.55961901
1.53477 0.95846999 0.55962402
1.53957 0.94827199 0.55958104
1.5317199 0.93620598 0.55476201
1.48288 0.898404 0.53183401
1.4636099 0.88351995 0.52327299
1.4784801 0.98320198 0.53570801
1.4929299 0.97980696 0.54043001
1.5136 0.97645205 0.54707205
1.53311 0.96963096 0.552387
1.54019 0.95916498 0.55453402
1.54302 0.94913203 0.55366904
1.5313001 0.93491203 0.54697698
1.48681 0.90031701 0.52740198
1.4741 0.88740599 0.52214801
1.4746001 0.87833804 0.51924103
1.4710499 0.98149699 0.52486902
1.50245 0.98190004 0.53691304
1.52625 0.97722507 0.54404002
1.5372 0.96942496 0.54658902
1.54027 0.960841 0.54789501
1.5431399 0.94993502 0.54712403
1.52694 0.93141198 0.53704
1.50317 0.90964895 0.52721703
1.4780201 0.88827902 0.51679498
1.48508 0.88042903 0.51638204
1.4803799 0.86978501 0.51240402
1.47418 0.9831 0.51914805
1.4936 0.98082101 0.52585405
1.5236501 0.97877097 0.53576601
1.5350701 0.96958899 0.53908801
1.54256 0.96056199 0.54189801
1.53756 0.94654602 0.53688401
1.5301601 0.932212 0.53097302
1.51278 0.91417003 0.52355599
1.49394 0.8937 0.51527804
1.4869299 0.87949097 0.51045805
1.4841299 0.87019098 0.50656801
1.48023 0.98399901 0.514045
1.5039301 0.98166901 0.52237201
1.5271801 0.97910202 0.53016901
1.5340199 0.970734 0.53119397
1.5408299 0.95945299 0.53309101
1.5334101 0.94338095 0.52764302
1.5289501 0.93166399 0.52440101
1.5238 0.91983497 0.52110898
1.50832 0.90189201 0.51343298
1.49227 0.88283402 0.50520205
1.4819599 0.86960703 0.49812803
1.47808 0.98366201 0.50492799
1.50158 0.982032 0.514148
1.5269001 0.97836602 0.52326
1.5457699 0.97397596 0.52913904
1.53862 0.96107101 0.524728
1.54171 0.948686 0.52366501
1.53166 0.93186796 0.51883703
1.52219 0.91652495 0.51361603
1.5058 0.89861602 0.504556
1.49159 0.88191903 0.496847
1.4807601 0.86925906 0.491025
1.47961 0.98482496 0.49822199
1.4982201 0.98262 0.50597501
1.52088 0.97862506 0.51307702
1.5376601 0.97053802 0.51892501
1.5471201 0.96089602 0.52040899
1.5499699 0.95074099 0.51943403
1.53564 0.93475997 0.51265699
1.5262399 0.91779 0.50748903
1.5044501 0.89686304 0.496277
1.4940699 0.88326204 0.49140102
1.4807401 0.98525703 0.49216801
1.49911 0.98252404 0.49875301
1.5263499 0.97973001 0.50694203
1.5311799 0.97039002 0.50905502
1.54106 0.96105003 0.51084799
1.55461 0.954355 0.51577401
1.54821 0.941383 0.51106
1.5383201 0.92574698 0.50497603
1.51377 0.90367502 0.49240503
1.4978 0.88708603 0.48577502
1.4833299 0.985457 0.48634902
1.5067799 0.98317903 0.493377
1.53002 0.98021007 0.50190806
1.53765 0.97136998 0.50364405
1.5408299 0.95942098 0.50278801
1.5514901 0.95254999 0.50758004
1.53978 0.93643403 0.50011504
1.53739 0.92343301 0.49672601
1.5152099 0.90434301 0.48469698
1.5060401 0.89204496 0.481567
1.4866201 0.98575896 0.47885305
1.5092599 0.98376 0.48670903
1.52899 0.97924101 0.494845
1.5447 0.97366798 0.49980801
1.54574 0.96320397 0.49793601
1.54434 0.94913805 0.49656802
1.54182 0.93571699 0.493918
