# .PCD v0.7 - Point Cloud Data file format
VERSION 0.7
FIELDS x y z
SIZE 4 4 4
TYPE F F F
COUNT 1 1 1
WIDTH 1756
HEIGHT 1
VIEWPOINT 0 0 0 1 0 0 0
POINTS 1756
DATA ascii
1.502 1.0832 1.637568
1.49568 1.11667 1.6232018
1.4677401 1.1162 1.6146741
1.4847 1.0998501 1.6236
1.3975 0.92044997 1.606806
1.4868699 1.11024 1.61534
1.49831 0.95692003 1.6329551
1.47144 0.95405996 1.623847
1.46867 0.94294196 1.623961
1.4554601 0.93396795 1.620304
1.4426401 0.92492402 1.616868
1.4162101 0.91828203 1.608516
1.41725 0.90649694 1.6098529
1.50105 1.15429 1.6032131
1.51082 1.10244 1.61617
1.51465 1.0121601 1.6249231
1.49812 1.00626 1.620079
1.4884501 0.99623197 1.61772
1.4930201 0.98086405 1.6217951
1.4917901 0.96872598 1.624025
1.4873199 0.95953202 1.623747
1.4656501 0.95335996 1.616598
1.44636 0.94582802 1.610229
1.43855 0.93559802 1.609206
1.42419 0.92724198 1.6042621
1.42142 0.91541702 1.605369
1.41767 0.90427297 1.603544
1.50622 1.13993 1.600724
1.47597 1.0609699 1.5973849
1.4879601 1.04615 1.604355
1.4944999 1.0304799 1.6097831
1.50202 1.01583 1.615085
1.4984699 1.00503 1.6151599
1.4896699 0.99662101 1.6124899
1.48552 0.98583299 1.6126339
1.48975 0.97073901 1.6164269
1.4638901 0.96382898 1.60798
1.43652 0.95868403 1.598645
1.42968 0.95011002 1.597164
1.4324299 0.938205 1.599786
1.4248101 0.92863297 1.596846
1.4214301 0.91672099 1.5974209
1.4154299 0.90614897 1.595126
1.5246899 1.08313 1.606313
1.48037 1.05907 1.5942261
1.49261 1.04276 1.601119
1.5016299 1.0272499 1.6069111
1.50023 1.01573 1.6078869
1.4953901 1.0050499 1.607103
1.48843 0.99453497 1.605477
1.49331 0.98076898 1.6095349
1.49871 0.96989501 1.6127121
1.4662801 0.96495104 1.600567
1.4490601 0.95714301 1.5957891
1.4374299 0.94746202 1.593315
1.4258901 0.93829501 1.5900861
1.42032 0.90305901 1.5907471
1.5250599 1.0819401 1.600567
1.5078599 1.07403 1.594853
1.4937601 1.0531601 1.592682
1.49974 1.0381501 1.5975729
1.50492 1.02486 1.6018451
1.50229 1.01421 1.6010159
1.49503 1.0033799 1.59973
1.49095 0.99316496 1.5990191
1.4828 0.98526102 1.598223
1.48943 0.97124803 1.6016879
1.47539 0.96234 1.596481
1.4663 0.95352399 1.594836
1.52723 1.0904499 1.591758
1.5211301 1.0810701 1.591987
1.4999299 1.02738 1.592448
1.49551 1.01749 1.590076
1.4990699 1.0052301 1.594174
1.4951199 0.99427497 1.59308
1.49132 0.98190397 1.594257
1.49272 0.97042704 1.596004
1.48208 0.96290803 1.592291
1.47727 0.95128304 1.591306
1.4292599 1.0895 1.7076669
1.42688 1.07762 1.706902
1.4580799 1.10068 1.707966
1.4472901 1.09338 1.7047701
1.43742 1.0854 1.70392
1.43004 1.07657 1.7031219
1.45924 1.0993299 1.7007
1.4569299 1.0901101 1.700341
1.4450999 1.08198 1.698844
1.4363 1.07205 1.6981931
1.4824899 1.18124 1.6842511
1.47804 1.17365 1.6842231
1.4783701 1.16181 1.6861042
1.45261 1.16258 1.67862
1.4562 1.10016 1.6922461
1.46597 1.08595 1.6950971
1.45252 1.07943 1.6933341
1.44618 1.06941 1.693956
1.4748 1.17575 1.6775601
1.4724699 1.16637 1.678676
1.47183 1.15426 1.680323
1.4693899 1.14149 1.680087
1.4720399 1.12512 1.682827
1.46524 1.1136 1.6820831
1.4604499 1.09962 1.6850479
1.46718 1.08576 1.689026
1.4590601 1.07784 1.687753
1.47929 1.1720099 1.6729699
1.4719 1.16688 1.6721511
1.4728999 1.15352 1.673985
1.46504 1.14183 1.67182
1.4670799 1.12704 1.675657
1.46635 1.11369 1.6758701
1.4635201 1.1011699 1.677919
1.46492 1.0867 1.681891
1.47743 1.16133 1.6682891
1.4676801 1.1535 1.6657159
1.46492 1.1399 1.6659201
1.4683099 1.12511 1.669469
1.4691901 1.11242 1.670892
1.4654601 1.10221 1.671486
1.4654601 1.0871 1.6739631
1.4688499 1.0720301 1.6757431
1.49374 1.15139 1.668954
1.46161 1.1285601 1.6617621
1.46658 1.11317 1.665239
1.47648 1.09342 1.670451
1.47426 1.079 1.6705991
1.53052 1.15969 1.648916
1.5478799 1.11894 1.6603379
1.5025001 0.961169 1.6704969
1.4837199 0.96085501 1.664286
1.5164101 1.15705 1.637899
1.54327 1.13006 1.652037
1.5430701 1.1195099 1.6532849
1.54825 1.1092601 1.656476
1.4944 0.965101 1.6609399
1.48667 0.96095598 1.6582611
1.5440899 1.11992 1.6486771
1.49388 0.96721399 1.651978
1.4846201 0.96251798 1.6487421
1.5021499 1.1557599 1.6202201
1.4901601 0.97979599 1.64016
1.49261 0.96772301 1.6437869
1.4804201 0.96222901 1.6397439
1.50169 1.0274401 1.627915
1.4939599 1.0188301 1.6275799
1.49851 1.00495 1.631503
1.48593 0.99668294 1.6287891
1.4864501 0.98328501 1.6315271
1.4965199 0.96834099 1.6382041
1.4785 0.96313596 1.6322479
1.4869 0.94872594 1.6364239
1.4691299 0.94266403 1.6289749
1.50474 1.1520801 1.604228
1.4671201 1.10543 1.5971899
1.4561599 1.10045 1.5948139
1.46172 1.0856199 1.59914
1.46576 1.07031 1.602949
1.4860201 1.04715 1.6138572
1.49035 1.03334 1.617905
1.4941701 1.0207499 1.6221241
1.48463 1.01176 1.62052
1.48435 0.99944997 1.6212939
1.48343 0.987158 1.623005
1.4930201 0.96953398 1.6291611
1.4784 0.96263802 1.6253101
1.4751899 0.95218801 1.6254691
1.46663 0.94268203 1.6222589
1.4536999 0.93391502 1.618356
1.43218 0.91926497 1.6120529
1.47137 1.10341 1.59375
1.4550101 1.09129 1.5911441
1.46255 1.07555 1.595551
1.4825599 1.05349 1.605443
1.48722 1.03798 1.609552
1.49063 1.02167 1.6134629
1.48786 1.0084701 1.615123
1.48943 0.99493897 1.6162931
1.4855 0.98291397 1.617341
1.4978 0.96714896 1.6239971
1.47841 0.962789 1.618259
1.45473 0.95757896 1.6100961
1.43827 0.95027804 1.605011
1.4295501 0.94047403 1.602515
1.4307699 0.92862397 1.6058459
1.42484 0.92161006 1.603405
1.5281 1.08682 1.6054519
1.46892 1.0706099 1.591172
1.4853799 1.04995 1.5996161
1.49198 1.03363 1.6041391
1.49427 1.01963 1.605957
1.4893299 1.00774 1.607536
1.49332 0.99292099 1.610076
1.48554 0.983872 1.609538
1.4928399 0.96871203 1.6154199
1.462 0.96633601 1.603436
1.43494 0.96185499 1.5951291
1.42873 0.95179605 1.594525
1.4188499 0.943703 1.590802
1.41982 0.93224406 1.594691
1.4316701 0.91986197 1.599797
1.52651 1.08597 1.599036
1.50897 1.08085 1.593133
1.4898 1.0454299 1.594079
1.49465 1.0302501 1.5978439
1.49895 1.01747 1.6011621
1.49386 1.0079399 1.600503
1.49243 0.99479401 1.602381
1.4924699 0.98188102 1.604563
1.4867101 0.97067904 1.6047
1.4623801 0.96651399 1.5952569
1.45092 0.95806903 1.5930499
1.49342 1.0195301 1.591936
1.4898599 1.0089 1.591773
1.4897 0.99689698 1.593013
1.4911901 0.98319 1.5964261
1.48867 0.97235197 1.5978259
1.4733701 0.96564102 1.592373
1.4646801 0.95477599 1.5900559
1.45678 1.0927401 1.7095599
1.44767 1.08623 1.7088449
1.4345599 1.08345 1.7062939
1.45638 1.10437 1.699513
1.46329 1.0896 1.7042691
1.44882 1.0844799 1.701835
1.4391201 1.0794899 1.7012
1.5058 1.1799999 1.6914051
1.45893 1.1041 1.6920379
1.46078 1.09153 1.695204
1.45841 1.07888 1.6970471
1.4468601 1.0720301 1.6958771
1.4920399 1.17655 1.6827381
1.4731899 1.17556 1.6775501
1.4660699 1.1668 1.6771702
1.46513 1.1539199 1.677725
1.4635201 1.1381401 1.678201
1.46138 1.1221399 1.68033
1.44819 1.11402 1.68038
1.46022 1.09462 1.6869102
1.45806 1.0802 1.688143
1.47329 1.17336 1.6711321
1.4674699 1.16461 1.671542
1.4703701 1.1473 1.6737421
1.46664 1.13249 1.6740711
1.4670399 1.11845 1.6768711
1.4621401 1.10762 1.678004
1.46612 1.08966 1.6810681
1.4789599 1.1679 1.667244
1.4690601 1.1616 1.6660581
1.4756501 1.14113 1.6701081
1.4786301 1.12374 1.672686
1.46869 1.11683 1.671634
1.47084 1.10044 1.6738141
1.46763 1.0868 1.673511
1.47307 1.0695601 1.677299
1.48167 1.10692 1.670316
1.47307 1.096 1.668147
1.4713 1.0852 1.668324
1.4706799 1.0735 1.6697949
1.4815601 1.07795 1.667153
1.4874699 0.97701699 1.6741561
1.47584 0.96887296 1.6708341
1.48244 0.99064201 1.659649
1.4848 0.97676802 1.664852
1.49287 0.99668097 1.6546829
1.47495 0.99642801 1.6490539
1.4834801 0.97957098 1.6554471
1.4778199 0.96752298 1.6565441
1.4516499 0.96750903 1.6484131
1.44222 0.96102303 1.647575
1.4818801 1.0040001 1.6425619
1.47381 0.997679 1.6420041
1.48289 0.98190904 1.647449
1.47703 0.97120696 1.647662
1.46153 0.96564794 1.644433
1.48194 1.01807 1.6315091
1.48151 1.0054699 1.63442
1.4785899 0.993981 1.6370292
1.4789101 0.98055899 1.6396641
1.4680901 0.97339201 1.6368289
1.46087 0.96673501 1.635546
1.45785 1.11604 1.598502
1.45216 1.10877 1.598551
1.4516701 1.0955 1.600612
1.4522301 1.0796499 1.603599
1.4642301 1.05779 1.6113189
1.4793601 1.03459 1.621008
1.4781599 1.02309 1.6222
1.4820501 1.0076799 1.626987
1.47826 0.99558699 1.62822
1.4781599 0.98036599 1.6314031
1.4558901 0.97825795 1.62423
1.43366 0.97948194 1.61571
1.45749 1.1174901 1.5916741
1.45312 1.1078501 1.5931602
1.4433399 1.0996701 1.5914371
1.4469501 1.08522 1.5956799
1.4563401 1.06625 1.6014689
1.48177 1.0364 1.6140689
1.48174 1.0215 1.616405
1.4810899 1.0099601 1.619382
1.4791901 0.99781096 1.620327
1.4809599 0.98191297 1.623158
1.45926 0.97914904 1.6184371
1.4592301 0.969266 1.6197422
1.46464 1.06012 1.597442
1.48067 1.0384101 1.6050931
1.48298 1.02324 1.6090491
1.48243 1.00841 1.612226
1.4829201 0.99312299 1.613822
1.4852901 0.979406 1.6175369
1.4752901 0.97379899 1.616998
1.5063601 1.0945899 1.5954181
1.46995 1.0560501 1.591471
1.48746 1.03207 1.6004319
1.48734 1.01675 1.6039281
1.48769 1.00293 1.6069931
1.4799401 0.99526197 1.6045709
1.48472 0.98079699 1.6095002
1.51397 1.0903801 1.5906022
1.48698 1.03264 1.592658
1.48903 1.01853 1.595392
1.4862 1.0039901 1.598042
1.48411 0.99081004 1.5992349
1.48481 0.98029703 1.600546
1.4833 0.99331003 1.5910699
1.4844501 0.98120099 1.593876
1.4885899 0.97089994 1.596485
1.46136 1.10457 1.703931
1.4614199 1.09419 1.707332
1.4537899 1.08689 1.704242
1.46673 1.1026 1.696671
1.45763 1.09584 1.6975991
1.45603 1.08331 1.6970761
1.4524699 1.07515 1.698259
1.4739701 1.16047 1.678136
1.46918 1.15135 1.679092
1.4632001 1.14204 1.6797141
1.4636199 1.12711 1.682381
1.45179 1.11707 1.682368
1.46258 1.0928 1.689887
1.4593899 1.07932 1.691041
1.45323 1.07261 1.6919101
1.46452 1.1670099 1.669395
1.47767 1.1465 1.6759629
1.46789 1.13789 1.6756411
1.46735 1.12103 1.678183
1.4726 1.10102 1.682699
1.4712601 1.08692 1.684443
1.4578999 1.08184 1.683396
1.48037 1.1438401 1.670984
1.47317 1.13535 1.670329
1.4697099 1.12281 1.6718221
1.4735299 1.1047699 1.6752191
1.46916 1.09118 1.676203
1.4960999 1.11941 1.672869
1.47903 1.11564 1.6691141
1.4851899 1.09374 1.673918
1.48194 1.0789499 1.675665
1.48011 0.97968298 1.6794571
1.4798599 1.0032099 1.66671
1.48674 0.97508502 1.6737289
1.4765199 1.0042601 1.65806
1.4811301 0.98879099 1.663415
1.4918201 0.97237098 1.668494
1.4882801 1.0247899 1.648504
1.47803 1.0059301 1.650643
1.4767599 0.99344999 1.653854
1.48475 0.97802496 1.6590509
1.47991 1.04451 1.6347189
1.48787 1.02753 1.6407559
1.48535 1.0147899 1.643714
1.4866099 1.00079 1.6465249
1.4766999 0.99544603 1.6454141
1.48928 1.12139 1.6140021
1.46876 1.12071 1.6090649
1.46394 1.10953 1.6093881
1.45807 1.09699 1.6091471
1.4861301 1.0524299 1.6280441
1.47888 1.04723 1.6271521
1.48814 1.03029 1.6338151
1.48421 1.01904 1.634849
1.4821 1.00483 1.6374521
1.48271 0.9932 1.639673
1.5054801 1.1123999 1.613562
1.4707201 1.1184 1.604072
1.4651401 1.10506 1.6043049
1.45509 1.0961699 1.602544
1.45486 1.08236 1.605173
1.47606 1.05167 1.6180921
1.48763 1.03058 1.626626
1.4926 1.01265 1.6314459
1.48944 1.0001301 1.6340851
1.4633099 1.1087 1.5964971
1.4624001 1.0933599 1.597885
1.4526801 1.08496 1.5976011
1.46893 1.06022 1.6063861
1.48138 1.03712 1.6147391
1.51302 1.0941 1.6030141
1.4694 1.1020501 1.590845
1.45846 1.0808799 1.591819
1.4742399 1.05501 1.6003079
1.49526 1.0306801 1.609839
1.5163001 1.09174 1.5961239
1.48289 1.04914 1.5953729
1.4955299 1.0310501 1.6024981
1.4906399 1.04511 1.591022
1.39929 1.00165 1.709713
1.39078 1.01158 1.709131
1.38332 1.02403 1.7090201
1.4108 0.99641401 1.703385
1.3992701 1.00455 1.701694
1.39143 1.01603 1.701447
1.38765 1.0296 1.702732
1.3857001 1.04324 1.706645
1.42056 0.998218 1.6986569
1.40617 1.00517 1.69522
1.39476 1.0141799 1.6935391
1.3866299 1.02583 1.6929269
1.3841001 1.04177 1.6965342
1.39297 1.0653501 1.706351
1.39584 1.08181 1.7098019
1.41228 0.99593699 1.686499
1.4031 1.0058999 1.6850231
1.39548 1.01729 1.686311
1.38828 1.02625 1.6846421
1.38582 1.04041 1.6878101
1.38614 1.05876 1.6924481
1.3902299 1.0775 1.6993991
1.3958299 1.09361 1.7037162
1.4342599 0.99381799 1.686443
1.4125501 0.99580401 1.6776669
1.4060899 1.0064601 1.677019
1.3968201 1.01706 1.6776309
1.38857 1.0292801 1.6769149
1.39056 1.04742 1.6831011
1.38788 1.05984 1.684092
1.3889101 1.0758799 1.689538
1.4049801 1.10014 1.7004791
1.4263099 0.98857003 1.6733639
1.4150101 0.99887395 1.6698599
1.4047999 1.00852 1.6697811
1.39662 1.0191001 1.668537
1.3893601 1.02926 1.668887
1.3901401 1.0454299 1.673649
1.39916 1.06881 1.6820489
1.39665 1.0811599 1.685385
1.4802999 0.96134496 1.67507
1.4428 0.98286903 1.666826
1.42616 0.98972297 1.6636331
1.41236 0.99745202 1.6596351
1.4069099 1.00998 1.6618781
1.4024899 1.02209 1.662822
1.39772 1.03426 1.664728
1.3970599 1.05083 1.668419
1.40525 1.07149 1.6769431
1.4875901 0.96612799 1.6711141
1.4512601 0.98695898 1.6611551
1.43032 0.990206 1.6558051
1.4213201 1.0010099 1.6553601
1.4084899 1.0080301 1.6535431
1.40344 1.0221601 1.654694
1.39617 1.03488 1.6564041
1.4030401 1.05334 1.663385
1.45987 0.97979403 1.654194
1.45575 0.99240094 1.654892
1.44004 0.99528098 1.651691
1.4267999 1.00239 1.648676
1.4144901 1.0123 1.6473739
1.4007201 1.0202301 1.642966
1.39768 1.0332 1.647997
1.40994 0.91195101 1.613364
1.45151 0.96066999 1.639263
1.4511399 0.97290701 1.6418412
1.4572901 0.99171996 1.6480991
1.4423399 0.99841905 1.643936
1.41864 1.00148 1.637218
1.40843 1.01115 1.636324
1.40284 1.0215499 1.634648
1.39582 1.03181 1.6361191
1.41295 1.0664099 1.64472
1.4000701 0.89670599 1.600355
1.40183 0.90937895 1.602998
1.4108701 0.92895401 1.609526
1.4246899 0.95194507 1.6204571
1.45399 0.99205399 1.638992
1.44247 0.99858904 1.634643
1.42845 1.0039001 1.631842
1.41739 1.01455 1.630932
1.4103 1.02586 1.6297791
1.39851 1.03415 1.628069
1.4031 1.0558699 1.6342889
1.4024299 1.0703399 1.6363071
1.4116901 0.90537202 1.597173
1.40019 0.90907401 1.594537
1.40381 0.92509902 1.5989031
1.4031 0.93823504 1.60131
1.4332401 0.98200601 1.620244
1.4326401 0.99472803 1.6231821
1.42811 1.00656 1.623865
1.4150901 1.0155001 1.620869
1.40593 1.02571 1.62121
1.40063 1.0362899 1.62089
1.3958501 1.0490201 1.6220911
1.39291 1.0628901 1.625054
1.3925101 1.0742401 1.6276071
1.40606 0.93997496 1.594245
1.41198 0.96200502 1.599944
1.4316001 0.99393898 1.6139661
1.4271699 1.00783 1.615322
1.41365 1.0133799 1.610527
1.40802 1.027 1.6135919
1.39774 1.0363201 1.612639
1.3904899 1.04486 1.6110071
1.3856701 1.05599 1.6128531
1.37709 1.0623699 1.613
1.4136901 0.96386302 1.5927701
1.41974 0.98234499 1.5986431
1.42142 1.00249 1.603296
1.40987 1.00995 1.601328
1.40505 1.0213799 1.6024121
1.40045 1.03651 1.604924
1.3916299 1.04681 1.6040871
1.3963799 1.06372 1.6102481
1.42688 0.99116403 1.5939881
1.42179 1.00387 1.5944141
1.4158901 1.0148101 1.5967
1.4088 1.02733 1.595932
1.40054 1.03877 1.5970379
1.4072099 1.05647 1.6020441
1.41682 1.06205 1.5957789
1.42513 1.07206 1.591109
1.44129 1.11752 1.594575
1.45478 1.14466 1.5967109
1.46699 1.13907 1.591637
1.4907299 1.1577201 1.5926061
1.4070799 0.99821299 1.7096591
1.39828 1.00492 1.7077789
1.3909199 1.0147099 1.707197
1.3846899 1.0261799 1.707168
1.4073 0.99772 1.7001001
1.3951601 1.0030999 1.697517
1.39254 1.01571 1.699389
1.3835601 1.02625 1.6974549
1.3873399 1.0433 1.703458
1.4142101 0.99958199 1.694378
1.39832 1.0051999 1.691107
1.3956599 1.01694 1.6925712
1.3877499 1.02555 1.6910181
1.3839 1.03944 1.6921921
1.38894 1.05834 1.699196
1.38586 1.07234 1.7013751
1.4253 1.00199 1.691205
1.4024899 1.0038099 1.683378
1.39498 1.01586 1.683719
1.38889 1.02913 1.6833121
1.3806701 1.03801 1.682753
1.38669 1.05462 1.6889459
1.3887 1.07174 1.6934671
1.39256 1.0901799 1.699038
1.39791 1.1055501 1.7065539
1.44376 0.98485601 1.6859649
1.43502 0.99563301 1.6857629
1.41466 0.99816298 1.6783389
1.4041901 1.00736 1.676311
1.3964101 1.01916 1.675294
1.3960099 1.03329 1.679098
1.38729 1.0417199 1.6783441
1.3961 1.06302 1.6856641
1.39522 1.07883 1.6883911
1.3922701 1.09047 1.691041
1.3917301 1.10023 1.694416
1.42957 0.99242997 1.6740509
1.4153501 1.00043 1.671077
1.40251 1.0074401 1.6668531
1.39494 1.01829 1.6653351
1.39123 1.03038 1.669255
1.39179 1.04608 1.67225
1.4035699 1.06875 1.6808749
1.4042599 1.08227 1.6838629
1.39396 1.0889801 1.684068
1.43401 0.98085403 1.665014
1.43435 0.99517 1.667776
1.4150701 0.99930298 1.6614661
1.4001499 1.00783 1.657315
1.3913901 1.0174299 1.655699
1.39519 1.03394 1.6625141
1.3968201 1.05041 1.66719
1.41531 1.0759701 1.6792761
1.4224401 1.094 1.687037
1.44031 0.98291397 1.6583029
1.4272701 0.99208397 1.6565131
1.41693 1.00016 1.6538471
1.4079 1.00885 1.651778
1.39468 1.01704 1.6490039
1.38956 1.02862 1.650345
1.3952 1.0462101 1.6580529
1.42773 1.08656 1.68093
1.48423 0.97053903 1.663298
1.46461 0.98172402 1.658067
1.4511 0.98795503 1.6541131
1.4399099 0.99729502 1.6529911
1.41988 1.0023201 1.6473072
1.40888 1.00975 1.644364
1.3997099 1.0175 1.6427139
1.39257 1.02873 1.642102
1.3937199 1.04196 1.64705
1.39612 0.89965796 1.608143
1.40827 0.92130601 1.614939
1.4565101 0.96551698 1.64399
1.4569701 0.97851598 1.647041
1.45441 0.99142098 1.647734
1.4435099 0.99768603 1.646224
1.42899 1.00402 1.64209
1.41351 1.01258 1.638193
1.3987601 1.0201 1.635123
1.39714 1.0324199 1.635653
1.39136 1.04274 1.6358761
1.4297 1.08626 1.654916
1.39982 0.90338206 1.603175
1.4002401 0.91702497 1.605124
1.4263699 0.94583803 1.62054
1.4466799 0.97192198 1.633515
1.45918 0.99269301 1.6425421
1.4464301 1.00042 1.639521
1.4230599 1.00304 1.631036
1.41514 1.01326 1.6294141
1.40418 1.02315 1.628481
1.3965601 1.0352401 1.6282151
1.39607 1.04962 1.6304879
1.4114799 1.07244 1.6405569
1.42134 1.0904 1.647532
1.40326 0.896909 1.597255
1.3985499 0.90569603 1.5956241
1.39554 0.91693199 1.5957221
1.4098599 0.93711799 1.605222
1.42178 0.956765 1.6132629
1.45151 0.991552 1.631418
1.44295 1.0016 1.630372
1.4237 1.00473 1.6226511
1.4143699 1.0155101 1.6220211
1.4015801 1.02143 1.619048
1.39742 1.0326 1.619509
1.39328 1.0455201 1.621774
1.39148 1.05836 1.62298
1.4008 1.07568 1.6312571
1.4026101 0.93274999 1.593768
1.41522 0.95390701 1.6021119
1.4314901 0.97850502 1.612721
1.4416901 0.99972898 1.621371
1.42457 1.00335 1.614242
1.4186599 1.01465 1.614897
1.40548 1.02293 1.6126941
1.3931301 1.03037 1.608992
1.39283 1.04518 1.6130569
1.38553 1.05431 1.611861
1.39271 1.06959 1.618892
1.4096401 0.94950598 1.591269
1.42176 0.97176802 1.5988201
1.42698 0.99149299 1.6055951
1.4229801 1.00533 1.6063839
1.41327 1.01525 1.605003
1.40132 1.02377 1.602755
1.3984101 1.03686 1.604767
1.3978101 1.0503501 1.6080749
1.4010201 1.0631601 1.6120762
1.42533 0.96192098 1.590085
1.42075 0.972462 1.59073
1.42237 0.98733199 1.5940241
1.4289 1.0054699 1.601005
1.4165699 1.0131199 1.597512
1.4061501 1.02356 1.5955011
1.3969901 1.03268 1.5959411
1.39511 1.0449901 1.597856
1.44726 0.97333002 1.5904311
1.42624 1.0050701 1.5920351
1.41268 1.02956 1.5901401
1.4077699 1.0393699 1.5925951
1.40107 1.04691 1.590255
1.46024 1.11028 1.607872
1.44006 1.09674 1.593304
1.4558901 1.11989 1.602652
1.46109 1.13822 1.6072971
1.4443099 1.11034 1.591216
1.4539701 1.13234 1.598073
1.4612499 1.15096 1.5954111
1.49317 1.14851 1.592988
1.3902 1.01349 1.7077341
1.3823199 1.03678 1.7092261
1.4082201 0.99969202 1.7057849
1.4002401 1.00634 1.703706
1.39073 1.01336 1.699499
1.3860201 1.02485 1.702026
1.37968 1.0345 1.699863
1.38392 1.0510601 1.7049381
1.41133 1.00032 1.698841
1.4030401 1.00611 1.696571
1.39358 1.01355 1.692526
1.38679 1.02544 1.69313
1.3804899 1.0371701 1.693454
1.38728 1.0534999 1.6980361
1.38825 1.06761 1.702481
1.38762 1.08038 1.7053369
1.4179699 1.00331 1.694208
1.4000101 1.00534 1.686192
1.3906701 1.0145099 1.6836849
1.39235 1.0283 1.6877952
1.38508 1.03879 1.686937
1.38757 1.05365 1.69093
1.38405 1.0639701 1.691916
1.3897799 1.08046 1.6978781
1.39817 1.09627 1.704275
1.4092799 0.99731302 1.679559
1.40073 1.0070601 1.678368
1.39123 1.0144 1.6762179
1.38983 1.02639 1.678499
1.38625 1.0388401 1.677986
1.3908501 1.0561299 1.6851751
1.39528 1.0728099 1.6909021
1.40271 1.08911 1.6962609
1.40799 1.10223 1.700007
1.44259 0.98131597 1.681609
1.43718 0.99250197 1.6825241
1.41891 0.99780405 1.6748959
1.40539 1.0050701 1.6714959
1.39554 1.01582 1.670012
1.3915801 1.0288401 1.671464
1.38541 1.03749 1.669495
1.38845 1.05215 1.67442
1.40364 1.07582 1.686089
1.4214901 1.0990599 1.6972061
1.4338601 1.11576 1.7054551
1.4436301 0.98461306 1.6756799
1.4302499 0.99119902 1.6708721
1.41688 0.998613 1.6666291
1.40528 1.0069699 1.663649
1.3963901 1.01573 1.6613339
1.39017 1.02741 1.661962
1.38931 1.0415 1.665271
1.39885 1.0596601 1.6721691
1.42379 1.08687 1.6871899
1.44151 1.1084 1.6992559
1.4799401 0.97136706 1.678376
1.44332 0.98474902 1.6669971
1.4242101 0.99066198 1.6601111
1.4123501 0.99901998 1.656828
1.4053199 1.00955 1.6560391
1.39557 1.01776 1.6543319
1.3903 1.02772 1.6528281
1.39105 1.0419999 1.658128
1.40908 1.0655301 1.668687
1.4287 1.08838 1.680792
1.48377 0.97388196 1.6729779
1.46807 0.97977602 1.6663809
1.455 0.98781502 1.6630441
1.43364 0.992724 1.655845
1.42099 0.99996299 1.6528771
1.41228 1.0099701 1.6502539
1.39859 1.0186599 1.6474969
1.3919001 1.0283799 1.646072
1.3919001 1.0427101 1.6489611
1.4150901 1.0696399 1.6633481
1.43581 1.0906501 1.675547
1.4732801 0.97366202 1.6601861
1.46338 0.98017198 1.6560581
1.46312 0.99060899 1.658779
1.4480001 0.99782801 1.653405
1.4243801 1.00207 1.64589
1.4115601 1.01052 1.6415051
1.4073801 1.0207 1.643132
1.39456 1.02948 1.6393051
1.3924 1.0436599 1.640286
1.40536 1.06283 1.6500341
1.4231 1.08268 1.6616651
1.3968201 0.90824997 1.609169
1.4054401 0.92708397 1.6143179
1.43476 0.95393097 1.630531
1.45892 0.97770697 1.6461389
1.45903 0.99076104 1.6489441
1.4602699 1.00421 1.651127
1.4379401 1.00594 1.6431601
1.4182601 1.01116 1.6365891
1.4065801 1.02113 1.634055
1.39526 1.02933 1.6313729
1.3924299 1.04096 1.6317981
1.3970101 1.0573699 1.637326
1.3975199 1.06801 1.6409689
1.3942101 0.89624399 1.6002541
1.3926899 0.90583903 1.6014121
1.39423 0.919972 1.6029181
1.4111301 0.94017196 1.6123761
1.45609 0.97740197 1.63772
1.45433 0.98772502 1.6391791
1.4579101 1.00376 1.6423581
1.4330601 1.0066 1.6338751
1.415 1.0122399 1.626992
1.39731 1.01687 1.6220291
1.39742 1.02957 1.6246511
1.3933001 1.04082 1.623746
1.38789 1.05115 1.6244712
1.3845799 1.06077 1.6254959
1.4019099 0.899997 1.5967599
1.39648 0.90906602 1.595578
1.3923301 0.92106104 1.5944971
1.40211 0.93698698 1.601223
1.4107001 0.95220804 1.60606
1.4590801 0.99339402 1.6347721
1.46216 1.00658 1.636849
1.43592 1.00708 1.6268342
1.41556 1.0114 1.618104
1.4036099 1.01982 1.6176519
1.39842 1.03119 1.6167121
1.39396 1.04425 1.61685
1.3842 1.05188 1.6161121
1.3799001 1.0590301 1.6144431
1.4268299 0.91157097 1.597374
1.3946201 0.93371499 1.5901041
1.4049201 0.95137101 1.5966361
1.41287 0.96741301 1.601373
1.4549201 1.00454 1.6278641
1.4279699 1.00411 1.614759
1.4174 1.01161 1.610921
1.4047 1.0198101 1.609134
1.39451 1.03067 1.606373
1.3854201 1.04019 1.605031
1.38697 1.05304 1.6094699
1.3754401 1.05625 1.6039331
1.40977 0.96698302 1.5933051
1.4169999 0.98557401 1.5991141
1.42978 1.00624 1.607762
1.41278 1.01193 1.6017261
1.40241 1.0212101 1.6006171
1.39808 1.03184 1.5994461
1.38942 1.0398 1.599463
1.38228 1.04928 1.5987109
1.38491 1.06128 1.59981
1.41517 0.982054 1.590233
1.4250101 1.00279 1.5967889
1.41645 1.0136399 1.5949
1.4105999 1.0250801 1.5956869
1.40439 1.03608 1.594924
1.39487 1.04356 1.594797
1.39562 1.05711 1.596175
1.3903199 1.06497 1.594259
1.3986099 1.0701699 1.590628
1.44682 1.11589 1.602758
1.4303 1.10298 1.590387
1.4513299 1.1297001 1.600692
1.4447 1.1132599 1.5901849
1.45892 1.13683 1.5986099
1.47123 1.13193 1.597168
1.40579 1.00467 1.7099249
1.4000599 1.01375 1.7092041
1.39414 1.02332 1.708642
1.38836 1.0352501 1.706594
1.38238 1.0462201 1.7057769
1.41631 1.00643 1.7062812
1.39902 1.0140799 1.70108
1.3924299 1.02477 1.700011
1.3842101 1.03308 1.695747
1.3856701 1.0464901 1.699586
1.38591 1.05943 1.702642
1.38632 1.07217 1.705351
1.41616 1.00704 1.6978351
1.40504 1.0147799 1.694857
1.39382 1.02459 1.6922431
1.3869901 1.0338401 1.689941
1.38311 1.04427 1.6896781
1.38385 1.0578099 1.693513
1.385 1.07022 1.6969889
1.39406 1.08645 1.703396
1.4209501 1.00693 1.6932791
1.4111999 1.01513 1.689483
1.40019 1.0241899 1.686348
1.3884101 1.0344599 1.682717
1.38745 1.04786 1.684348
1.38269 1.05664 1.6853
1.38934 1.07243 1.6911459
1.4008701 1.09097 1.6985739
1.4187601 1.10913 1.7084661
1.41923 1.0071601 1.684184
1.4037601 1.0148001 1.6776379
1.3974899 1.02597 1.677768
1.3900701 1.0351501 1.674286
1.3865199 1.04662 1.67625
1.38629 1.05922 1.679986
1.4006799 1.07919 1.6887621
1.4085201 1.09523 1.6940759
1.42891 1.11308 1.7048981
1.44941 0.980268 1.6829751
1.44973 0.99197197 1.687265
1.43828 1.00105 1.6830481
1.41517 1.00615 1.6731759
1.4022701 1.01337 1.6681399
1.3969901 1.0246199 1.6689169
1.38922 1.03423 1.665561
1.38629 1.0453 1.667529
1.38731 1.05793 1.672258
1.42401 1.09331 1.6933911
1.4333299 1.10627 1.698717
1.44986 1.12166 1.7081311
1.44973 0.98124701 1.675364
1.4407899 0.98996902 1.6749381
1.42977 0.99922699 1.670583
1.41433 1.0068001 1.664333
1.39863 1.0144401 1.6596479
1.3907001 1.0237 1.658331
1.3884801 1.0334101 1.6576351
1.3858399 1.04403 1.6588941
1.3867301 1.05513 1.6618719
1.4438699 1.10236 1.696246
1.43888 1.10804 1.694968
1.4611099 0.98337996 1.6725079
1.4439101 0.99199599 1.66761
1.42302 0.998694 1.659407
1.4173 1.00735 1.6582681
1.4056799 1.01425 1.654534
1.39797 1.026 1.653146
1.39236 1.03798 1.652778
1.39091 1.0494 1.654231
1.3965801 1.06074 1.6585071
1.4418601 1.1010801 1.6894439
1.46689 0.986215 1.6667349
1.4497501 0.99250603 1.6611301
1.4341201 1.0004699 1.6563281
1.4168601 1.0074401 1.65074
1.4079201 1.0176899 1.6479489
1.39226 1.0239 1.641767
1.39228 1.03606 1.644344
1.39456 1.0503501 1.647782
1.39948 1.0629901 1.6520129
1.4726601 0.98665297 1.661929
1.4624499 0.99564797 1.6586471
1.4506 1.00495 1.6549381
1.4291701 1.0098001 1.6482019
1.4138499 1.0168 1.6424811
1.39808 1.0237401 1.63683
1.3925101 1.03433 1.6361911
1.3948801 1.04862 1.639166
1.40223 1.06405 1.645847
1.4236901 1.08296 1.65843
1.4151199 0.94242305 1.619362
1.4630799 0.975339 1.648313
1.4687101 0.98897499 1.6522779
1.4626601 0.99918002 1.651409
1.4654601 1.00999 1.654255
1.42694 1.0106 1.638676
1.41388 1.01977 1.6347309
1.3970701 1.02659 1.6289771
1.39572 1.03924 1.6305979
1.3951801 1.04953 1.632226
1.38907 1.05597 1.630643
1.4164 1.08022 1.6495981
1.39825 0.90125197 1.6033161
1.39703 0.91002703 1.6041409
1.3943499 0.92332399 1.603492
1.3981 0.936728 1.6064529
1.43031 0.96061599 1.624017
1.4576401 0.98366702 1.6390409
1.4609801 0.99742895 1.642563
1.46103 1.0100399 1.6452651
1.43528 1.01252 1.6336219
1.42076 1.0195099 1.6294461
1.4010299 1.02491 1.6224151
1.3991799 1.0381501 1.6234571
1.39288 1.04809 1.624115
1.38331 1.0529599 1.6192451
1.4412301 0.90646899 1.6135111
1.4126401 0.90600997 1.602957
1.39774 0.91258001 1.5978371
1.39653 0.92599505 1.598255
1.39666 0.93695801 1.599375
1.39887 0.94626898 1.60281
1.45592 0.98397398 1.6303971
1.4617599 0.99639201 1.635304
1.4619 1.0102401 1.6366102
1.43059 1.01316 1.6244659
1.4145 1.01964 1.6198361
1.4064701 1.0292 1.6169161
1.3973399 1.03778 1.6153359
1.39405 1.04785 1.6159741
1.38157 1.0529 1.6102271
1.42573 0.90974599 1.602725
1.40029 0.91152799 1.591992
1.39827 0.94697404 1.5943991
1.43955 0.97947603 1.614079
1.46129 0.99890196 1.6278881
1.46595 1.01201 1.630726
1.44108 1.0140799 1.6209731
1.4201699 1.02033 1.613833
1.4082 1.02896 1.60897
1.40231 1.04002 1.610641
1.3915401 1.0481 1.6062751
1.3837199 1.0543901 1.6044931
1.41821 0.96816599 1.596525
1.42785 0.98420405 1.602074
1.45778 1.01021 1.6204721
1.4344901 1.01344 1.6105831
1.4219 1.02149 1.606212
1.4081 1.02798 1.600993
1.40069 1.03883 1.600976
1.3969901 1.0500901 1.6000661
1.38737 1.05542 1.5989211
1.42213 0.982521 1.592757
1.43376 1.00104 1.6008999
1.43253 1.01414 1.602572
1.42228 1.02195 1.598783
1.40776 1.02977 1.5935501
1.39856 1.04054 1.59241
1.40365 1.05327 1.59636
1.3952099 1.0580699 1.5939591
1.51586 1.14832 1.6510211
1.48755 1.1452401 1.6391251
1.4531101 0.96839797 1.5918601
1.43059 1.01199 1.594008
1.45581 1.10794 1.611342
1.49674 1.14073 1.6375971
1.47781 1.14258 1.6296459
1.47543 1.15072 1.6286621
1.4337801 1.0964299 1.5961289
1.4369999 1.10944 1.599223
1.43375 1.12183 1.6002259
1.44793 1.13963 1.6100571
1.44538 1.14722 1.6104339
1.43692 1.12052 1.5944411
1.4373 1.13387 1.5980819
1.43808 1.14415 1.6003411
1.4380499 1.1334701 1.591665
1.44584 1.14799 1.597391
1.4595101 1.1315 1.591808
1.3798801 1.02688 1.707864
1.3791901 1.04062 1.7093691
1.39702 1.00734 1.706048
1.38423 1.0164601 1.7004629
1.3783901 1.0265499 1.697866
1.3815199 1.03923 1.7022641
1.37975 1.051 1.703228
1.3868699 1.06515 1.7087109
1.40845 1.00123 1.702085
1.38843 1.00798 1.693574
1.38254 1.01809 1.6920429
1.3824099 1.02774 1.693302
1.37871 1.03646 1.692688
1.37866 1.04853 1.694402
1.37679 1.0602601 1.695343
1.38164 1.07381 1.699653
1.38246 1.0839701 1.701802
1.4118899 1.0019699 1.695532
1.3993499 1.0092601 1.690719
1.3847799 1.01704 1.6854661
1.3850101 1.0286499 1.6881469
1.37703 1.03852 1.6841021
1.3842 1.05379 1.689905
1.38529 1.06642 1.6922171
1.3872701 1.07813 1.6948761
1.38923 1.08717 1.697155
1.4157201 1.0035399 1.689502
1.4046299 1.00948 1.6845529
1.38788 1.01712 1.6786911
1.37951 1.0271 1.677352
1.3812801 1.0395 1.677583
1.3817 1.05064 1.680724
1.38446 1.0630699 1.6836261
1.3842999 1.07486 1.685149
1.3956701 1.08885 1.6921279
1.4185899 1.00296 1.682917
1.4080299 1.0098001 1.677811
1.3946201 1.01817 1.673063
1.3874699 1.0298101 1.672758
1.3812399 1.03959 1.670794
1.38343 1.05169 1.6735032
1.3944401 1.06828 1.681596
1.40046 1.08132 1.685397
1.4124299 1.0955 1.691579
1.43604 1.11239 1.703542
1.4513099 0.98486501 1.687295
1.4219099 1.00263 1.6765081
1.39757 1.00834 1.665222
1.38866 1.01723 1.6627749
1.39245 1.02969 1.6662329
1.39205 1.04237 1.6693109
1.3887399 1.05231 1.667624
1.3959801 1.06766 1.6738919
1.41774 1.0877 1.685894
1.42721 1.10068 1.691272
1.44345 0.98295701 1.6754111
1.43624 0.99370104 1.674404
1.4159501 1.00143 1.665499
1.4001499 1.00827 1.658639
1.3949699 1.01913 1.65819
1.39311 1.03043 1.6590521
1.39126 1.04145 1.660359
1.39474 1.0555 1.6633381
1.4043601 1.0711399 1.6695751
1.4288299 1.09187 1.6830609
1.4414999 1.10593 1.689929
1.44433 0.98616701 1.6685212
1.4324001 0.99580401 1.664451
1.40925 1.00161 1.654856
1.39993 1.0099 1.6522231
1.39622 1.0190799 1.650784
1.3947799 1.03123 1.652137
1.39582 1.0448899 1.6552169
1.3968899 1.0570201 1.6564511
1.4129801 1.0746701 1.6650949
1.44938 1.10097 1.6854669
1.44673 1.10778 1.685299
1.47637 0.97889197 1.6750009
1.45787 0.98714399 1.666275
1.4378799 0.99521798 1.65864
1.4160299 1.00177 1.650007
1.4045 1.01132 1.646759
1.40107 1.02211 1.646526
1.39873 1.0321 1.6455741
1.3951199 1.04426 1.6460071
1.39455 1.05776 1.647415
1.42237 1.07893 1.6618171
1.44172 1.0963501 1.673577
1.4540801 1.10973 1.6818351
1.47648 0.980968 1.6674302
1.46097 0.98867399 1.658712
1.45153 0.997967 1.656839
1.43104 1.0045301 1.6490229
1.4130499 1.0120701 1.642092
1.4005001 1.0218101 1.6384289
1.3907601 1.03187 1.634703
1.38403 1.0412999 1.6324191
1.38711 1.0532399 1.6359562
1.39271 1.06575 1.6398691
1.4353999 1.09445 1.6643201
1.4591299 1.11064 1.677173
1.47246 0.98188698 1.656249
1.46512 0.989694 1.652456
1.4585899 0.99963301 1.652169
1.43493 1.00431 1.64354
1.42168 1.01228 1.637928
1.4028599 1.02025 1.630448
1.39586 1.0304 1.6298571
1.3858701 1.03947 1.625582
1.38503 1.0510501 1.62763
1.38552 1.0623001 1.6283611
1.39416 1.07409 1.6339011
1.4619 1.11198 1.6728641
1.4104401 0.90357 1.6132569
1.41342 0.91612297 1.613963
1.4061199 0.93793797 1.611266
1.46513 0.97236198 1.6446609
1.4700199 0.98142797 1.6475769
1.4627401 0.98955202 1.6437241
1.4614999 0.999717 1.6459961
1.4407699 1.0067099 1.638286
1.4121801 1.01273 1.6256219
1.39842 1.01991 1.621334
1.3947799 1.02986 1.6213281
1.3845 1.03903 1.6168829
1.38328 1.05089 1.6189481
1.37336 1.05925 1.6150061
1.37403 1.06802 1.6167761
1.403 0.90305299 1.6042871
1.39605 0.91211504 1.600628
1.39369 0.92341399 1.600578
1.3919001 0.93468004 1.5995841
1.41445 0.95086998 1.610477
1.46433 0.980344 1.63714
1.4621401 0.990264 1.6361371
1.4619299 1.0016201 1.638481
1.4350301 1.0078 1.627291
1.4170899 1.0147099 1.619994
1.4018401 1.0214601 1.616125
1.39222 1.03097 1.611807
1.3875 1.04277 1.6114841
1.3791299 1.05268 1.6097171
1.3708999 1.06011 1.607751
1.38117 1.07126 1.612092
1.3995799 0.90520102 1.594875
1.40028 0.91371298 1.5958389
1.3984801 0.92384803 1.596082
1.38627 0.93390298 1.590109
1.40725 0.95010805 1.6014071
1.42922 0.968126 1.6128811
1.45367 0.98719805 1.625368
1.45903 0.99925303 1.629517
1.44741 1.00776 1.6251889
1.4240401 1.01362 1.615611
1.40649 1.0221801 1.6093341
1.39351 1.03026 1.604991
1.3916401 1.04066 1.6053109
1.3892 1.05352 1.605728
1.37782 1.0617 1.603694
1.39297 1.07503 1.609597
1.4097501 0.90755701 1.592095
1.4001601 0.95881897 1.592484
1.43556 0.98228502 1.6093609
1.44993 0.99854898 1.6184851
1.44005 1.0079 1.6149249
1.41908 1.01351 1.6058321
1.4087601 1.02227 1.601851
1.3987 1.03168 1.5999991
1.3940101 1.04375 1.5984629
1.3921001 1.05577 1.599326
1.3847001 1.06361 1.599072
1.39961 1.07698 1.6050791
1.4125501 0.97346395 1.5912579
1.41153 0.98554999 1.591449
1.43468 1.0056701 1.6043539
1.4201699 1.01474 1.5981311
1.40703 1.02406 1.594339
1.39811 1.034 1.5921381
1.39095 1.04239 1.590049
1.39314 1.05415 1.5920621
1.39373 1.06617 1.595598
1.40457 1.07795 1.600659
1.42864 1.0055001 1.5941291
1.42342 1.0137 1.5915951
1.44171 1.09999 1.6052741
1.44024 1.0991 1.599192
1.4582801 1.1147599 1.6084439
1.43806 1.1207299 1.6005651
1.4428301 1.13486 1.6042681
1.43896 1.14547 1.6041471
1.4367599 1.10781 1.5930901
1.43469 1.12 1.5928379
1.44244 1.13552 1.598506
1.4476401 1.1514499 1.6026471
1.44347 1.14685 1.5932961
1.45869 1.14319 1.5922251
1.4558001 1.15417 1.592502
1.5561999 1.14905 1.692621
1.4596001 1.11095 1.7076199
1.46526 1.09839 1.702828
1.4508901 1.0909899 1.7088281
1.54304 1.13056 1.667063
1.44645 1.1139901 1.7054371
1.46121 1.1009101 1.697511
1.4675101 1.08795 1.694627
1.46609 1.0748401 1.6933991
1.45123 1.06522 1.699725
1.48004 0.97702301 1.6789929
1.5502901 1.13389 1.6595889
1.5336099 1.12921 1.6630831
1.4658099 1.13185 1.688658
1.46049 1.1226799 1.690604
1.4558501 1.11271 1.6937381
1.45663 1.1024899 1.6916431
1.4716201 1.08574 1.6846341
1.4728999 0.99017 1.676873
1.4856 0.97648001 1.670452
1.5309 1.13613 1.659685
1.52713 1.12887 1.6590469
1.49317 1.12782 1.6724679
1.46383 1.12392 1.683974
1.45284 1.1145201 1.687259
1.46023 1.09887 1.682695
1.4706 1.08439 1.6771671
1.48215 1.0715899 1.672538
1.4745101 0.990502 1.66854
1.4788001 0.97794801 1.6665201
1.54265 1.12371 1.646009
1.5177799 1.1237999 1.656323
1.45892 1.12316 1.679698
1.44955 1.11545 1.681759
1.4541701 1.10344 1.6783431
1.4647 1.08736 1.6726419
1.4802099 1.071 1.665905
1.46995 1.00192 1.664673
1.48032 0.986965 1.6589261
1.4772 0.97528398 1.659533
1.4603599 1.12095 1.673305
1.4442 1.11691 1.6788239
1.4280701 1.11246 1.6843231
1.4615101 1.08938 1.66651
1.4744 1.0746499 1.6607032
1.46823 1.00432 1.6581241
1.48098 0.99039197 1.6518592
1.47911 0.977494 1.650943
1.51991 1.10852 1.6376281
1.4862199 1.10349 1.6494061
1.48163 1.09311 1.6516659
1.47496 1.0839801 1.653338
1.47868 1.0707099 1.6517861
1.48092 1.05811 1.648831
1.48926 1.04538 1.644843
1.48621 1.03527 1.645054
1.48349 1.0233899 1.6466839
1.4798599 1.0131301 1.6458631
1.4750199 1.00251 1.647922
1.47943 0.98927301 1.644716
1.4852099 0.97627699 1.6405139
1.47158 0.96712703 1.646427
1.48627 1.10395 1.643648
1.4763401 1.09543 1.647584
1.47638 1.08478 1.6455251
1.4737601 1.07243 1.645627
1.48194 1.05792 1.641243
1.4794 1.0477201 1.642638
1.47895 1.03714 1.640546
1.4815401 1.02355 1.6391101
1.4724699 1.0126899 1.642532
1.47235 1.0014499 1.641472
1.4810899 0.98799002 1.6366
1.48506 0.976125 1.633448
1.47771 0.96703905 1.637229
1.47039 0.95697898 1.6389951
1.45313 0.949844 1.645267
1.5020399 1.1013 1.6304691
1.4790699 1.09456 1.6392459
1.47281 1.08385 1.6403311
1.47082 1.07322 1.638842
1.4738699 1.06185 1.6383051
1.47826 1.0486901 1.6356671
1.48083 1.03465 1.6323559
1.4854 1.02213 1.630408
1.4758 1.0122 1.6336169
1.47495 0.99982101 1.6336709
1.48049 0.987553 1.6294519
1.48566 0.97578204 1.627014
1.4788499 0.96663803 1.629843
1.46369 0.95834196 1.6352561
1.4609399 0.94869798 1.6370001
1.4497701 0.94204903 1.6412162
1.4918699 1.0932701 1.6275312
1.47867 1.0832801 1.6311511
1.4545799 1.07627 1.6381739
1.4714301 1.06153 1.6323841
1.47576 1.0483201 1.628629
1.48224 1.03469 1.6238931
1.4782201 1.02298 1.6260211
1.4766499 1.0110099 1.6254261
1.4714 1.00132 1.6280811
1.48087 0.98872101 1.622247
1.47765 0.97749704 1.6232691
1.46734 0.96865302 1.6275791
1.49476 1.17695 1.624697
1.5020599 1.15089 1.6170261
1.5063499 1.0901999 1.6155059
1.4531701 1.0772001 1.632898
1.4654499 1.0630001 1.626947
1.48078 1.04669 1.6188141
1.4897301 1.0335 1.614846
1.4860899 1.0231301 1.6151779
1.4763 1.0124 1.6188141
1.47296 1.00078 1.619778
1.4838099 0.98625803 1.6144021
1.4884801 0.97579902 1.612157
1.48146 0.96868598 1.6141831
1.51553 1.08951 1.6042939
1.4539 1.08407 1.6225721
1.44532 1.07762 1.6279731
1.47164 1.06111 1.616786
1.4736301 1.04987 1.614332
1.4872999 1.03466 1.6091229
1.4878 1.02235 1.6068109
1.4814399 1.01212 1.6095331
1.4717 1.0030301 1.6134311
1.48153 0.98955899 1.608546
1.4859101 0.97655797 1.606223
1.4709899 0.96819901 1.6093609
1.52154 1.08644 1.593428
1.4549099 1.08516 1.6161679
1.4544501 1.07582 1.617486
1.47752 1.05987 1.6074882
1.4829899 1.0467 1.604211
1.49503 1.0314701 1.5983261
1.49584 1.02043 1.597579
1.4874699 1.0118099 1.60021
1.4818801 1.00002 1.601745
1.4863901 0.98595703 1.5992999
1.48084 0.97496498 1.600286
1.4702901 0.96594203 1.6028259
1.4565899 0.95891798 1.6071249
1.4582601 0.94698405 1.6040809
1.4903901 1.1534899 1.602096
1.50282 1.1382099 1.598058
1.4875301 1.08055 1.5981469
1.4690199 1.0730799 1.605415
1.48435 1.05785 1.59784
1.49543 1.04335 1.592473
1.49323 1.0329599 1.591929
1.4921499 1.02091 1.5920011
1.4869299 1.00878 1.5934399
1.47895 1.00015 1.59588
1.48788 0.988603 1.591895
1.48867 0.97665602 1.5908661
1.47829 0.96676099 1.593943
1.47638 0.954234 1.593318
1.4738801 0.94211304 1.5928351
1.4571899 1.13666 1.603809
1.48078 1.11972 1.5960809
1.47975 1.07075 1.5944141
1.4230499 0.91791499 1.6016259
1.4591701 1.1479599 1.5978861
1.4553599 1.13802 1.5987771
1.4583501 1.1254699 1.596951
1.44043 1.15459 1.598873
1.44732 1.14047 1.595227
1.4498399 1.1287 1.5939081
1.42732 1.1473401 1.597211
1.5583299 1.15905 1.6794291
1.4587801 1.09904 1.708848
1.4592 1.08822 1.707088
1.55488 1.1586 1.673602
1.4630799 1.1066 1.70237
1.4633501 1.09694 1.7005261
1.45746 1.08849 1.701337
1.46584 1.07056 1.69564
1.48232 0.97938204 1.6786849
1.48206 0.96863097 1.678368
1.4612 1.1085601 1.6936551
1.46066 1.09778 1.694978
1.4664301 1.0834301 1.689827
1.48147 0.97780502 1.6719251
1.4776601 0.96760297 1.6733301
1.53614 1.15376 1.6653008
1.5570799 1.13752 1.6552161
1.54194 1.13613 1.66045
1.43185 1.14157 1.6995529
1.45395 1.1228299 1.690128
1.4549699 1.11209 1.689432
1.45841 1.09901 1.6875131
1.46911 1.0816001 1.680672
1.48127 0.99041998 1.6661512
1.4864999 0.977687 1.6622599
1.5470799 1.13898 1.65169
1.5465199 1.1318001 1.651127
1.4273599 1.14412 1.6969321
1.4389501 1.1308999 1.6912149
1.4569 1.1119 1.681774
1.46312 1.0946499 1.6770411
1.47258 1.07805 1.6716751
1.4750501 1.00403 1.662822
1.48403 0.98936498 1.6576871
1.48089 0.97723097 1.657226
1.52912 1.1444401 1.650538
1.5435201 1.13062 1.6445639
1.4325999 1.13315 1.689257
1.4656799 1.10737 1.6693569
1.46102 1.09829 1.6698411
1.46582 1.08259 1.667038
1.4788001 1.00182 1.654384
1.4830201 0.98953795 1.650681
1.4826 0.97730303 1.648324
1.51399 1.15053 1.649062
1.4571899 1.1183699 1.6681131
1.47026 1.10528 1.6601889
1.4860699 1.08815 1.6515039
1.46401 1.0849199 1.6607181
1.4788901 1.06679 1.65263
1.4854201 1.05112 1.648942
1.48752 1.03847 1.6471829
1.48349 1.02729 1.64671
1.47403 1.00521 1.6491131
1.48733 0.98847997 1.641302
1.48518 0.97704399 1.639906
1.47138 0.96871698 1.645699
1.4707401 0.95674598 1.6454779
1.49843 1.15959 1.647733
1.50143 1.1057 1.6410409
1.4884801 1.0980899 1.6452279
1.48498 1.08777 1.6447051
1.4736501 1.0795799 1.648981
1.4718201 1.06848 1.64811
1.4820399 1.05399 1.6429251
1.48334 1.0391999 1.6407322
1.48502 1.02493 1.638433
1.4769 1.01639 1.6422839
1.4798599 1.00272 1.6387531
1.4896201 0.986781 1.6326151
1.49471 0.97446996 1.6299601
1.48297 0.96720803 1.633999
1.47537 0.95612001 1.6363269
1.485 0.94124705 1.6302841
1.49049 1.1767501 1.646142
1.47957 1.16905 1.648917
1.47549 1.1622599 1.6498401
1.52325 1.1010801 1.6258521
1.49075 1.10032 1.638278
1.48665 1.09025 1.63815
1.47895 1.07981 1.63955
1.4731599 1.06748 1.640336
1.48414 1.05055 1.6349471
1.48137 1.03986 1.632978
1.48282 1.02642 1.6322101
1.4825799 1.0138301 1.6324821
1.4796201 1.00176 1.6307019
1.4890699 0.98745596 1.626074
1.49106 0.975402 1.6246301
1.4736 0.96746999 1.6311611
1.4830499 0.95344597 1.626557
1.47686 0.94314903 1.6284519
1.48466 1.1685801 1.6409149
1.4779401 1.16231 1.6429499
1.4964 1.09816 1.629346
1.4863 1.08873 1.631771
1.4792199 1.0756099 1.6325231
1.46052 1.0708899 1.637989
1.4808 1.05295 1.6289301
1.4774899 1.0423501 1.6274381
1.48018 1.0284899 1.6252952
1.47961 1.0146 1.6256671
1.4718601 1.00488 1.6268539
1.49185 0.98731697 1.618047
1.49184 0.97561699 1.617294
1.4768699 0.96893603 1.6223911
1.50793 1.09499 1.6176331
1.4596699 1.06962 1.631875
1.47881 1.05244 1.621968
1.48078 1.0399899 1.6192571
1.4750199 1.02913 1.619296
1.4744201 1.01791 1.6204151
1.47804 1.00405 1.6179309
1.4865899 0.98982698 1.612509
1.48931 0.97691202 1.6110001
1.47405 0.970056 1.6143661
1.46606 1.0653701 1.6213909
1.4804699 1.05116 1.613853
1.4786 1.04027 1.6126959
1.4904 1.02416 1.606128
1.47969 1.01446 1.610823
1.4849899 1.00018 1.6079111
1.48921 0.98747903 1.604643
1.48774 0.97526395 1.6031311
1.46778 0.96933401 1.6092942
1.44793 0.968063 1.617735
1.5122701 1.0920401 1.598989
1.4862601 1.09203 1.6067841
1.46164 1.0668 1.6152029
1.4854699 1.0498 1.604552
1.48966 1.0367 1.6013229
1.49281 1.02335 1.597991
1.4942399 1.0114701 1.5982499
1.4842 1.00105 1.600683
1.4918699 0.98590201 1.5968521
1.4861799 0.97726703 1.596664
1.4791499 0.96693802 1.5979919
1.47658 0.95499998 1.5975289
1.46261 0.94513494 1.6001
1.45855 0.93653601 1.600948
1.5056599 1.13229 1.59873
1.5044999 1.0853801 1.594762
1.4689101 1.06528 1.604086
1.4888901 1.0485901 1.5959851
1.492 1.0356899 1.5933099
1.49192 1.0109401 1.5916589
1.48491 1.00126 1.5931411
1.4835 0.99007797 1.5927581
1.48142 0.97728598 1.5911289
1.47393 0.96789199 1.593302
1.4786 0.95618105 1.590853
1.47544 0.94429201 1.590679
1.4010401 0.92041701 1.611351
1.4086599 0.91165495 1.6081821
1.4883599 1.15273 1.6001101
1.4704801 1.0756 1.5963861
1.4742501 1.06375 1.5950171
1.4292101 0.91466403 1.596428
1.4217399 0.909504 1.5988251
1.45856 1.15057 1.600731
1.46373 1.13636 1.5975839
1.4716201 1.1230999 1.5953439
1.45667 1.14868 1.594919
1.4541099 1.13868 1.594242
1.45797 1.1289001 1.5932611
1.44168 1.15588 1.5957299
1.4399099 1.14561 1.59457
1.44452 1.13433 1.592222
1.46199 1.10378 1.70818
1.4604601 1.09201 1.707137
1.4437 1.07148 1.709993
1.55875 1.16316 1.6755381
1.5394701 1.1314601 1.6743939
1.4600199 1.1044899 1.7021952
1.4660699 1.09105 1.6970551
1.4689701 1.07462 1.692836
1.50088 0.97400302 1.6655411
1.5541999 1.1651599 1.6695449
1.46533 1.0995201 1.691602
1.47483 1.0843101 1.684736
1.4791901 0.99142301 1.6698471
1.48646 0.978917 1.6654309
1.54504 1.17038 1.667809
1.5522901 1.13044 1.656541
1.53994 1.12816 1.6608529
1.4663299 1.0969599 1.682074
1.4767101 1.08172 1.675827
1.4899001 0.98592496 1.6588269
1.48554 0.97723699 1.6573691
1.54821 1.14379 1.6542941
1.55302 1.13019 1.6497079
1.5521801 1.1218699 1.6492529
1.45455 1.10218 1.679404
1.47259 1.08529 1.671008
1.47881 1.06999 1.665426
1.4711701 1.00655 1.6596051
1.48551 0.98796797 1.652897
1.48769 0.97492599 1.648916
1.5039999 0.960522 1.642172
1.5480701 1.13133 1.6439129
1.54962 1.12278 1.6431491
1.4726 1.08348 1.6633191
1.48061 1.06854 1.6560659
1.48315 1.0281401 1.6499429
1.47938 1.00103 1.6490719
1.48878 0.98465502 1.6439929
1.48817 0.97397006 1.6411361
1.4805299 0.96777499 1.644673
1.47952 1.07875 1.6511929
1.4780201 1.06973 1.650311
1.4805499 1.05791 1.6480319
1.4835899 1.04198 1.645309
1.48401 1.02846 1.642045
1.4792501 1.0178601 1.643213
1.4758999 1.00594 1.643296
1.48634 0.98763102 1.6374811
1.48807 0.97426397 1.6336341
1.47932 0.967269 1.6373841
1.5018899 1.16115 1.6455541
1.5191799 1.14324 1.638249
1.4821899 1.07899 1.641565
1.4777299 1.07007 1.6433331
1.48086 1.05493 1.639989
1.48748 1.03782 1.6348419
1.4824001 1.02572 1.6355661
1.47672 1.0157 1.6371731
1.47524 1.0041001 1.635814
1.48744 0.98640299 1.628947
1.4885899 0.97462898 1.6266141
1.4766499 0.96882898 1.6316611
1.4819299 0.95804805 1.6299851
1.5054801 1.15045 1.636853
1.5098399 1.1142601 1.6282581
1.4700301 1.09384 1.6396691
1.47763 1.08024 1.636371
1.4766999 1.06777 1.635489
1.48374 1.05146 1.6309922
1.48598 1.03918 1.628435
1.48405 1.02799 1.627243
1.47803 1.0151401 1.628978
1.4783701 1.0014 1.62731
1.48677 0.98653799 1.6214759
1.49086 0.973818 1.6198751
1.50493 1.15053 1.630215
1.48083 1.08884 1.629017
1.46347 1.0877301 1.6345761
1.4664301 1.0746399 1.6321549
1.47808 1.05704 1.626778
1.48517 1.0411 1.62205
1.4872 1.0276 1.6183239
1.48625 1.01503 1.6179761
1.47715 1.00409 1.6202819
1.4893601 0.98763394 1.612969
1.48478 0.978517 1.613808
1.4580001 1.0893 1.630215
1.46121 1.0779099 1.627569
1.4754699 1.0584201 1.6201841
1.4849 1.03984 1.613892
1.48711 1.0249801 1.610854
1.47765 1.0153199 1.614025
1.47868 1.00256 1.611662
1.4881301 0.986812 1.6063401
1.49227 0.97384 1.602056
1.4688201 1.07151 1.6173871
1.48394 1.0521901 1.608147
1.4916 1.03572 1.6042501
1.49035 1.02509 1.6021839
1.48809 1.0117 1.60206
1.48465 0.99914396 1.6025259
1.4913499 0.984653 1.5975771
1.48849 0.97326797 1.5960721
1.47172 0.96814102 1.6012551
1.4741499 0.952371 1.597167
1.4601401 0.94290495 1.6005771
1.45032 0.93607694 1.6027302
1.52294 1.09077 1.5931951
1.50712 1.08676 1.5966501
1.47517 1.06713 1.606187
1.4853901 1.05351 1.599789
1.49051 1.0382199 1.5972079
1.49228 1.02294 1.593918
1.49029 1.01104 1.59383
1.4872301 0.99948502 1.594034
1.48264 0.97489303 1.5921991
1.4786301 0.96445501 1.5923041
1.47209 0.95324999 1.5916321
1.46936 0.94128698 1.592119
1.4990699 1.14317 1.599264
1.48792 1.08156 1.5945779
1.4891499 1.06429 1.5929409
1.4909101 1.0504299 1.590793
1.4828 1.1364499 1.596011
1.4633701 1.14533 1.5951362
1.46215 1.13411 1.5944079
1.4499699 1.15179 1.593187
1.50383 1.14504 1.613211
1.4787199 1.0657901 1.605513
1.5094501 1.0373 1.5921451
1.5142599 1.0945201 1.5953
1.4970399 1.09176 1.599104
1.47771 1.06732 1.600862
1.49503 1.04722 1.5926139
1.50351 1.14489 1.599812
1.489 1.1395 1.6006081
1.4827299 1.08451 1.595397
1.48208 1.06793 1.5932491
1.47492 1.1366401 1.597706
1.46538 1.1429499 1.594036
1.44912 1.15309 1.593815
1.4710699 1.1069 1.7094531
1.46733 1.09579 1.707179
1.4788001 1.0750901 1.698791
1.47407 1.11538 1.703638
1.4727901 1.10481 1.7006791
1.4759101 1.0886199 1.695987
1.47147 1.11736 1.6959641
1.4752901 1.1025801 1.6909741
1.4777 1.08566 1.686924
1.4709899 1.14654 1.688877
1.47264 1.1336499 1.6863021
1.4807601 1.1130201 1.6825461
1.4808099 1.09734 1.6801391
1.4805499 1.08199 1.677669
1.50595 1.1630599 1.671247
1.46954 1.13635 1.6822541
1.47507 1.12015 1.6780181
1.4777299 1.1034 1.6749029
1.47681 1.08612 1.671514
1.5189199 1.15284 1.6596539
1.5095199 1.1504799 1.66248
1.47088 1.1233799 1.674585
1.47312 1.1078501 1.6712161
1.4708099 1.0711499 1.6613131
1.4831799 1.02105 1.649309
1.48577 1.0085701 1.646396
1.5186 1.15187 1.652662
1.51009 1.14914 1.654929
1.44907 1.0818 1.661364
1.4782699 1.03995 1.64669
1.4772301 1.0258499 1.643784
1.47595 1.01199 1.6410041
1.50612 1.1605101 1.651455
1.50289 1.14184 1.647609
1.45926 1.06361 1.647946
1.4758999 1.0403299 1.6390631
1.4764199 1.0231099 1.634559
1.478 1.00766 1.631441
1.4897 0.99134803 1.626117
1.46802 1.05668 1.6351849
1.47895 1.0367501 1.628677
1.4708099 1.02802 1.628656
1.47497 1.01114 1.625333
1.4850399 0.99257106 1.619635
1.4713299 1.06629 1.62659
1.4798801 1.0493 1.6229661
1.4763499 1.0385 1.621526
1.48209 1.01928 1.616642
1.4783901 1.0058 1.6151401
1.4862199 0.98736399 1.6094991
