# .PCD v0.7 - Point Cloud Data file format
VERSION 0.7
FIELDS x y z
SIZE 4 4 4
TYPE F F F
COUNT 1 1 1
WIDTH 1737
HEIGHT 1
VIEWPOINT 0 0 0 1 0 0 0
POINTS 1737
DATA ascii
1.3911999 1.0588 1.947178
1.38631 1.07253 1.9439169
1.39508 1.0782701 1.9477341
1.3911901 0.94271797 1.974781
1.3722099 0.96794403 1.95735
1.36194 0.98794198 1.9456562
1.3593899 1.0021499 1.9404269
1.3643401 1.0125901 1.9391999
1.3667101 1.0252 1.9360831
1.37132 1.03838 1.9330732
1.38737 1.04679 1.9398789
1.38897 1.0575 1.9372101
1.40002 1.06366 1.9446359
1.4007499 0.93678701 1.9720011
1.3813499 0.96252602 1.954584
1.37362 0.98022902 1.9457401
1.3629899 1.0011001 1.9328461
1.35698 1.01969 1.92436
1.36226 1.03096 1.921803
1.3672099 1.04266 1.9208951
1.381 1.04892 1.9278259
1.3864399 1.05792 1.9277451
1.40456 1.0583 1.937453
1.37506 0.98041201 1.9373871
1.3684801 0.99772906 1.926525
1.38885 1.0555201 1.921414
1.40776 1.0562999 1.929068
1.3789101 0.97982806 1.929522
1.41102 1.05583 1.921392
1.38123 0.97987503 1.9209439
1.34998 1.10253 2.0366011
1.3495799 1.11431 2.0322211
1.3518801 1.1019 2.0289609
1.34793 1.11571 2.0206711
1.35928 1.1219001 2.0260911
1.35453 1.1001101 2.0217011
1.3514301 1.1117901 2.0151811
1.35657 1.12173 2.0143909
1.3652999 1.12991 2.0178411
1.35326 1.1021 2.010741
1.3550999 1.1119599 2.006721
1.3622 1.12097 2.008131
1.37008 1.1267099 2.0108612
1.2821201 0.93822098 2.023051
1.35253 1.10364 1.998891
1.35523 1.11128 1.997721
1.36051 1.11959 1.9977909
1.3727299 1.1241001 2.0030811
1.2899899 0.93343699 2.021091
1.2958701 0.94000703 2.0195911
1.30198 0.94526702 2.0195708
1.35155 1.10341 1.9875411
1.3625301 1.1075 1.993921
1.3744 1.11335 1.997901
1.3778701 1.12133 1.9970011
1.30955 0.93198603 2.022491
1.2990199 0.94963801 2.0090508
1.3098199 0.95331705 2.0110509
1.3570199 1.09866 1.982451
1.35904 1.1070501 1.9825411
1.3808501 1.10719 1.9945511
1.3876801 1.11555 1.995661
1.3033299 0.95054299 2.001931
1.3039501 0.963184 1.9943411
1.34974 0.95147204 2.0227709
1.35886 1.09753 1.975041
1.3633599 1.10339 1.976391
1.4011199 1.09912 2.0015211
1.41202 1.1028199 2.0062311
1.2974299 0.97133905 1.9792911
1.32547 0.96481204 1.9954611
1.3593401 0.957717 2.016381
1.3712399 0.96613002 2.018621
1.3758399 0.97640502 2.016871
1.3880401 0.982714 2.0201712
1.36026 1.09541 1.967041
1.36228 1.10262 1.9662939
1.29882 0.973378 1.9697109
1.3184301 0.97001898 1.9805609
1.34152 0.96819001 1.992751
1.3643401 0.96855402 2.0047009
1.37903 0.97400999 2.0110211
1.38431 0.98581702 2.006371
1.3856399 1.0674701 1.9774209
1.37201 1.08539 1.9650741
1.36578 1.09913 1.9597991
1.3181 0.971937 1.970871
1.3302499 0.97579694 1.974651
1.34927 0.97772598 1.9836709
1.37037 0.97930396 1.9946411
1.3732201 0.99279702 1.9880911
1.3840801 1.06815 1.9691809
1.37634 1.08187 1.9597571
1.3745599 1.09194 1.9562689
1.35392 0.949516 1.9819909
1.3376 0.97149599 1.969601
1.3458999 0.97876799 1.9724411
1.35405 0.98943198 1.972281
1.3628501 1 1.970451
1.38195 1.00111 1.9815711
1.38845 1.0099601 1.980961
1.3826801 1.06813 1.9591769
1.37629 1.0818499 1.952099
1.38636 1.08413 1.9563681
1.37471 0.93429804 1.9890209
1.36137 0.95523596 1.976721
1.3452001 0.98173499 1.961158
1.35226 0.99321502 1.9601431
1.35465 1.0061901 1.954373
1.37321 1.00906 1.964767
1.37932 1.01816 1.964263
1.3860899 1.0241899 1.96429
1.37909 1.06559 1.9471772
1.38877 1.0716001 1.952957
1.3729401 0.94656801 1.975751
1.3614501 0.96957397 1.962678
1.34561 0.99746495 1.9454989
1.3515401 1.00899 1.9426889
1.3636999 1.0150499 1.9479821
1.37519 1.0214801 1.952894
1.3697901 1.03848 1.942095
1.359 1.06253 1.9279209
1.3766201 1.06462 1.9374111
1.3912899 0.93272299 1.979581
1.3719001 0.96116996 1.961028
1.35218 0.99087405 1.941084
1.35075 1.00719 1.9344001
1.3532699 1.0209301 1.931223
1.36685 1.0273 1.937337
1.35923 1.04763 1.9248199
1.36403 1.0597 1.9224609
1.3750999 1.0636901 1.9273419
1.3882201 0.94515502 1.9664121
1.35992 0.98575896 1.9376019
1.3569901 1.00097 1.9302059
1.3522301 1.0189199 1.9218961
1.3799001 1.05901 1.921685
1.3911999 0.94169402 1.96206
1.35953 0.98974502 1.9247071
1.36049 1.00209 1.922621
1.3752 0.96755201 1.9289991
1.3691701 0.98270202 1.921497
1.38131 0.96285796 1.9254001
1.4165199 1.0204901 1.979861
1.4261501 1.01309 1.978271
1.41085 1.03049 1.9715409
1.4141099 1.0207 1.972291
1.4261501 1.0125 1.9703109
1.43713 1.00405 1.966221
1.40933 1.03268 1.9623471
1.42813 1.03063 1.9531711
1.4272599 1.01439 1.9602319
1.43774 1.00615 1.955997
1.4424499 0.99267197 1.9582131
1.40504 1.0427899 1.9528909
1.4114799 1.0357 1.9512579
1.42593 1.0297 1.944717
1.42987 1.01526 1.948741
1.43505 1.0021399 1.950188
1.4419701 0.99124396 1.9491479
1.45608 0.98528999 1.9436041
1.4717101 0.983733 1.9355991
1.41263 1.04846 1.9388431
1.4228799 1.04195 1.936113
1.43013 1.0325199 1.9328189
1.4325 1.0177701 1.936734
1.43218 1.00035 1.942567
1.4401801 0.98903197 1.941902
1.45985 0.98768502 1.9322711
1.47675 0.98634398 1.9232972
1.4081199 1.05109 1.9295651
1.4193699 1.04265 1.9279209
1.43232 1.0341201 1.9220291
1.43194 1.0179499 1.927366
1.43211 1.002 1.9321899
1.44039 0.990641 1.932742
1.3896201 1.06732 1.9232299
1.39579 1.0591201 1.923643
1.4360601 1.0046099 1.9204199
1.43919 0.99051595 1.9239321
1.4181 1.0154099 1.974651
1.43387 1.01148 1.966801
1.4006701 1.0197899 1.973271
1.4268899 1.02116 1.959362
1.43485 1.0121 1.9580591
1.4430001 1.00161 1.956991
1.46567 0.98403001 1.94819
1.4144299 1.02874 1.955145
1.42979 1.02433 1.947283
1.43081 1.00958 1.952294
1.43388 0.99732 1.9534619
1.44907 0.99032599 1.9469949
1.46673 0.98435205 1.9389801
1.3687199 1.0977 1.949639
1.4108599 1.03861 1.9460449
1.41891 1.03248 1.9430749
1.4288601 1.02432 1.938476
1.43185 1.0110099 1.9417031
1.43945 1.00028 1.9420151
1.44381 0.98886704 1.9402471
1.46612 0.98546702 1.9300659
1.4742501 0.97719103 1.928889
1.3678999 1.0959101 1.944819
1.3552499 1.0824701 1.952664
1.42162 1.04469 1.9304651
1.42399 1.03459 1.9317321
1.43095 1.02538 1.9284101
1.4340601 1.01298 1.9309
1.43366 0.99719 1.9354241
1.4490401 0.98880994 1.9293751
1.3546801 1.08964 1.945487
1.36843 1.08611 1.9376041
1.43365 1.01404 1.922758
1.43045 0.99885696 1.927364
1.43226 0.985008 1.929106
1.3747799 1.08705 1.9272571
1.38353 1.0796701 1.92198
1.3903199 1.06592 1.9200281
1.4173 0.98935699 1.926844
1.38148 0.96866202 1.92867
1.37362 0.95682901 1.932634
1.3781101 0.96706003 1.9203711
1.36575 0.953282 1.928689
1.39679 1.01898 1.987491
1.42345 1.01859 1.974821
1.40582 1.02274 1.9749111
1.41731 1.0168 1.970121
1.4301 1.01 1.9668311
1.43214 0.99748999 1.967101
1.3981301 1.02105 1.9713809
1.41644 1.01868 1.9620349
1.42427 1.00846 1.9604291
1.43318 0.99708003 1.9571952
1.4419999 0.98678201 1.954339
1.45759 0.98131102 1.9475821
1.4013499 1.02206 1.961427
1.41699 1.01763 1.953117
1.42793 1.0082901 1.9486929
1.43516 0.99633902 1.946648
1.44306 0.98647398 1.9451419
1.45912 0.98357499 1.937465
1.4025 1.022 1.951587
1.42794 1.0205799 1.936924
1.43038 1.00726 1.9385331
1.4375501 0.99751604 1.936222
1.43893 0.98710704 1.938696
1.4559599 0.98388201 1.9302961
1.41934 1.0303 1.930799
1.4286799 1.02276 1.926228
1.43218 1.0107 1.928082
1.4330499 0.99793899 1.9308552
1.44092 0.98821801 1.9280881
1.4533099 0.98308402 1.92274
1.4097999 1.03968 1.9242041
1.35707 1.12387 2.0287409
1.3642999 1.12273 2.015511
1.34694 1.10912 2.026551
1.35966 1.1301301 2.0108809
1.36061 1.12186 2.0094111
1.3624099 1.1108201 2.0091009
1.35605 1.0984 2.0139511
1.3581901 1.12922 2.0022509
1.36013 1.1204 2.002131
1.36648 1.11028 1.997511
1.3648 1.09867 2.0008912
1.35763 1.08833 2.006511
1.41228 1.0254101 1.983631
1.42349 1.01975 1.9781109
1.34052 1.125 2.0036809
1.3595799 1.1200299 1.9939511
1.37282 1.11137 1.9847009
1.36877 1.09929 1.9895511
1.36386 1.0891 1.9947909
1.40626 1.02486 1.9785711
1.4240899 1.02056 1.9692611
1.43251 1.0111799 1.9640509
1.43376 0.99938399 1.967081
1.3594201 1.11891 1.9842811
1.3717599 1.11053 1.976781
1.37308 1.10069 1.9784311
1.37379 1.09129 1.9790812
1.4183501 1.0285 1.963063
1.42588 1.02099 1.958464
1.43602 1.01254 1.9532721
1.43799 1.00037 1.95533
1.4431599 0.98723298 1.9532431
1.35435 1.1176 1.977721
1.35787 1.1089801 1.9764011
1.36961 1.09896 1.9709109
1.3664 1.08837 1.973961
1.42076 1.02992 1.9513221
1.4294901 1.02136 1.947032
1.43349 1.00965 1.9477969
1.43638 0.99788004 1.946926
1.4383701 0.98655701 1.947615
1.4510499 0.97889704 1.941692
1.34787 1.11464 1.972191
1.36777 1.1081901 1.9618241
1.3741001 1.0977501 1.9587342
1.37983 1.08987 1.957197
1.4172 1.03895 1.9433819
1.42081 1.0308599 1.941766
1.42014 1.01965 1.944254
1.43225 1.01009 1.9390341
1.4375399 0.99903506 1.9378791
1.44376 0.98886496 1.9363282
1.4625 0.98264605 1.925504
1.46347 0.97334802 1.9287149
1.33787 1.11174 1.969171
1.36131 1.10779 1.9568399
1.36937 1.09829 1.953143
1.37769 1.08885 1.9495261
1.36131 1.07643 1.959914
1.41241 1.03857 1.937858
1.4269201 1.03348 1.9288101
1.42981 1.0225101 1.9307971
1.4336301 1.01112 1.928329
1.4364799 0.99852097 1.9303131
1.44006 0.98641098 1.9302161
1.35286 1.10497 1.9538671
1.36395 1.09817 1.9483581
1.3720399 1.08838 1.9442279
1.37756 1.07938 1.941666
1.4141999 1.0400901 1.9276841
1.42822 1.02142 1.9223651
1.4329801 1.0110199 1.9208969
1.43538 1.00044 1.921222
1.36367 1.09456 1.939944
1.37761 1.08696 1.9330609
1.37923 1.0768 1.930758
1.36604 1.09287 1.929029
1.36901 1.0843 1.929283
1.37577 1.07423 1.924324
1.37129 1.06179 1.928311
1.38608 1.05024 1.9222711
1.35392 1.08978 1.9287939
1.3695799 1.08306 1.9207801
1.34614 1.11928 2.0229809
1.34681 1.10835 2.020571
1.3460001 1.11658 2.0149209
1.35797 1.10779 2.005981
1.4022099 1.0200801 1.9863909
1.4187801 1.01249 1.9793711
1.34498 1.1152201 2.0078509
1.35121 1.10624 2.0031109
1.35502 1.098 1.999661
1.3879499 1.02881 1.985121
1.4095799 1.02317 1.974581
1.42071 1.01557 1.9690509
1.4251699 1.0038099 1.9686611
1.43375 0.99355006 1.963572
1.3457299 1.11145 1.998641
1.3561 1.10439 1.9920211
1.3585899 1.0961499 1.9890311
1.40557 1.03238 1.9678509
1.41045 1.02364 1.9668311
1.41996 1.01465 1.961514
1.43247 1.0043399 1.9551889
1.43769 0.99260801 1.952839
1.44636 0.98083603 1.949343
1.3505901 1.10115 1.9869711
1.3725101 1.09547 1.9721711
1.39933 1.0431401 1.9589
1.39862 1.03395 1.9626911
1.41022 1.02529 1.9579941
1.4260299 1.01476 1.9487621
1.42834 1.0024099 1.949778
1.43185 0.99329901 1.947433
1.43887 0.98307401 1.944731
1.45156 0.97299004 1.938941
1.3896401 0.93065596 1.9836011
1.37308 1.09376 1.964065
1.36342 1.0856301 1.9698709
1.4108 1.04577 1.944939
1.4066901 1.0362201 1.950327
1.41607 1.0264801 1.9450461
1.4251699 1.0158 1.939466
1.42655 1.0034699 1.9424051
1.43446 0.99337798 1.9379901
1.44452 0.98311096 1.9328659
1.46206 0.976138 1.9221469
1.37804 1.09269 1.9512759
1.3803 1.08674 1.952069
1.39696 1.04423 1.9454831
1.41557 1.03827 1.9362179
1.42062 1.02707 1.933248
1.42907 1.01712 1.9289861
1.43182 1.00545 1.9300299
1.43498 0.99302202 1.928966
1.3715199 1.0911 1.9468551
1.37938 1.08455 1.9422351
1.4109501 1.04598 1.93004
1.4308701 1.01554 1.921471
1.37476 1.09097 1.9370401
1.38265 1.08303 1.9311279
1.3744501 1.07292 1.936208
1.37616 1.09066 1.926705
1.3828999 1.08251 1.922982
1.3870399 1.07374 1.9223419
1.38987 1.06275 1.920542
1.3660201 1.0903701 1.923972
1.36722 1.1049199 2.038841
1.36227 1.1135399 2.0388911
1.3621299 1.0971199 2.0331509
1.3568801 1.10629 2.034631
1.3555701 1.11533 2.034601
1.35329 0.98805398 2.0275609
1.3724 0.99120694 2.0275509
1.3805901 0.99723196 2.027961
1.3718201 1.09509 2.028481
1.35849 1.10525 2.0290911
1.34418 1.11841 2.0293911
1.3733901 0.94847798 2.020571
1.3703901 0.95754796 2.020771
1.3708501 0.97073799 2.0210509
1.368 0.98347902 2.0224609
1.37648 0.99046099 2.0218611
1.37281 0.99915296 2.0222809
1.36752 1.09648 2.0239511
1.35841 1.10497 2.0236511
1.3478301 1.11531 2.0238709
1.35209 0.94855005 2.0169311
1.37141 0.94948995 2.0166612
1.3684399 0.95985299 2.016181
1.36922 0.97021401 2.015501
1.36787 0.98267698 2.0162411
1.3755499 0.99068499 2.0163009
1.3734599 0.99942297 2.0162811
1.35448 1.10745 2.0183811
1.3441701 1.118 2.0189109
1.34588 1.1262001 2.0181711
1.3716999 1.12909 2.017061
1.3716099 0.95092601 2.0115108
1.3644 0.96242994 2.010581
1.35901 0.97499496 2.010381
1.3598 0.98543704 2.010251
1.3683901 0.99305999 2.0108612
1.3721499 1.00151 2.009541
1.3655 1.10648 2.0111611
1.3473101 1.11731 2.0132809
1.3474699 1.12479 2.0123708
1.33666 0.96353102 2.004401
1.36243 0.961959 2.0050809
1.3651601 0.970626 2.0045512
1.3592501 0.983679 2.004401
1.3613499 0.99344498 2.0053611
1.3647799 1.00278 2.004611
1.37138 1.10502 2.0047109
1.35351 1.11579 2.007021
1.3657001 1.12029 2.005451
1.35931 0.96511102 1.9988409
1.3662699 0.97298598 1.9986011
1.3562399 0.98520797 1.9991909
1.3598 0.99405199 1.999431
1.3698801 1.00403 1.9978509
1.3818401 1.09299 1.997411
1.3735601 1.10211 1.998441
1.36323 1.11289 2.0008111
1.3838 1.11598 1.999581
1.33847 0.972004 1.9928211
1.36061 0.97395104 1.992981
1.36454 0.98308098 1.9938511
1.36803 0.99310702 1.9927609
1.36946 1.0039901 1.991441
1.3758099 1.01373 1.9921609
1.38282 1.09267 1.9930011
1.36935 1.10175 1.993441
1.37099 1.10944 1.994891
1.3249 0.97571898 1.987381
1.35314 0.97602999 1.987101
1.3612 0.98397398 1.9880509
1.36384 0.99452698 1.9868411
1.36334 1.0051 1.985841
1.3708999 1.01416 1.986351
1.3870399 1.0207599 1.986261
1.4107001 1.02307 1.9859411
1.36498 1.0954 1.9881411
1.36317 1.1023899 1.989001
1.27561 0.98212302 1.9834909
1.3049099 0.98069 1.9827011
1.33403 0.98112899 1.9820709
1.3572501 0.98587501 1.9818811
1.36435 0.99512297 1.981421
1.35526 1.00622 1.981001
1.3612199 1.01494 1.9808811
1.3726801 1.0234101 1.980441
1.3886099 1.02808 1.9809109
1.3680999 1.0942299 1.982151
1.35987 1.10158 1.982561
1.2876101 0.98562503 1.978441
1.31883 0.98499197 1.9771609
1.3457899 0.98833603 1.9761209
1.3558099 0.996611 1.9765109
1.3598399 1.0064 1.9753711
1.36684 1.01627 1.9745709
1.3674001 1.02564 1.9749411
1.38165 1.0297799 1.974501
1.35983 1.09557 1.977041
1.3603301 1.10127 1.975981
1.28713 0.98642099 1.9727811
1.30198 0.98963898 1.9724311
1.3216901 0.994636 1.9714512
1.3513401 0.99844497 1.9703909
1.3654201 1.00682 1.969131
1.37019 1.01542 1.9687811
1.36726 1.0257499 1.9691809
1.3825001 1.03012 1.968611
1.3560699 1.0964 1.970871
1.3542399 1.10216 1.970811
1.3027 0.98318803 1.966961
1.2906599 0.99291497 1.968151
1.31841 0.99478304 1.965625
1.3418601 0.99975896 1.964651
1.35577 1.0068099 1.9645669
1.3624099 1.0167 1.9634311
1.3672099 1.02671 1.9627429
1.3804699 1.03124 1.9630859
1.3590801 1.0954 1.964805
1.35418 1.1019599 1.965064
1.30644 0.99070704 1.962043
1.3203701 0.995296 1.960114
1.3312199 1.0019699 1.959111
1.3470199 1.0090001 1.959384
1.3446499 1.01968 1.958361
1.36329 1.0265499 1.9568521
1.3742399 1.03321 1.9571891
1.35427 1.09515 1.9591229
1.36018 1.09989 1.958004
1.35039 0.97997999 1.949653
1.33261 0.99307501 1.9534271
1.33285 1.00239 1.953588
1.3388001 1.01103 1.953606
1.35356 1.01894 1.9520489
1.3576199 1.0283999 1.951028
1.3762699 1.03354 1.950628
1.39951 1.0352501 1.9506491
1.37257 1.08444 1.9517511
1.3651601 1.0925 1.9523529
1.3691601 1.09842 1.951417
1.3775799 0.971838 1.942901
1.3585401 0.98513103 1.9445691
1.3361701 1.00226 1.947836
1.34306 1.01243 1.9472979
1.3529299 1.02028 1.946642
1.35888 1.0275 1.945497
1.36234 1.03658 1.94552
1.37067 1.04523 1.944068
1.3639301 1.08419 1.946154
1.3639599 1.0927501 1.9471821
1.38006 1.09624 1.94507
1.37324 0.97320294 1.938153
1.35921 0.98540395 1.9381391
1.35118 0.997464 1.9401001
1.3437899 1.00999 1.941727
1.3498801 1.02035 1.940878
1.36148 1.02873 1.9404072
1.36928 1.03784 1.9388601
1.37435 1.04741 1.9385279
1.39686 1.05135 1.937132
1.38366 1.0670099 1.9380661
1.36523 1.08149 1.939617
1.36575 1.09119 1.941532
1.38703 1.0939 1.939275
1.3627601 0.97713 1.932536
1.36611 0.98425204 1.9317911
1.35378 0.99715698 1.933746
1.3473599 1.01027 1.9352069
1.34513 1.0223401 1.934827
1.35974 1.02967 1.9344361
1.35867 1.04065 1.9340061
1.36622 1.04897 1.934002
1.3766299 1.05738 1.933996
1.3683901 1.07057 1.9337811
1.3637199 1.08122 1.934701
1.3644099 1.08935 1.935353
1.38017 0.97268999 1.9252909
1.36923 0.98322797 1.926299
1.35453 0.99665397 1.9279081
1.3545599 1.00728 1.928329
1.34504 1.02083 1.929232
1.34454 1.0321 1.9295391
1.35606 1.0403199 1.928924
1.36041 1.04922 1.9291409
1.36194 1.06041 1.92893
1.36597 1.07024 1.928607
1.3622999 1.08056 1.929415
1.3681901 1.08762 1.9279209
1.37008 0.98400599 1.9209311
1.3581901 0.995915 1.92199
1.3537101 1.0064 1.9230651
1.3504801 1.0176101 1.922966
1.33974 1.03212 1.9237201
1.34727 1.04177 1.923746
1.35254 1.0522 1.924041
1.35364 1.06222 1.924023
1.3600399 1.07078 1.9237571
1.3626601 1.08077 1.9229699
1.36884 1.0874701 1.9214959
1.3579899 1.11156 2.029381
1.3808501 0.94990301 2.022171
1.37067 0.96261495 2.022301
1.37174 0.97387803 2.0218511
1.3718899 0.98670197 2.022861
1.38494 0.993141 2.022691
1.35894 1.11075 2.0236709
1.34856 1.1214399 2.022851
1.3800101 0.95084602 2.015471
1.37 0.96505702 2.0161109
1.37035 0.97474897 2.0162911
1.3720599 0.98428595 2.016341
1.3794 0.994735 2.0159609
1.3482801 1.11352 2.0174012
1.3523101 1.12025 2.0171511
1.37291 1.1305699 2.017271
1.3752201 0.96150398 2.0092309
1.36982 0.97513199 2.0110009
1.37366 0.98566198 2.0101111
1.37272 0.99792504 2.008971
1.34821 1.11194 2.0110211
1.3494 1.11966 2.0121911
1.35552 1.12606 2.0122612
1.37357 0.96263903 2.0027812
1.37062 0.97586405 2.004261
1.36698 0.98964995 2.004391
1.36851 0.99996805 2.0029111
1.37806 1.0927501 2.0031011
1.36099 1.10578 2.004411
1.3500199 1.11799 2.0061011
1.3672 1.12116 2.005451
1.3594201 0.94815201 1.996631
1.3753301 0.95960701 1.997261
1.37175 0.973611 1.9970511
1.36622 0.98915899 1.998071
1.36384 1.00205 1.997381
1.3675101 1.09627 1.999131
1.35511 1.10789 1.9995911
1.34592 1.11877 2.000041
1.3374801 0.95773697 1.9935211
1.36181 0.95646799 1.9926209
1.37325 0.963687 1.991441
1.36164 0.97800201 1.991861
1.3701601 0.98475403 1.991541
1.3682001 0.99848002 1.9913211
1.3693601 1.00939 1.992291
1.38133 1.01516 1.9910611
1.3602 1.09865 1.993371
1.34904 1.10985 1.993811
1.3457899 1.1180999 1.994041
1.2738099 0.98124605 1.987631
1.2651 0.991584 1.9878211
1.3711301 0.96481001 1.986461
1.3669901 0.97640604 1.986611
1.36329 0.98897797 1.9857211
1.36712 0.99972397 1.984671
1.3731599 1.00887 1.986241
1.38097 1.0171 1.9843711
1.40563 1.01642 1.983761
1.3600301 1.0977 1.987461
1.3525101 1.10702 1.987801
1.35323 1.11427 1.9877011
1.2762101 0.98149002 1.9834311
1.26388 0.992926 1.983531
1.3411701 0.98122901 1.979691
1.36329 0.97913098 1.9804611
1.3618 0.99066597 1.9794711
1.36095 1.0027601 1.978741
1.3738099 1.00941 1.979831
1.37306 1.02065 1.9786512
1.39263 1.0217 1.9789211
1.3541901 1.09962 1.982461
1.35412 1.10658 1.981861
1.35776 1.11226 1.9814811
1.26135 0.99623597 1.978971
1.28267 0.99349803 1.9775211
1.35518 0.98424304 1.974061
1.36034 0.992697 1.973351
1.36131 1.00328 1.9729409
1.36883 1.0117401 1.9735711
1.3680701 1.02266 1.9730209
1.3806 1.02616 1.9735211
1.35446 1.09997 1.9766409
1.35763 1.10482 1.975701
1.27152 0.99418902 1.972821
1.2808599 0.99691302 1.972121
1.33724 0.99069899 1.9682111
1.35906 0.99121904 1.9679711
1.36409 1.00021 1.967041
1.36497 1.01086 1.967991
1.36957 1.0200499 1.9673709
1.37429 1.0280499 1.9671111
1.3590801 1.09767 1.9709109
1.3776699 1.09831 1.9693711
1.29328 0.99461097 1.96623
1.3156301 0.996207 1.963724
1.3526601 0.994403 1.9620709
1.36901 0.99913806 1.9609931
1.36718 1.0106701 1.9615829
1.3722099 1.0209401 1.960623
1.3704201 1.0298101 1.9611371
1.36701 1.09466 1.9660379
1.31047 0.991063 1.9591651
1.3111399 0.99966598 1.9580851
1.33692 0.99946296 1.956821
1.35672 1.00429 1.956179
1.368 1.01302 1.955027
1.3722399 1.02131 1.9547281
1.37358 1.0290101 1.9546591
1.30716 1.00155 1.9537641
1.33215 1.0011001 1.9512731
1.34728 1.00569 1.950788
1.3570399 1.0138099 1.949765
1.36282 1.02446 1.949257
1.36911 1.0327899 1.9480591
1.3847901 1.08462 1.945616
1.3492799 0.989048 1.9424359
1.33113 1.00208 1.9456491
1.3469299 1.007 1.944201
1.3577901 1.01648 1.943463
1.3587601 1.0266401 1.943629
1.36983 1.0332299 1.942251
1.38649 1.03807 1.9405029
1.38116 1.07889 1.9417999
1.38 1.08535 1.941571
1.34433 0.99962801 1.938342
1.34838 1.00685 1.938098
1.3526801 1.01623 1.9373541
1.36189 1.02609 1.9374671
1.37003 1.0350599 1.936196
1.3764999 1.04294 1.936049
1.3864 1.04997 1.93504
1.38188 1.0771199 1.936649
1.3776 1.08486 1.936398
1.35044 0.99843597 1.9308361
1.3458501 1.00828 1.932773
1.3470501 1.01849 1.931228
1.35912 1.0256701 1.93119
1.3638699 1.0357801 1.9312689
1.3713299 1.04478 1.930629
1.38337 1.05235 1.93005
1.38191 1.06472 1.9310601
1.3786999 1.07619 1.931084
1.3872501 1.0811 1.930068
1.3590199 0.99546301 1.9232721
1.3497701 1.00779 1.9257801
1.34224 1.02053 1.9263901
1.35241 1.0274199 1.9254041
1.36032 1.03544 1.9258912
1.36578 1.04493 1.9251761
1.36572 1.0574501 1.925258
1.37718 1.0658001 1.925807
1.37094 1.07702 1.9256531
1.3498399 1.01802 1.920177
1.35667 1.06156 1.9204251
1.3642399 1.06919 1.920292
1.37141 0.958453 2.023201
1.37045 0.96817499 2.023591
1.37166 0.980735 2.0226309
1.3725101 0.99249297 2.0231509
1.36731 0.96099502 2.017621
1.3698 0.96959704 2.0167708
1.36842 0.98215699 2.015981
1.37475 0.991624 2.0174911
1.37105 0.95977098 2.010411
1.36561 0.97230905 2.0106311
1.37185 0.98028898 2.0093412
1.3754401 0.99124902 2.0108411
1.37565 0.95635301 2.0032611
1.37254 0.96782303 2.0036209
1.3614399 0.98486298 2.0041211
1.3694201 0.99377602 2.0039511
1.3706501 1.00599 2.0038309
1.38095 0.95333201 1.996611
1.37028 0.96812898 1.997561
1.37006 0.97975194 1.998011
1.3724099 0.99130094 1.996911
1.37002 1.0063601 1.997521
1.38545 0.94236803 1.991171
1.39283 0.94774199 1.990271
1.3724999 0.96752298 1.9919111
1.36617 0.98305494 1.991531
1.36631 0.99617898 1.990911
1.36523 1.00867 1.9914709
1.37523 1.0161799 1.990741
1.38676 1.0227799 1.990931
1.3724699 0.96953201 1.985121
1.3636501 0.98554003 1.985751
1.36603 0.99470001 1.984661
1.3648399 1.0088099 1.9849411
1.3737601 1.01844 1.9843609
1.38513 1.02387 1.984731
1.40977 1.0216401 1.9844611
1.38143 0.96522695 1.976891
1.3655701 0.98350304 1.9794211
1.36045 0.99816298 1.979001
1.3647 1.00869 1.977841
1.36989 1.01893 1.9786512
1.3836399 1.02433 1.9784509
1.3959199 1.0278 1.978761
1.3601199 0.96700799 1.973501
1.3863901 0.962322 1.971671
1.36252 0.98540705 1.9725009
1.3593601 0.99949598 1.973101
1.36643 1.0066301 1.971761
1.37006 1.01752 1.971801
1.37474 1.02724 1.972991
1.3884701 1.03084 1.972061
1.32181 0.98176903 1.9646111
1.35097 0.98396003 1.9665101
1.3586501 0.98785895 1.9662632
1.36078 0.99737197 1.966781
1.3599499 1.0104901 1.966459
1.3632801 1.0205899 1.9658689
1.3744501 1.02821 1.9659201
1.38615 1.03313 1.965525
1.30908 0.989721 1.9613919
1.30562 0.99794602 1.962117
1.3529201 0.99135101 1.960394
1.35393 1.00266 1.961221
1.35849 1.01202 1.960524
1.36637 1.02074 1.959806
1.36904 1.0315 1.9590051
1.3758999 1.03833 1.9594979
1.32112 0.98551399 1.9558951
1.32767 0.99066198 1.95582
1.3352001 0.99943703 1.954756
1.3495799 1.00483 1.955094
1.3607601 1.01218 1.954687
1.3621899 1.0236599 1.9535919
1.36297 1.03451 1.953997
1.37202 1.04045 1.953572
1.3897099 1.04232 1.951872
1.36549 1.09215 1.951951
1.33039 0.99054998 1.949877
1.3284 1.00173 1.949556
1.34658 1.00503 1.948607
1.35734 1.01265 1.9489
1.35972 1.0235 1.9469811
1.36694 1.0335 1.9478891
1.37696 1.0410199 1.947078
1.38493 1.0462 1.946244
1.3788 1.07978 1.946492
1.37023 1.08996 1.947142
1.32539 1.00471 1.943671
1.3373599 1.00938 1.9430181
1.35572 1.01283 1.942535
1.3530999 1.02556 1.941573
1.3644501 1.03292 1.9409931
1.3726401 1.04144 1.941817
1.37545 1.0515699 1.94084
1.3673599 1.0831 1.942005
1.36233 1.09252 1.9430591
1.33722 1.00152 1.9362329
1.3353701 1.0111901 1.9367681
1.3446801 1.01889 1.9369681
1.3590801 1.0248001 1.9357791
1.36352 1.0344501 1.9344461
1.3693401 1.04354 1.9357581
1.37052 1.05558 1.934588
1.37903 1.06445 1.934968
1.36606 1.08144 1.935516
1.3647901 1.09109 1.937345
1.3335899 1.01344 1.930469
1.34131 1.0198799 1.9306481
1.3579299 1.02466 1.930076
1.35797 1.03664 1.9285378
1.3653101 1.0464 1.9294211
1.37099 1.05549 1.929001
1.36927 1.0677201 1.929595
1.36991 1.0792 1.9286051
1.37455 1.0862499 1.929997
1.3538901 1.0052301 1.921331
1.3434 1.01937 1.9238541
1.34847 1.02873 1.924584
1.35233 1.0391201 1.9227921
1.359 1.04732 1.923753
1.3649299 1.0574 1.923936
1.3596201 1.07261 1.924031
1.3626199 1.0822899 1.9232379
1.3789901 1.0846701 1.922612
1.3560899 1.1202301 2.0297811
1.36777 0.96498799 2.024061
1.36738 0.979047 2.024051
1.3784 0.98730797 2.0241611
1.3721299 1.10334 2.0236809
1.35571 1.11897 2.0239708
1.36435 1.12277 2.0245512
1.36909 0.965684 2.0171909
1.36629 0.97905505 2.017441
1.3739301 0.98839498 2.0172811
1.36474 1.1061901 2.0181711
1.35304 1.11991 2.0190711
1.3766999 1.11562 2.0181711
1.36617 0.96972102 2.009491
1.3692399 0.97783303 2.0106711
1.36931 0.98966402 2.0114012
1.37868 0.99859595 2.010011
1.3649499 1.1052899 2.011811
1.35158 1.11948 2.0127709
1.2969 0.94091696 2.002151
1.37151 0.96608102 2.002521
1.36677 0.97927201 2.003871
1.37181 0.98916101 2.0048609
1.37695 1.00037 2.002651
1.3641299 1.10474 2.005321
1.34832 1.1195301 2.0060711
1.28477 0.94999605 1.998381
1.3076401 0.94224501 1.9977609
1.3709301 0.96647 1.9968511
1.36997 0.97626406 1.997211
1.36849 0.990453 1.997671
1.3695101 1.0043499 1.9959909
1.3595799 1.10672 1.9987711
1.3546001 1.11614 1.999141
1.27915 0.95592302 1.994071
1.28429 0.95908898 1.9938409
1.28188 0.97133905 1.992031
1.3704 0.96843696 1.9913009
1.36457 0.98209399 1.9916511
1.3619599 0.99594802 1.990901
1.3643899 1.00712 1.990001
1.37328 1.01587 1.9899111
1.39053 1.01894 1.990121
1.3543401 1.10782 1.992121
1.3563 1.1143299 1.992581
1.2817501 0.96454597 1.9880911
1.29436 0.96690696 1.9855111
1.3598801 0.98674601 1.984971
1.35809 0.99978697 1.984581
1.36437 1.00971 1.9839911
1.36696 1.0214601 1.983591
1.38425 1.02337 1.983641
1.40017 1.0241899 1.983811
1.37326 1.0896499 1.984831
1.3591901 1.1042299 1.9854611
1.3594501 1.11199 1.9860809
1.29564 0.96909404 1.9801711
1.30633 0.97108102 1.9787509
1.3597 0.98692101 1.9767709
1.3599299 0.99638098 1.9784011
1.36186 1.00774 1.977921
1.3657299 1.0200499 1.977221
1.3799499 1.0261101 1.976981
1.39399 1.02946 1.976781
1.3628 1.09386 1.979401
1.3563401 1.10509 1.980441
1.3827001 1.0993 1.9787711
1.3149699 0.959795 1.9728311
1.3007801 0.97703904 1.9736911
1.3152001 0.97620904 1.972651
1.3655 0.98195601 1.9688311
1.35878 0.99783498 1.9713809
1.3610001 1.01107 1.9712911
1.37389 1.01606 1.970471
1.3738 1.0286499 1.9703311
1.3927499 1.03167 1.969931
1.42067 1.02676 1.968421
1.3688099 1.09003 1.9726111
1.3711799 1.09645 1.973061
1.3054401 0.97705299 1.9679511
1.31348 0.98124903 1.9669211
1.36823 0.96889603 1.962359
1.3702999 0.97724605 1.9630661
1.35953 0.99434996 1.9643091
1.3595901 1.0085399 1.9647892
1.3638099 1.02153 1.964538
1.37141 1.03144 1.963809
1.38254 1.03678 1.9638211
1.4163201 1.03219 1.9618561
1.37529 1.0854 1.9655081
1.38726 1.08699 1.965258
1.3169701 0.98282796 1.960925
1.3404601 0.981305 1.95884
1.3653101 0.97976601 1.9580411
1.3541701 1.00025 1.958009
1.3605 1.0107499 1.958572
1.35954 1.0233101 1.9578861
1.36869 1.03161 1.957496
1.37695 1.03977 1.9581031
1.4003999 1.0408599 1.9560721
1.4025 1.0526299 1.956452
1.3780099 1.08033 1.9579159
1.38854 1.08512 1.9586501
1.3390499 0.98375601 1.952475
1.34504 0.99169999 1.95297
1.34656 1.00432 1.951202
1.3551199 1.01386 1.952108
1.36103 1.02487 1.9517511
1.36378 1.03545 1.951741
1.3801401 1.03966 1.9507099
1.40084 1.04238 1.949306
1.40203 1.05282 1.950882
1.3754201 1.0839801 1.951808
1.3831199 1.08746 1.951774
1.3417 0.98517001 1.945675
1.34373 0.99393404 1.94613
1.3384801 1.00868 1.9461859
1.3548599 1.01148 1.944823
1.36024 1.02235 1.9458721
1.36799 1.03289 1.9448199
1.37572 1.0434101 1.9440061
1.3888 1.0484201 1.9440171
1.3983501 1.05363 1.9446789
1.3717901 1.08516 1.945676
1.39169 1.0834 1.9447479
1.35087 0.99099404 1.9397031
1.3421299 1.00678 1.9406439
1.35072 1.01387 1.93864
1.3571401 1.02397 1.9390491
1.3594 1.03747 1.937946
1.3684801 1.04614 1.9383551
1.3839 1.05129 1.9379449
1.39179 1.06019 1.938526
1.37077 1.08356 1.938796
1.3860401 1.08578 1.9389349
1.3460801 1.00656 1.93388
1.35023 1.0173 1.9322231
1.3522999 1.02934 1.9330361
1.3556399 1.0398 1.9317261
1.3619299 1.0490201 1.9323059
1.37464 1.0558 1.9321771
1.3800101 1.06629 1.9329761
1.36737 1.0842099 1.9328971
1.38411 1.0854499 1.931718
1.3485299 1.0081099 1.9255209
1.33726 1.02503 1.926644
1.3437101 1.0339299 1.927164
1.3483901 1.04465 1.92634
1.35637 1.0513201 1.9268891
1.3595901 1.0628099 1.9266369
1.3693401 1.07154 1.9273959
1.37131 1.08269 1.9264411
1.38712 1.0843199 1.9241571
1.33741 1.03517 1.9216211
1.34216 1.0461 1.920686
1.35324 1.05472 1.920742
1.3534199 1.0672001 1.9210792
1.36501 1.07355 1.9208121
1.3663601 0.96423203 2.025491
1.37354 0.96998399 2.0252311
1.3732001 0.98607904 2.0255311
1.3830299 0.99435896 2.0255411
1.36843 0.96345299 2.018321
1.3662 0.97749704 2.018681
1.3714999 0.98715502 2.0185211
1.3811301 0.995161 2.017961
1.3736701 0.95955902 2.0104611
1.36841 0.97379202 2.0122111
1.37046 0.98644501 2.011981
1.3737199 1.00036 2.0101011
1.37519 0.95855403 2.003181
1.36777 0.97452903 2.0055912
1.3658501 0.99048501 2.0045211
1.3686301 1.00392 2.003031
1.3802699 0.955383 1.995911
1.3664399 0.97617203 1.998401
1.3623599 0.99390298 1.997321
1.36906 1.00327 1.997131
1.3806399 0.95595396 1.9893109
1.3647901 0.97851402 1.990921
1.3553599 0.99815398 1.991261
1.36366 1.00623 1.991221
1.37002 1.01615 1.9900211
1.39311 1.01515 1.988911
1.3631599 0.98039299 1.9837811
1.3611 0.99468696 1.984661
1.36789 1.00518 1.9844811
1.37819 1.0122399 1.983031
1.38677 1.02162 1.9817511
1.39714 1.02561 1.9825009
1.36261 0.98295194 1.9769111
1.3649601 0.99107099 1.9775411
1.3661301 1.0052201 1.9775109
1.36954 1.01984 1.9760611
1.37783 1.02912 1.9758509
1.39034 1.0315 1.976521
1.4138901 1.02588 1.9753009
1.35964 0.99839699 1.970551
1.35631 1.01509 1.9704309
1.3585299 1.0273499 1.9699411
1.3735299 1.0307 1.9697109
1.3859801 1.0355201 1.9698709
1.36006 0.99778998 1.9619401
1.35575 1.01279 1.96343
1.3587601 1.02518 1.9636081
1.36599 1.03394 1.9638752
1.37714 1.04158 1.9627411
1.40354 1.0374401 1.9611859
1.38712 1.05997 1.960459
1.3513 0.97229695 1.952265
1.36577 0.99051398 1.954349
1.3593401 1.00774 1.9559439
1.36278 1.0198799 1.9563479
1.36589 1.03487 1.956333
1.37911 1.0426 1.9555221
1.3944099 1.04524 1.955664
1.39213 1.05891 1.9539059
1.33473 0.97435498 1.9483811
1.33322 0.98575997 1.949057
1.35184 0.98498899 1.9487342
1.3544501 0.99904096 1.949015
1.3545799 1.01375 1.9504291
1.35912 1.0257 1.949527
1.3622301 1.03763 1.949937
1.37517 1.0431501 1.9489889
1.387 1.05077 1.9497299
1.3859301 1.06393 1.9483801
1.3762 1.08065 1.9487031
1.3187699 0.99645203 1.945195
1.33215 0.99973899 1.94436
1.33716 1.01185 1.943475
1.35237 1.01529 1.943841
1.3592501 1.0247799 1.942114
1.36637 1.03465 1.94332
1.37265 1.04476 1.9417261
1.3850501 1.05193 1.942884
1.3810401 1.06862 1.9421581
1.37615 1.08207 1.9432269
1.31607 0.99797302 1.9404731
1.3209599 1.00568 1.9401031
1.33661 1.01088 1.9373981
1.3445799 1.02057 1.9372231
1.34653 1.0331 1.936978
1.36317 1.03579 1.9362922
1.3711301 1.04505 1.9350299
1.37368 1.05878 1.9361639
1.3772701 1.0709 1.935165
1.37841 1.08083 1.936991
1.3525 1.00416 1.9290789
1.3397701 1.02292 1.93116
1.34892 1.0315599 1.930348
1.3583599 1.04093 1.9302181
1.36239 1.05301 1.9294479
1.37323 1.0612 1.9296429
1.36765 1.07653 1.9291071
1.37954 1.07933 1.929826
1.33909 1.02693 1.924209
1.33952 1.0382299 1.924379
1.3490199 1.0457 1.924082
1.35651 1.05602 1.9225329
1.36641 1.0642099 1.9237812
1.3631599 1.07829 1.92321
1.37529 1.0814199 1.922473
1.4216901 1.03258 1.991411
1.41985 1.0332199 1.984171
1.42211 1.02167 1.984401
1.4030499 1.03696 1.9747211
1.4167199 1.03426 1.9766809
1.42155 1.02385 1.977041
1.425 1.01127 1.9753311
1.3463901 1.10368 1.962715
1.3976899 1.03623 1.9672711
1.4174 1.03529 1.9695112
1.4177699 1.02011 1.9692709
1.43425 1.01393 1.9690812
1.3502201 1.10528 1.9577161
1.3473599 1.09552 1.9570309
1.40003 1.0395401 1.9601309
1.41382 1.03496 1.9603571
1.4217 1.02343 1.9623719
1.42893 1.0128 1.960041
1.44306 1.00484 1.962067
1.35663 1.10772 1.952721
1.35795 1.09998 1.951689
1.3854401 1.0434201 1.9517571
1.4055099 1.04422 1.953454
1.40965 1.03414 1.952292
1.4240601 1.02632 1.954404
1.42582 1.01239 1.952458
1.4343801 1.00202 1.952724
1.4561 0.99979597 1.9568759
1.3545899 1.10613 1.945348
1.36069 1.0992 1.943712
1.3476 1.08389 1.941613
1.3942399 1.04962 1.946106
1.40327 1.04364 1.945532
1.4160299 1.03529 1.945963
1.42365 1.02403 1.947093
1.42733 1.0121499 1.945598
1.4322301 1.00076 1.944718
1.45657 1.00201 1.9487271
1.3558201 1.10552 1.937063
1.3655299 1.1006 1.9376471
1.3610699 1.08725 1.9355741
1.39228 1.05152 1.9371701
1.41028 1.04694 1.938356
1.4199899 1.03826 1.939335
1.42265 1.02482 1.939178
1.4295501 1.0118099 1.9379871
1.44438 1.00603 1.9400971
1.4536301 1.00094 1.939683
1.3575799 1.1063501 1.9289081
1.36307 1.09815 1.929996
1.36194 1.08367 1.9280121
1.34539 1.06295 1.924729
1.37622 1.06115 1.9278672
1.39788 1.05629 1.9299179
1.4125301 1.0496399 1.931752
1.4185699 1.03821 1.931631
1.4214901 1.0221601 1.930746
1.4280499 1.01175 1.9306711
1.44358 1.00712 1.9329941
1.4561701 1.0029399 1.9341501
1.35207 1.10346 1.9207501
1.37009 1.10199 1.9231501
1.36858 1.0875499 1.9223011
1.35883 1.06782 1.92038
1.38261 1.0648 1.921904
1.39665 1.05814 1.922125
1.41207 1.0507801 1.924556
1.41982 1.04067 1.923861
1.42487 1.02854 1.923808
1.42553 1.0131401 1.9230859
1.45564 1.00272 1.9294281
1.40677 1.0336699 1.9953711
1.38736 1.0253299 1.988421
1.4142799 1.0283999 1.990521
1.3979499 1.03114 1.9836811
1.4072599 1.0261 1.983031
1.4221801 1.02091 1.984261
1.40285 1.0347 1.9762911
1.41644 1.02933 1.9773709
1.42361 1.01882 1.977211
1.3881199 1.0414 1.966477
1.4086 1.03786 1.9702811
1.41821 1.02887 1.9699411
1.43344 1.02189 1.972021
1.43542 1.0126001 1.9712911
1.3578 1.11295 1.957327
1.36404 1.0427899 1.95739
1.3862 1.04395 1.9596341
1.40488 1.0390899 1.9622061
1.41553 1.02904 1.9613119
1.4323599 1.02246 1.9645638
1.44538 1.01845 1.965681
1.34646 1.1078399 1.9508541
1.35496 1.10333 1.951282
1.2804401 1.0314 1.9353399
1.3659101 1.0448201 1.951627
1.3939199 1.04713 1.954247
1.4063001 1.03913 1.954648
1.4188499 1.03061 1.954275
1.42654 1.0211799 1.955973
1.4459 1.01992 1.959379
1.36659 1.1064299 1.9470999
1.3571899 1.09559 1.9454432
1.27389 1.03693 1.930141
1.28411 1.03334 1.930493
1.38625 1.05347 1.9474249
1.3997799 1.04877 1.947189
1.42048 1.04425 1.949749
1.42472 1.03361 1.947956
1.42765 1.0218101 1.94849
1.4399201 1.0172 1.95108
1.3643899 1.1032 1.938414
1.36558 1.09691 1.9397821
1.28671 1.04187 1.9259851
1.2976401 1.03899 1.9256961
1.39222 1.05656 1.9407459
1.40242 1.05189 1.9401211
1.4192101 1.04532 1.9419751
1.4250901 1.0342 1.9419641
1.43117 1.0238301 1.941367
1.43505 1.0134799 1.941835
1.3598399 1.1006401 1.9297991
1.3694501 1.0956501 1.9317261
1.3144701 1.0545501 1.9223191
1.3131599 1.0459 1.9213321
1.3928101 1.0575 1.93319
1.4111501 1.0550901 1.934389
1.41688 1.04426 1.9335681
1.4282401 1.0356801 1.936196
1.4269501 1.0215499 1.9329849
1.4366901 1.0131199 1.934198
1.46137 1.01494 1.937639
1.36392 1.10238 1.924104
1.364 1.09306 1.92301
1.3489799 1.07303 1.9204221
1.40231 1.06383 1.926373
1.4161501 1.05672 1.928189
1.41517 1.044 1.9257212
1.4232899 1.0335701 1.9278101
1.4224601 1.02017 1.925215
1.43634 1.01332 1.926784
1.45224 1.0083001 1.9281509
1.4251 1.04957 1.9204351
1.44019 1.01112 1.920094
1.4606301 1.00948 1.9220831
1.4671299 1.00433 1.9227719
1.3450301 1.10673 1.968311
1.3548801 1.10992 1.964654
1.33438 1.0964199 1.961803
1.35453 1.10938 1.959144
1.34399 1.0997 1.9571401
1.3557401 1.10964 1.952955
1.34431 1.0983599 1.9492801
1.34144 1.10339 1.943208
1.3501101 1.0983599 1.9425031
1.3764501 1.05092 1.940145
1.35447 1.0975701 1.9364721
1.33942 1.0857199 1.933616
1.3796699 1.05127 1.93619
1.40487 1.05258 1.938966
1.4732001 0.99495006 1.944036
1.45836 0.98080498 1.9411999
1.3566499 1.09602 1.928425
1.35783 1.08847 1.92896
1.3888401 1.0546601 1.931942
1.41697 1.0555999 1.9337811
1.4611099 1.00109 1.9362381
1.46864 0.99331999 1.938361
1.46086 0.982086 1.9356641
1.36765 1.08966 1.922967
1.39733 1.05845 1.925625
1.4188 1.05452 1.9269021
1.44372 1.05275 1.930607
1.4460601 1.00985 1.927894
1.4564 1.00292 1.929185
1.46345 0.99268204 1.930371
1.4585899 0.98130798 1.929172
1.42439 1.05602 1.921427
1.43075 1.0466 1.9224
1.45755 1.04474 1.926326
1.43941 1.02257 1.921471
1.4434301 1.0103 1.921627
1.4596001 1.00288 1.923103
1.46409 0.99237996 1.9232891
1.45996 0.98192704 1.923273
1.45664 0.99836504 1.9559021
1.44506 1.02246 1.9477401
1.4439999 1.00841 1.947854
1.44812 0.99777901 1.9493091
1.45577 0.98938698 1.9505761
1.4459701 0.97740501 1.9472189
1.43016 1.0432 1.9399639
1.42953 1.0308499 1.940325
1.4354601 1.0196199 1.941416
1.43511 1.0073301 1.940185
1.44718 0.99749702 1.943108
1.4538699 0.98793501 1.9438471
1.44401 0.97666901 1.9401691
1.4286 1.0533201 1.9345819
1.4235699 1.04125 1.9341171
1.42994 1.03014 1.934647
1.43151 1.0181099 1.935027
1.43138 1.00769 1.9332111
1.4434199 0.99841797 1.934797
1.4538901 0.98904401 1.93735
1.44269 0.97689599 1.9330239
1.41817 1.06233 1.926578
1.4194701 1.0514801 1.9280471
1.41914 1.03973 1.9266291
1.43527 1.03233 1.929173
1.42767 1.01846 1.927744
1.44039 1.00848 1.9279791
1.4448301 0.99799401 1.9286121
1.4521099 0.98923498 1.92968
1.4446499 0.97731298 1.9263
1.4159399 1.0525299 1.9205999
1.42656 1.04267 1.9203439
1.42555 1.02912 1.920995
1.43538 1.01879 1.9221569
1.44886 0.99864095 1.9228672
1.4570301 0.98941201 1.923703
1.4211301 1.0327201 1.955959
1.43239 1.02441 1.9575649
1.43941 1.01359 1.9583811
1.4557 1.0027601 1.962239
1.4017999 1.03932 1.948547
1.4119099 1.03328 1.9496741
1.42818 1.0241799 1.951925
1.4344001 1.01278 1.9523581
1.44735 1.0038099 1.954591
1.4067501 1.04216 1.9434781
1.4153999 1.03397 1.944209
1.43177 1.025 1.945585
1.4350301 1.01489 1.947054
1.44028 1.00437 1.9471459
1.4611599 0.99608499 1.950404
1.3822999 1.09816 1.9328179
1.3696201 1.0889601 1.9300619
1.34849 1.0772001 1.925687
1.3845199 1.048 1.9338751
1.41105 1.04388 1.937487
1.42476 1.0345401 1.9385
1.42758 1.0238401 1.9389582
1.43996 1.01486 1.940755
1.4500101 1.0032099 1.941958
1.47047 0.99658698 1.945015
1.46963 0.988729 1.9432181
1.36992 1.09569 1.9261191
1.3654201 1.0865899 1.92397
1.35289 1.0756401 1.9209259
1.39263 1.0502601 1.9287399
1.41397 1.0445501 1.930571
1.42799 1.03538 1.9323699
1.43317 1.02449 1.9336849
1.43856 1.01467 1.933912
1.4430799 1.0047699 1.9341642
1.46649 0.99680102 1.937384
1.4696499 0.988864 1.937469
1.40216 1.05445 1.9226489
1.41721 1.04662 1.923841
1.42316 1.03706 1.9258389
1.4377 1.0281199 1.927579
1.4392301 1.01476 1.92724
1.4526 1.00449 1.929288
1.4676801 0.99734497 1.9300781
1.47119 0.98967695 1.9316831
1.42946 1.04905 1.920104
1.42972 1.0381 1.9202011
1.4415401 1.02649 1.920828
1.4398301 1.0146099 1.9203711
1.4535899 1.00528 1.922338
1.47346 0.99861002 1.92531
1.4695599 0.98982805 1.924228
1.35523 0.97913694 1.9683709
1.3420399 0.96079397 1.964645
1.35115 0.976331 1.9636431
1.3662399 0.99647498 1.96314
1.3463901 0.96370399 1.9588619
1.34437 0.97201699 1.95742
1.35787 0.99084604 1.9581021
1.34543 0.96248704 1.951229
1.3472501 0.97398001 1.950338
1.3522099 0.98740405 1.9512671
1.33933 0.957389 1.944669
1.34073 0.96848196 1.944225
1.34404 0.98163497 1.9439151
1.3472301 0.96408999 1.9367501
1.34563 0.97381598 1.9369211
1.34495 0.98344594 1.936862
1.3422501 0.96017402 1.929101
1.34421 0.97255999 1.92959
1.3417101 0.98151606 1.930468
1.34263 0.95988405 1.9227741
1.34044 0.96876097 1.9221921
1.3363299 0.97780401 1.9226739
1.3396001 0.94377798 2.023891
1.33522 0.93206805 2.0190508
1.3537601 0.95099294 2.0194111
1.3414199 0.93436098 2.0131011
1.34168 0.94279504 2.0136411
1.3399401 0.92423201 2.0071511
1.3462601 0.93633497 2.007031
1.3443401 0.94476599 2.0062711
1.3449 0.92641997 2.000351
1.3492 0.93980497 2.0001011
1.34752 0.94920599 1.999401
1.35431 0.92861098 1.9925312
1.3428999 0.93368101 1.993201
1.34049 0.94527 1.993541
1.35229 0.962304 1.992991
1.3493401 0.91585702 1.9869111
1.348 0.92490697 1.9864911
1.3449401 0.93455905 1.9870911
1.33936 0.94309098 1.9871609
1.35083 0.96269 1.9858811
1.3523599 0.91739702 1.980661
1.35489 0.92811799 1.979221
1.3453799 0.93506402 1.9812109
1.3450799 0.94862998 1.9800311
1.348 0.96439797 1.9784311
1.34089 0.96942002 1.9794611
1.35884 0.92069101 1.9731711
1.35544 0.92799401 1.9733411
1.3485299 0.936607 1.973871
1.3475101 0.95213205 1.972451
1.35153 0.96842796 1.971871
1.3507 0.97821099 1.972281
1.36518 0.92435998 1.9654089
1.3572999 0.92973703 1.967391
1.35432 0.94192398 1.9658431
1.3487101 0.95321 1.9655831
1.3498501 0.96596098 1.9663949
1.34912 0.97850698 1.965521
1.34015 0.98271298 1.9663229
1.3708501 0.92733401 1.9581821
1.35964 0.93145597 1.959884
1.34904 0.93770403 1.9597501
1.34582 0.94934195 1.9590201
1.3471401 0.96599299 1.9596
1.3489701 0.98055899 1.9586639
1.3425101 0.98545897 1.959982
1.3666999 0.93438399 1.9529949
1.35537 0.94069803 1.953199
1.3358901 0.94383502 1.952558
1.3439 0.96318495 1.952634
1.33933 0.97398299 1.9529611
1.3423899 0.98601305 1.953434
1.3587101 0.931925 1.946883
1.3486 0.93857002 1.947095
1.3359101 0.94251406 1.947119
1.33101 0.95552301 1.9473211
1.33382 0.97057295 1.946772
1.33583 0.98168099 1.9471691
1.36975 0.93623 1.9379849
1.3537199 0.93877101 1.940846
1.32696 0.96735495 1.941938
1.33237 0.98007399 1.941378
1.37791 0.94015402 1.9307699
1.35728 0.93778604 1.933463
1.30705 0.96492106 1.938544
1.36518 0.941836 1.9258912
1.3406199 0.90986997 2.0206311
1.3362801 0.918823 2.0203509
1.32426 0.92537397 2.0202711
1.35825 0.91470999 2.016211
1.3492399 0.92266703 2.015871
1.3421299 0.93017 2.0159712
1.3170799 0.93149805 2.0161409
1.3599499 0.91553497 2.010381
1.3534399 0.92308998 2.0106611
1.34675 0.93114197 2.0110409
1.33743 0.93787801 2.010231
1.36181 0.91689402 2.003511
1.35918 0.924326 2.0043709
1.3481599 0.93260002 2.0049911
1.35113 0.943151 2.004271
1.3387899 0.94754201 2.0035212
1.36692 0.91712499 1.9973609
1.3580099 0.92322195 1.998631
1.3553599 0.93220598 1.998571
1.3445799 0.94135499 1.9986011
1.34035 0.95110494 1.996861
1.36174 0.92390001 1.992381
1.35515 0.93453401 1.992211
1.34172 0.94306201 1.991771
1.3421299 0.95423597 1.9911911
1.31573 0.95587701 1.991701
1.3551199 0.92503405 1.986221
1.3466499 0.93436599 1.986351
1.33996 0.94225001 1.9862509
1.3397501 0.95233703 1.985741
1.33199 0.961586 1.9860611
1.32635 0.96913397 1.9857211
1.3751301 0.91690004 1.9780811
1.3599601 0.92445397 1.9798809
1.35028 0.93275201 1.9809411
1.34504 0.94284105 1.9803411
1.3412499 0.95278502 1.9801511
1.3359801 0.96193701 1.979781
1.3293899 0.97138804 1.980231
1.3042101 0.972049 1.981161
1.3734599 0.91720003 1.9722409
1.3652201 0.92566496 1.9735711
1.3534199 0.93353796 1.975091
1.35111 0.94336098 1.9737811
1.3440499 0.95300794 1.9742111
1.3333501 0.96130502 1.973761
1.33441 0.97276706 1.9736011
1.3291299 0.98099899 1.974191
1.37231 0.92737603 1.967081
1.35418 0.93403703 1.9689211
1.35321 0.94532502 1.9679111
1.34199 0.95427901 1.9677011
1.3460001 0.96671206 1.9679309
1.33849 0.97445399 1.967321
1.3312199 0.98256701 1.9676111
1.31709 0.98613703 1.968631
1.35965 0.93653399 1.9620911
1.34442 0.94429803 1.962586
1.3456399 0.95435405 1.9613321
1.3382699 0.96409106 1.961919
1.3322301 0.97463697 1.9620999
1.3316901 0.98393202 1.9620911
1.3263699 0.989447 1.9621201
1.36964 0.93839699 1.954808
1.3494 0.94522005 1.9562382
1.3415899 0.95511901 1.9559979
1.34196 0.96491301 1.9557641
1.3345599 0.97266501 1.9562149
1.3306199 0.98286301 1.956503
1.33246 0.991741 1.9550079
1.37517 0.940216 1.9483709
1.3553599 0.94546205 1.9494791
1.34386 0.953471 1.95044
1.3399899 0.964261 1.9499991
1.33246 0.97402298 1.950847
1.33304 0.98423105 1.9497821
1.3300799 0.99227798 1.948656
1.3617301 0.94649398 1.9440521
1.3515601 0.95639098 1.9437149
1.34302 0.96520305 1.943723
1.33744 0.974756 1.944289
1.3299699 0.98438299 1.9433219
1.33093 0.99513 1.942567
1.28585 0.99535596 1.9431579
1.35975 0.94693494 1.9401699
1.3208799 0.95233202 1.939252
1.33569 0.96484596 1.938538
1.33166 0.97460097 1.938632
1.3269299 0.98280299 1.9376739
1.32286 0.99271005 1.937456
1.3004401 0.997881 1.9387641
1.27095 0.99802101 1.9400281
1.33612 0.965846 1.93191
1.33183 0.974518 1.9325531
1.3314 0.98554397 1.931969
1.32461 0.99386704 1.930935
1.31232 1.0012001 1.932384
1.2783799 1.00069 1.935074
1.27139 1.0057701 1.9354471
1.32183 0.96288598 1.9262609
1.3322501 0.97338206 1.926541
1.32935 0.98414999 1.9259861
1.33418 0.99665099 1.9250369
1.3181701 1.00251 1.9256179
1.2863699 1.00349 1.9286951
1.27586 1.00792 1.930106
1.32345 0.96423602 1.920408
1.32864 0.97342104 1.920771
1.3288699 0.99512202 1.920079
1.30084 1.00798 1.9212811
1.28468 1.0110099 1.9236341
1.4622799 0.95255202 1.9270511
1.4360299 0.99986804 1.950057
1.42688 0.99339104 1.951052
1.42302 1.0064399 1.942551
1.4352299 0.99063402 1.945488
1.4264799 1.0045201 1.9371691
1.4385899 0.98794997 1.9381851
1.42875 1.00317 1.9300439
1.4376301 0.98992598 1.9305459
1.45876 0.96783996 1.935317
1.43235 1.00138 1.923237
1.4446001 0.98517096 1.924758
1.46102 0.96402496 1.9296939
1.45461 0.95460504 1.9285519
1.45732 0.967269 1.9212852
1.45587 0.95367301 1.921373
1.38183 1.0598999 1.9501361
1.3786 1.06163 1.944384
1.3592501 1.0636699 1.9421631
1.37765 1.06223 1.9374241
1.3685001 1.05796 1.938108
1.3787601 1.04222 1.9391999
1.3866401 1.05899 1.930228
1.3711901 1.05591 1.9310681
1.3873301 1.03614 1.932639
1.4073801 1.0590301 1.9257879
1.3901801 1.05919 1.923288
1.38366 1.04931 1.924389
1.3947099 1.03093 1.9258441
1.4637101 0.967228 1.9382119
1.4676199 0.96401 1.9329431
1.4682201 0.96321601 1.926105
1.47012 0.95316595 1.926919
1.45743 0.95080805 1.9243851
1.37815 0.92135501 2.0173309
1.37095 0.93217903 2.0184109
1.3741701 0.93334198 2.0096412
1.36485 0.93914902 2.0092309
1.37832 0.93720901 2.0022509
1.37319 0.94501996 2.0045011
1.37519 0.93475503 1.990231
1.37195 0.94653803 1.9921609
1.38388 0.92664003 1.9827811
1.37816 0.93924201 1.9845111
1.3682899 0.947586 1.9800311
1.38046 0.96779603 1.9931711
1.38616 0.92866701 1.9747409
1.37849 0.93903297 1.9740311
1.3688999 0.94962996 1.971611
1.3699899 0.96321797 1.977771
1.36808 0.972211 1.9803411
1.38922 0.93019503 1.966911
1.38077 0.93973702 1.965748
1.37272 0.94954103 1.964173
1.36752 0.96158797 1.966578
1.3638901 0.97019994 1.9688809
1.3839301 0.94164497 1.958508
1.37429 0.95172697 1.9551401
1.3683299 0.96105903 1.957323
1.3637199 0.97078902 1.9580231
1.38061 0.9425 1.9470791
1.3727299 0.95133501 1.9456481
1.36717 0.96186697 1.946308
1.36067 0.971883 1.9454541
1.37769 0.95288599 1.9397701
1.37326 0.96544194 1.939821
1.3634801 0.97471297 1.938076
1.3755499 0.99484998 1.95108
1.38263 0.95798701 1.9331329
1.3703301 0.96656096 1.928966
1.36163 0.97656196 1.927912
1.36281 0.98871398 1.9335071
1.37956 0.95907205 1.9223269
1.36208 0.99041003 1.9239191
1.37032 1.0075099 1.9337399
1.3722301 0.92973101 2.014401
1.3697301 0.94141996 2.018471
1.3695199 0.951612 2.0237811
1.37546 0.93079299 2.007441
1.3688 0.94060302 2.0071211
1.37046 0.951922 2.014241
1.3774099 0.93415499 2.0005209
1.36835 0.94174498 1.9973309
1.36778 0.95063597 2.001821
1.37336 0.94240999 1.9912812
1.36803 0.95078105 1.990941
1.37679 0.93334699 1.9817111
1.3689599 0.942572 1.9786011
1.36498 0.95065397 1.9792709
1.38595 0.92430997 1.9725009
1.38015 0.93540198 1.9739211
1.3689799 0.94343001 1.968631
1.3686 0.95470804 1.972291
1.3852201 0.93453199 1.9663651
1.37354 0.94268501 1.962051
1.36964 0.955688 1.9629691
1.37694 0.97143096 1.972021
1.38437 0.936822 1.956944
1.3764701 0.947442 1.955005
1.3719299 0.95810205 1.9561349
1.36757 0.967022 1.9560502
1.38266 0.98522204 1.972021
1.3768201 0.94725901 1.946363
1.37025 0.95645601 1.945817
1.3615199 0.96495599 1.942077
1.3624899 0.97683501 1.945658
1.38223 0.94955707 1.9408441
1.36849 0.95780295 1.934651
1.36388 0.96987098 1.935792
1.3615899 0.97985196 1.9369251
1.3796201 0.95148301 1.929915
1.36948 0.95818001 1.9263141
1.36377 0.96816999 1.925817
1.3596801 0.97920305 1.9275531
1.36738 0.99356598 1.9356549
1.36358 0.98057401 1.9213901
1.44504 0.96351701 1.939785
1.46507 0.963274 1.934502
1.38115 0.92861801 2.017961
1.3782899 0.94146597 2.0199211
1.37025 0.95039499 2.0166709
1.3696201 0.95944899 2.020061
1.38108 0.93981397 2.0123911
