# .PCD v0.7 - Point Cloud Data file format
VERSION 0.7
FIELDS x y z
SIZE 4 4 4
TYPE F F F
COUNT 1 1 1
WIDTH 383
HEIGHT 1
VIEWPOINT 0 0 0 1 0 0 0
POINTS 383
DATA ascii
1.50738 1.01333 0.14903602
1.5151401 1.02231 0.14494003
1.54107 1.0240899 0.13200799
1.50025 0.994129 0.14016601
1.50088 1.00367 0.14349701
1.508 1.0141001 0.13958801
1.51925 1.02301 0.13546401
1.53502 1.02696 0.12796204
1.50001 0.994178 0.13317604
1.50095 1.00333 0.13440301
1.50617 1.0139199 0.13195801
1.5106 1.02404 0.13246399
1.53114 1.0276101 0.12264198
1.4988 0.99544698 0.12822601
1.49805 1.00585 0.12943801
1.50692 1.01414 0.12563904
1.5093499 1.02414 0.12656502
1.5268401 1.02844 0.11842705
1.4952099 0.99224299 0.14779
1.4979401 1.00098 0.14960404
1.5055701 1.02247 0.14916405
1.5092701 1.03111 0.14934799
1.50694 0.98747498 0.13252801
1.49888 0.999798 0.14058204
1.5001199 1.01265 0.14225601
1.50384 1.02439 0.14277901
1.50989 1.03106 0.13942298
1.5091701 0.98680997 0.12207001
1.4988 1.00133 0.13205101
1.5052201 1.01069 0.13073899
1.50629 1.02235 0.13224
1.51069 1.0322 0.12990303
1.54737 1.03219 0.10885605
1.51517 0.98396403 0.10935303
1.50003 1.00028 0.12184501
1.4996001 1.01305 0.12609802
1.50662 1.02393 0.12240501
1.5182401 1.03309 0.11759102
1.54284 1.0338501 0.10497902
1.52 0.98144203 0.098759994
1.5086399 0.99619204 0.10823403
1.50091 1.01221 0.11638702
1.50438 1.02329 0.11506005
1.51212 1.03345 0.11319603
1.53338 1.0372699 0.10316399
1.5251 0.978818 0.089644015
1.5110099 0.99429601 0.10011604
1.50306 1.01105 0.10783501
1.5075301 1.0245301 0.10768898
1.51817 1.03386 0.10382103
1.5311501 1.0391001 0.097993009
1.5506599 1.0400901 0.088168032
1.5078599 0.98326498 0.146764
1.5305001 1.02429 0.14283799
1.5547999 1.0221701 0.13277802
1.50114 1.01114 0.14644799
1.51302 1.02045 0.14136505
1.52911 1.02634 0.13569504
1.5517501 1.02469 0.126912
1.4960201 1.00315 0.13901901
1.5002201 1.01257 0.13736999
1.51056 1.02109 0.13287903
1.52097 1.02915 0.131502
1.5463099 1.02749 0.12130501
1.4960001 1.0040001 0.12863404
1.5028501 1.01223 0.126754
1.5116299 1.02108 0.123825
1.51659 1.0309401 0.124599
1.5423599 1.02921 0.113862
1.50164 1.00051 0.11485001
1.4977001 1.0123301 0.12099304
1.50933 1.01989 0.11613403
1.51433 1.03107 0.11708603
1.5306599 1.03596 0.10949005
1.5037601 0.99912906 0.10398903
1.50305 1.01029 0.108731
1.50256 1.02362 0.11143699
1.51456 1.03185 0.10712899
1.53179 1.03825 0.099711992
1.54952 1.03922 0.092375033
1.5089301 0.996387 0.091626056
1.5044399 1.0083001 0.098613054
1.50731 1.0204799 0.10006699
1.5103301 1.03327 0.099551007
1.5236701 1.04073 0.095015027
1.54014 1.0437599 0.089587018
1.51089 0.99519897 0.082261048
1.50537 1.00923 0.089596026
1.50397 1.0243801 0.093637012
1.5174 1.03179 0.087775037
1.51843 1.0434899 0.090287015
1.53124 1.04682 0.086183012
1.516 0.99178803 0.072656021
1.5052 1.0078 0.082058027
1.5067799 1.02187 0.084721982
1.51537 1.03179 0.082441024
1.5232201 1.04005 0.081042022
1.51196 1.0245099 0.14995201
1.5309 1.02737 0.14205605
1.5502 1.0259 0.13457604
1.4925599 1.0079399 0.14510399
1.50094 1.01522 0.14276199
1.5044501 1.0262101 0.144982
1.522 1.0308499 0.13762902
1.5423501 1.03081 0.13041298
1.4976401 1.00493 0.13212204
1.4973301 1.01581 0.13645302
1.50789 1.02482 0.13339302
1.51992 1.03274 0.13003601
1.53259 1.03649 0.12578003
1.5027699 1.0018901 0.11971199
1.49766 1.01607 0.127519
1.50633 1.0255001 0.12351403
1.517 1.0351599 0.12275703
1.5345399 1.03696 0.115559
1.50605 1.0000499 0.10818001
1.4997901 1.01485 0.11673004
1.5094299 1.02274 0.11238503
1.5141701 1.0357499 0.11328003
1.5291499 1.0408599 0.10888702
1.5066099 0.99957705 0.097902983
1.50257 1.01399 0.10530098
1.50625 1.02748 0.10646302
1.51193 1.03793 0.10617203
1.5232 1.04448 0.10219704
1.54983 1.04093 0.090645984
1.5159199 0.99385202 0.083029024
1.50783 1.00976 0.092052996
1.50738 1.0237 0.097010039
1.5134701 1.03596 0.096424028
1.5220701 1.04568 0.092851028
1.5456599 1.0435801 0.084208988
1.5160699 0.99398804 0.075495988
1.5060899 1.01098 0.084486008
1.50771 1.02398 0.088185042
1.51498 1.03597 0.086330034
1.5233099 1.04477 0.083969042
1.5360899 1.04849 0.080707014
1.5069299 1.01061 0.077509992
1.5097001 1.02355 0.079584047
1.51649 1.0367199 0.079094008
1.5190401 1.04763 0.080979005
1.5033901 0.93845099 0.14443505
1.49264 0.94399697 0.14973602
1.4888999 0.95731497 0.14740501
1.4841901 0.96695703 0.14524604
1.50235 0.93761498 0.13543305
1.49494 0.94482803 0.13850403
1.4857601 0.95294797 0.14150703
1.4816499 0.965083 0.13891701
1.4981599 0.98805702 0.125466
1.50509 0.93928599 0.12445198
1.49409 0.94418198 0.12944001
1.4888699 0.95641404 0.12971702
1.4836 0.96901602 0.12778001
1.4991601 0.99007797 0.11607704
1.5057601 0.93975502 0.114524
1.49783 0.94629502 0.11805702
1.4843899 0.95144701 0.12371399
1.4846699 0.96701896 0.11883499
1.49532 0.98744798 0.10892601
1.50913 0.94180602 0.10305405
1.4991901 0.94744402 0.10777099
1.4881301 0.95521796 0.11224099
1.4862199 0.969778 0.107182
1.49786 0.989254 0.097684018
1.51112 0.94305003 0.092272036
1.50112 0.94866699 0.097065046
1.49046 0.95715404 0.10117599
1.4922099 0.97240502 0.094336011
1.48831 0.982517 0.093303986
1.5145 0.94511104 0.080633014
1.50401 0.95045996 0.085746005
1.49181 0.95783597 0.090933993
1.49362 0.97394699 0.084314041
1.4906 0.98511297 0.081343003
1.51539 1.01695 0.058458023
1.51974 0.94826102 0.067841031
1.50384 0.95041394 0.076121978
1.49501 0.96012098 0.079490051
1.49063 0.97328901 0.076190032
1.49722 0.99270403 0.066825025
1.51116 1.0142701 0.053756028
1.52142 0.94932199 0.057005998
1.50646 0.95204598 0.06481903
1.4912601 0.957892 0.071957015
1.4926801 0.975528 0.065070041
1.4986399 0.99502999 0.056475982
1.5069299 1.01265 0.047257997
1.52065 0.94893897 0.047564011
1.51157 0.95516801 0.051962052
1.49446 0.96010697 0.060116041
1.4936399 0.97693998 0.053651046
1.49878 0.99641997 0.046348039
1.50293 1.01043 0.040732041
1.53193 0.95566201 0.030892029
1.51117 0.954992 0.042300034
1.4960201 0.96083903 0.04926201
1.4925599 0.97336698 0.045113984
1.49234 0.988841 0.041162033
1.4987601 1.00685 0.033775024
1.53166 0.95549303 0.021595001
1.51133 0.95487803 0.032220002
1.50243 0.96460605 0.035381012
1.49455 0.97657204 0.03393402
1.49429 0.99252504 0.029057007
1.49854 1.00693 0.023730012
1.53289 0.957026 0.012458039
1.5122 0.95496297 0.022972031
1.5016299 0.96460098 0.024514999
1.4951199 0.97956103 0.023085022
1.4929401 0.991808 0.020572051
1.4927299 1.0025901 0.017438048
1.5089 0.95595801 0.015579986
1.5034 0.96654898 0.012856979
1.4920399 0.97385103 0.017281037
1.48981 0.988388 0.014356003
1.49383 1.00351 0.0070470427
1.50806 0.95805198 0.0068170168
1.49935 0.96504802 0.0081470488
1.49858 0.97916603 0.0052339938
1.49088 0.99086499 0.0054240418
1.50589 0.93817002 0.14596198
1.48829 0.98006701 0.14485198
1.5132899 1.00807 0.12467804
1.50957 0.94001406 0.13477501
1.49731 0.94472605 0.14081001
1.4856 0.95276397 0.145941
1.48351 0.96739501 0.14148705
1.49271 0.98602897 0.13319306
1.50977 1.00613 0.11988503
1.51399 0.94222605 0.12309303
1.49938 0.94554496 0.13041504
1.48563 0.95331496 0.13585998
1.4766001 0.96316499 0.13678199
1.4893899 0.98376799 0.12637405
1.50805 1.00516 0.11352798
1.5145301 0.94252998 0.11345703
1.49985 0.94563901 0.12106903
1.4861701 0.95122802 0.12736404
1.47981 0.96344596 0.12682702
1.4887199 0.98267603 0.11627503
1.49938 0.99998498 0.10983399
1.51579 0.94318396 0.10337105
1.50067 0.946513 0.11116005
1.48798 0.95345002 0.11723099
1.4848 0.96739405 0.11363304
1.4852999 0.98128098 0.10892799
1.49378 0.99693602 0.10252701
1.51589 0.943277 0.093863986
1.5 0.94620597 0.10191903
1.48777 0.95486295 0.106792
1.4821899 0.96809196 0.10536903
1.48935 0.98521596 0.097926028
1.4890699 0.995296 0.09583801
1.5253301 0.94827002 0.07925804
1.4989301 0.94526803 0.093274005
1.4924999 0.95558798 0.094634019
1.4797 0.96308899 0.09939903
1.48595 0.98021299 0.091621019
1.4813 0.99002999 0.090896986
1.52918 0.95100504 0.068375014
1.50498 0.94880795 0.080710985
1.49224 0.95424497 0.086508028
1.4850301 0.96554202 0.086958997
1.48791 0.98217303 0.080458984
1.4885601 0.993927 0.075947039
1.50174 0.94923502 0.072617032
1.4904801 0.95511198 0.078241043
1.48546 0.96793604 0.07622803
1.4877299 0.98309302 0.070668027
1.48575 0.992634 0.067714997
1.50345 0.95201403 0.060076982
1.4916099 0.95779902 0.066718981
1.48534 0.969396 0.06719704
1.48954 0.98409402 0.060297012
1.48783 0.99379998 0.056893006
1.50201 0.95115799 0.052403029
1.4944501 0.95836502 0.055435028
1.4852999 0.96809602 0.058926009
1.4861 0.98235703 0.053464051
1.48708 0.99390197 0.049101029
1.5090899 0.95427299 0.041929018
1.49264 0.95633203 0.049774017
1.48631 0.96821505 0.050641023
1.48603 0.98330098 0.046325989
1.4869 0.99430496 0.042742997
1.4975101 0.94358599 0.14830902
1.4956399 0.94282997 0.14032601
1.49015 0.95024103 0.14292099
1.48118 0.959149 0.14605804
1.4736099 0.969001 0.14856903
1.4762601 0.98009104 0.142509
1.4975101 0.94360495 0.13027702
1.49278 0.95135301 0.13272202
1.48018 0.95752698 0.13869499
1.47597 0.96916801 0.13788299
1.4789101 0.98127699 0.13165802
1.5017301 0.94499803 0.11916405
1.4946201 0.951967 0.12277801
1.47905 0.95809603 0.13065101
1.48157 0.97250503 0.12466904
1.4821601 0.98473501 0.120318
1.5062699 1.01 0.10080002
1.5106399 0.94890505 0.10516098
1.4957299 0.95166397 0.11379204
1.48437 0.960226 0.11789505
1.48727 0.97674203 0.11131302
1.4870399 0.99037695 0.10825699
1.5017799 1.00732 0.097268984
1.5114399 0.94960099 0.095169984
1.4925301 0.95220494 0.10625702
1.48248 0.961487 0.10948799
1.48764 0.97513098 0.10247605
1.48341 0.98615599 0.10249504
1.49254 1.00185 0.094849013
1.5156701 0.95109594 0.083367996
1.50099 0.95521897 0.091684036
1.48638 0.96199 0.09907005
1.48449 0.97453904 0.095841981
1.4824899 0.98679703 0.093674012
1.4903301 1.0008 0.085614011
1.5154401 0.95058602 0.075704038
1.5046699 0.95630503 0.080862045
1.48755 0.96232498 0.089579999
1.48743 0.97675794 0.085447006
1.48446 0.98879796 0.083609998
1.48534 0.99916399 0.080251999
1.5213001 0.95255303 0.066222996
1.50332 0.95486504 0.075117037
1.4889901 0.962937 0.081245042
1.48326 0.97687203 0.080693051
1.4876601 0.99126798 0.075009003
1.4901299 1.0018001 0.071191028
1.49461 0.94604599 0.14940101
1.492 0.954301 0.14911903
1.49379 0.990453 0.14123704
1.49614 0.94671702 0.140654
1.49321 0.95489901 0.139403
1.48422 0.964472 0.14346504
1.48368 0.97783095 0.14028701
1.49122 0.98967499 0.13470298
1.4963499 0.94795901 0.13057205
1.4876801 0.95553201 0.13395202
1.4842 0.96733004 0.13377601
1.47807 0.97592497 0.13507698
1.4892 0.98906702 0.12709603
1.4999001 0.94874001 0.11852905
1.4918801 0.955773 0.12289505
1.4849299 0.96494699 0.12580605
1.4837899 0.977557 0.12326004
1.4884501 0.99025297 0.117258
1.5042 0.94951898 0.10836998
1.4911599 0.95472604 0.11490601
1.4839599 0.96539903 0.11775002
1.47868 0.97602898 0.11796898
1.4889599 0.99046898 0.10984199
1.5069799 1.0071499 0.097038038
1.50141 0.94822502 0.104077
1.4929299 0.95417804 0.107733
1.48454 0.96321601 0.11104805
1.4822099 0.97732699 0.109878
1.49257 0.99355298 0.10120201
1.50499 1.00739 0.091981046
1.5099699 0.94939595 0.148908
1.51035 0.94915098 0.14020301
1.49563 0.95465201 0.148395
1.5161099 0.95089102 0.128658
1.49209 0.95292699 0.142407
1.48449 0.961999 0.14521202
1.46796 0.98301399 0.14950202
1.4757 0.994726 0.144253
1.51262 0.95072001 0.12345604
1.4932201 0.95504797 0.13376099
1.47384 0.962219 0.14308105
1.47366 0.97400004 0.14087105
1.4755901 0.98611903 0.137724
1.4774899 0.99557298 0.13502502
1.49336 0.95510805 0.127407
1.48001 0.96357596 0.13326599
1.47421 0.97597605 0.134095
1.47926 0.98826796 0.12938103
1.48386 0.99778998 0.12535203
