# .PCD v0.7 - Point Cloud Data file format
VERSION 0.7
FIELDS x y z
SIZE 4 4 4
TYPE F F F
COUNT 1 1 1
WIDTH 1482
HEIGHT 1
VIEWPOINT 0 0 0 1 0 0 0
POINTS 1482
DATA ascii
92.256200 97.256700 144.064000
92.851400 95.285600 136.586000
93.064500 95.227700 135.114000
91.646600 96.409800 143.879000
91.568700 97.422500 144.359000
92.159300 95.312200 136.557000
92.324500 95.766000 135.660000
92.460300 95.792800 133.752000
92.201900 97.346800 133.851000
92.340900 97.302000 132.099000
90.870400 96.292900 143.757000
90.911200 97.421900 144.337000
91.349800 95.969100 137.840000
91.572500 96.045700 136.134000
91.755600 96.344500 134.212000
91.731100 97.155100 133.279000
91.780000 97.922700 133.040000
90.207000 96.209900 143.541000
90.138700 97.292400 144.125000
90.733500 96.060000 138.073000
90.851200 96.155700 136.614000
90.939400 96.506000 134.877000
91.068100 97.331100 133.781000
91.235200 97.786400 132.814000
89.468800 96.380100 143.937000
89.403800 97.300200 144.198000
90.074700 96.217700 138.307000
90.182200 96.109200 136.262000
90.202500 96.646700 134.986000
90.304500 97.353500 133.928000
90.470900 98.167800 133.521000
88.793000 96.225200 143.505000
88.715300 97.312800 143.934000
89.215600 96.310700 138.563000
89.521700 96.103700 135.841000
89.622600 96.662500 134.413000
89.646300 97.404700 133.649000
89.798100 98.031800 133.235000
88.047400 96.447000 143.747000
88.157100 96.990300 142.605000
88.392400 96.289300 138.998000
88.723100 96.406400 136.760000
88.990900 96.382300 134.312000
88.961500 97.515600 133.929000
89.074100 98.216600 133.393000
87.400100 96.213300 143.253000
87.392400 96.943800 142.587000
87.744600 96.226600 138.913000
87.936900 96.724100 137.486000
88.324700 96.398200 134.706000
88.248500 97.297200 133.821000
88.323400 98.142300 133.105000
86.676500 96.424700 143.613000
86.556400 97.051300 142.825000
86.954800 96.911200 140.462000
87.208900 96.831100 137.908000
87.542400 96.708200 135.116000
87.456700 97.666000 134.280000
87.527900 98.398000 133.349000
87.543500 99.295200 133.189000
85.915900 96.481300 143.610000
85.689900 97.481800 143.539000
86.197800 97.168800 140.567000
86.623800 96.684300 136.998000
86.791900 96.979700 134.976000
86.897000 97.653200 133.703000
86.983500 98.262500 132.830000
86.953300 98.971800 132.531000
85.177800 96.419500 143.456000
85.057900 97.597700 143.821000
85.381000 97.203400 140.950000
85.805700 97.075100 138.246000
85.933500 97.375100 136.375000
86.038100 97.944400 134.690000
86.274800 98.618800 133.457000
86.167400 99.213300 132.758000
84.544700 95.817300 142.347000
84.553000 97.393500 143.403000
84.711000 97.070600 140.682000
85.038400 97.173600 138.388000
85.271700 97.236600 135.831000
85.284000 98.079400 134.898000
85.442900 98.750900 133.701000
85.670200 98.699700 131.859000
84.115500 94.537800 140.140000
84.168000 95.576200 139.985000
84.215500 96.733400 139.606000
84.339300 97.077600 137.687000
84.612700 97.399800 135.657000
84.751600 98.035000 134.436000
84.585300 99.070300 134.176000
85.090800 98.557500 131.675000
83.591800 93.825400 139.112000
83.723800 94.698700 138.801000
83.548400 96.265000 138.963000
83.579800 97.218500 137.927000
83.938700 97.329400 136.009000
83.980900 98.161200 134.961000
83.791800 99.309100 134.523000
84.340100 98.734600 131.996000
82.869200 94.000100 139.613000
82.989800 94.680800 138.851000
82.684900 96.339600 139.167000
82.890400 97.210100 138.064000
83.237700 97.546900 136.220000
83.085400 98.619400 135.430000
83.172900 99.227700 134.223000
83.434900 99.575900 133.266000
82.769000 91.994300 137.621000
82.356200 93.899600 139.314000
82.132000 95.162400 139.483000
81.937800 96.567000 139.475000
82.156600 97.237700 138.144000
82.433900 97.752000 136.418000
82.410400 98.594400 135.515000
82.399200 99.455000 134.826000
82.619900 100.023000 134.009000
81.343800 94.987000 140.988000
80.985000 96.440900 141.693000
81.419400 97.475200 138.337000
81.654900 97.923900 136.986000
81.704400 98.624000 135.627000
81.619600 99.719000 135.132000
81.817400 100.271000 134.422000
80.436100 95.618400 142.007000
80.418100 98.030400 139.497000
80.967400 97.940400 136.706000
80.847800 99.208800 136.608000
80.984200 99.558300 135.201000
80.962900 100.411000 134.714000
79.395900 96.481600 143.460000
79.678400 98.018800 139.445000
80.079500 98.299000 137.446000
80.385800 98.754900 135.834000
80.268100 99.707000 135.213000
79.971500 101.108000 135.660000
79.304200 98.380000 137.599000
79.570500 99.054600 136.250000
79.363800 100.228000 135.811000
79.397000 100.974000 135.348000
78.203100 98.350700 139.959000
78.582900 98.488900 137.934000
78.675700 99.232800 136.568000
78.601200 100.286000 135.880000
78.736600 101.019000 135.367000
77.485600 98.415200 139.840000
77.852100 98.637900 137.920000
78.035500 99.001400 136.270000
78.018800 99.857500 135.597000
77.885000 101.110000 135.400000
76.737900 98.656500 139.909000
77.027600 98.712600 138.260000
77.270800 99.182600 136.640000
77.219000 100.163000 135.592000
77.242500 101.075000 134.872000
77.751800 100.452000 132.483000
76.096900 98.540400 139.463000
76.570700 98.366800 137.222000
76.471100 99.364300 136.539000
76.645900 99.940800 135.244000
76.542900 101.069000 135.013000
76.991200 100.933000 133.110000
75.128100 98.664900 140.069000
75.790700 98.497400 137.509000
75.613300 99.515100 136.925000
75.840500 100.395000 135.983000
75.506600 101.863000 136.199000
75.828300 102.144000 135.029000
74.373700 98.804900 140.450000
74.995200 98.577800 137.787000
74.791300 99.679200 137.213000
74.970500 100.760000 136.417000
74.835400 102.023000 136.361000
74.947400 102.396000 135.403000
72.780300 99.450100 144.449000
73.613600 98.906200 140.874000
74.133800 98.969000 138.475000
73.991400 99.800900 137.502000
74.182000 100.757000 136.573000
74.309100 101.786000 136.032000
74.085800 102.636000 135.738000
72.383500 97.863600 143.967000
71.973900 99.588600 144.529000
72.785800 99.085300 141.210000
73.378100 99.047800 138.682000
73.264800 99.860200 137.800000
73.318600 100.850000 136.920000
73.541200 101.842000 136.147000
73.290400 102.763000 135.897000
71.554100 98.167400 144.203000
71.356100 99.472200 144.176000
71.940900 99.334900 141.613000
72.628500 99.139600 138.826000
72.643900 99.817100 137.483000
72.431600 101.234000 137.283000
72.774500 101.885000 136.206000
72.547300 102.793000 135.936000
70.725900 99.377400 144.375000
71.085400 99.462200 142.008000
71.897300 99.095100 138.729000
71.723600 100.197000 137.964000
71.729100 101.305000 137.268000
71.994000 101.989000 136.321000
71.662700 103.111000 136.464000
70.407300 98.426100 142.587000
70.330700 99.624700 142.180000
70.868100 99.489000 139.557000
70.833600 100.405000 138.629000
71.114300 100.926000 137.168000
71.095500 102.177000 136.783000
70.823100 103.288000 136.730000
69.822000 96.830300 142.296000
69.732800 98.024100 142.269000
69.788500 99.214100 141.556000
70.169200 99.323200 138.985000
70.461800 100.014000 137.619000
70.290100 101.353000 137.540000
70.250100 102.389000 136.879000
70.114000 103.327000 136.593000
69.025800 96.380400 142.997000
69.175600 96.914000 142.122000
69.033200 98.299200 142.182000
69.086200 99.058200 141.031000
69.416300 99.230300 138.999000
69.616000 100.145000 138.028000
69.469700 101.473000 137.498000
69.470700 102.657000 137.092000
69.478800 103.345000 136.630000
68.010900 97.915900 143.848000
68.176200 98.374000 142.284000
68.438000 99.039500 140.640000
68.838900 99.372000 138.863000
68.689100 100.534000 138.496000
68.546200 101.636000 137.970000
68.869200 102.277000 136.936000
68.816300 103.319000 136.871000
67.286100 97.972800 143.544000
66.561400 99.899000 144.887000
67.440600 99.411700 141.615000
68.112500 99.404000 139.016000
67.869100 100.629000 138.597000
67.991200 101.422000 137.668000
68.003000 102.386000 137.430000
66.230000 98.499700 144.389000
65.557200 100.280000 145.599000
66.390600 99.940700 142.548000
67.065500 99.955900 140.056000
67.033600 100.709000 138.965000
67.189700 101.595000 138.049000
67.052500 102.545000 137.696000
65.131100 98.866600 145.229000
64.544000 100.727000 146.469000
65.424400 100.254000 143.175000
66.220500 100.055000 140.054000
66.394100 100.837000 138.639000
66.314900 101.965000 138.256000
66.208400 102.846000 138.020000
64.708700 97.190000 144.238000
64.335000 98.971400 145.436000
63.950500 100.637000 146.346000
64.543300 100.378000 143.730000
65.202300 100.211000 140.671000
65.662600 100.629000 138.700000
65.657800 101.760000 138.245000
65.483800 102.763000 137.869000
63.991000 97.002200 144.109000
63.965000 98.115800 144.219000
63.741400 99.810900 144.876000
63.934200 100.237000 142.915000
64.553200 100.152000 140.128000
64.698100 101.051000 139.565000
64.870000 101.777000 138.212000
64.749800 102.909000 137.869000
64.800200 103.325000 136.962000
63.788200 96.141200 142.495000
63.224100 98.067400 144.174000
63.225600 99.311500 143.999000
63.150700 100.070000 142.789000
63.756000 100.219000 140.436000
64.062000 100.974000 139.116000
64.195500 101.680000 137.978000
64.183300 102.621000 137.421000
63.787600 103.989000 137.723000
62.579500 97.952800 143.656000
62.593400 99.019500 143.478000
62.400100 100.070000 142.937000
62.845500 100.339000 140.870000
63.257100 100.966000 139.492000
63.224800 102.140000 138.825000
63.047400 103.373000 138.262000
62.908200 104.519000 138.362000
61.968500 97.583200 142.670000
61.851900 99.005000 143.160000
61.869800 100.030000 142.452000
62.184200 100.211000 140.415000
62.422900 101.240000 139.718000
62.343600 102.263000 138.735000
62.035400 103.833000 138.969000
62.380600 104.193000 137.880000
61.766000 96.501400 140.868000
61.568500 97.920800 141.437000
61.387100 99.530300 141.750000
61.384600 100.231000 140.475000
61.719900 101.108000 139.427000
61.565700 102.117000 138.894000
61.348200 103.549000 138.939000
61.390800 104.436000 138.388000
61.583500 95.652100 139.455000
61.129700 97.219400 140.488000
60.802300 98.969600 140.969000
60.644900 100.176000 140.299000
60.876900 101.220000 139.628000
60.719600 102.477000 139.214000
60.555300 103.721000 138.886000
60.661900 104.382000 138.201000
61.150700 95.487800 139.011000
60.222200 97.865500 141.018000
59.966800 99.315100 140.926000
59.872100 100.430000 140.650000
59.891500 101.499000 140.055000
59.939500 102.698000 139.326000
59.729100 103.728000 139.075000
59.734500 104.580000 138.609000
60.339500 96.086800 139.843000
58.985900 99.685300 141.584000
59.363700 100.190000 140.277000
59.209100 101.154000 139.740000
59.113200 102.582000 139.534000
58.964900 103.811000 139.150000
58.740200 104.853000 139.021000
57.598300 100.671000 143.025000
58.312500 100.652000 141.038000
58.221300 101.762000 140.447000
58.300700 102.711000 139.480000
58.155600 103.920000 139.124000
57.843100 105.156000 139.304000
56.905700 100.109000 143.734000
57.006000 100.564000 142.749000
57.483000 100.778000 141.015000
57.607900 101.734000 140.071000
57.299500 103.083000 139.933000
57.180100 104.402000 139.727000
57.106000 105.289000 139.521000
57.441300 98.609600 138.890000
56.896600 100.425000 140.415000
56.851700 101.667000 140.205000
56.779200 102.421000 139.320000
56.289200 104.330000 140.188000
56.504000 105.004000 139.362000
57.132700 99.082400 138.035000
56.215700 101.504000 139.920000
55.687200 103.175000 140.282000
55.653700 104.040000 139.807000
55.188900 102.070000 140.178000
54.778300 103.385000 140.472000
55.118700 103.425000 138.864000
53.916800 102.562000 140.979000
54.100900 103.248000 140.134000
54.743100 102.902000 138.034000
53.153500 101.626000 141.427000
52.938600 102.544000 141.357000
53.182300 103.322000 140.483000
53.675200 103.541000 139.030000
52.227200 101.827000 141.934000
52.381000 102.316000 141.133000
52.243700 103.367000 140.811000
52.510900 103.976000 139.700000
51.437800 101.688000 141.862000
51.495500 102.633000 141.659000
51.436600 103.365000 140.890000
51.250800 104.679000 140.807000
51.241800 105.432000 140.025000
50.685600 101.650000 141.844000
50.748900 102.465000 141.419000
50.563700 103.716000 141.141000
50.420900 104.903000 140.741000
49.725000 106.677000 141.539000
50.077000 101.475000 141.422000
49.857400 102.776000 141.630000
49.598900 104.075000 141.524000
49.372400 105.412000 141.312000
48.244000 107.928000 143.344000
48.818900 107.789000 141.566000
49.602800 100.973000 140.628000
48.859700 102.911000 141.969000
48.891700 104.082000 141.390000
48.323500 105.844000 142.011000
47.382500 108.091000 143.668000
48.422500 101.524000 141.643000
47.652000 103.267000 142.801000
47.851000 104.232000 142.010000
46.893100 106.764000 143.644000
45.494700 109.492000 145.932000
46.320000 98.239400 146.103000
46.905300 98.245600 144.265000
46.930700 102.215000 143.024000
46.992500 103.301000 142.620000
46.582000 104.867000 143.030000
44.344500 109.171000 147.073000
44.408600 109.802000 146.408000
45.366500 98.663200 146.912000
45.719100 99.106000 145.809000
45.622000 100.327000 145.439000
45.931700 101.300000 144.179000
45.613000 102.673000 144.339000
45.619300 103.936000 143.814000
44.795800 106.466000 145.132000
43.756000 108.866000 146.599000
43.480600 110.084000 146.780000
44.342900 98.956000 147.546000
44.733600 99.397000 146.425000
44.937600 100.240000 145.384000
45.013400 101.505000 144.699000
44.999900 102.689000 144.144000
44.709700 103.874000 143.972000
44.156100 105.867000 144.641000
42.702000 109.344000 147.150000
42.769300 109.949000 146.530000
43.247700 99.277100 148.213000
43.913000 99.421700 146.645000
43.816300 100.490000 146.071000
44.059400 101.515000 145.010000
44.235300 102.612000 144.194000
43.669000 104.273000 144.519000
43.124500 106.003000 144.961000
42.264700 108.550000 146.487000
41.574300 110.493000 147.525000
41.279300 111.923000 147.985000
42.102000 99.395400 148.864000
43.071400 99.534300 146.718000
42.926900 100.576000 146.019000
43.225000 101.452000 145.154000
43.129100 102.824000 144.756000
42.474900 104.787000 145.275000
41.867700 106.773000 145.981000
41.152600 108.786000 146.934000
39.709500 99.023800 153.374000
39.935200 99.782700 152.517000
41.198900 99.296400 149.089000
41.975100 99.810100 147.230000
41.943100 100.766000 146.290000
42.305400 101.724000 145.374000
41.938600 103.281000 145.344000
41.295500 105.284000 146.003000
40.339300 107.702000 147.401000
39.813300 109.228000 147.600000
38.969700 99.011000 153.579000
39.402700 99.435100 152.125000
40.266900 99.361200 149.430000
41.063100 99.767100 147.138000
40.995300 101.051000 146.739000
41.434700 101.699000 145.333000
40.605400 103.944000 146.359000
40.179300 105.660000 146.623000
39.136700 108.293000 148.126000
38.915300 109.534000 147.771000
38.320600 111.084000 148.670000
37.662500 98.715400 155.249000
38.023100 99.073500 153.981000
38.882100 99.043000 151.377000
39.759200 99.172900 148.576000
40.227800 99.829600 146.931000
39.844700 103.877000 146.226000
38.945600 106.205000 147.756000
38.005100 109.991000 148.242000
38.150800 110.409000 147.287000
37.009300 98.441300 154.941000
37.399400 98.757300 153.430000
38.159000 98.929100 150.864000
39.044800 99.037300 148.282000
39.357200 99.785000 147.186000
39.052600 103.816000 146.413000
37.354600 110.014000 147.935000
37.542600 110.353000 146.987000
35.539900 97.491500 155.890000
36.230900 98.056200 154.526000
36.942300 98.351600 152.522000
37.105700 98.966700 151.223000
38.173700 98.981000 148.546000
38.476800 99.800100 147.547000
38.525900 102.988000 145.842000
36.974200 110.447000 146.926000
34.965200 97.074500 155.593000
35.217900 97.951700 154.986000
35.960600 98.231500 152.769000
36.559400 98.630100 150.832000
37.105900 99.168900 149.212000
33.253300 96.771400 157.837000
33.903700 97.041800 156.163000
34.601500 97.551100 154.453000
35.216500 97.930500 152.402000
35.611900 98.622300 151.235000
37.530700 98.545200 146.791000
32.980300 96.346500 156.976000
33.195400 96.953900 155.886000
34.167400 97.240700 153.315000
34.509400 98.008900 152.177000
35.122100 97.953100 150.195000
32.253100 95.987900 156.620000
32.463100 96.513700 155.562000
33.060400 97.118100 153.859000
33.705600 97.746900 151.903000
34.675400 97.519200 149.461000
31.360900 95.080900 157.143000
31.646700 95.549000 156.090000
32.286000 95.906100 154.176000
32.683700 96.698600 152.551000
32.838400 97.722300 151.698000
33.646400 97.830500 150.005000
30.907000 94.550600 156.429000
31.170600 95.074400 155.228000
31.848000 95.514600 153.157000
31.641100 96.768300 152.867000
31.826400 97.711200 151.992000
32.440500 98.118200 150.660000
29.717000 94.529000 156.897000
31.022000 94.377300 153.381000
31.060700 95.608200 152.865000
31.142800 96.711900 152.171000
31.132500 97.690700 151.758000
31.215700 98.365700 151.239000
29.755900 92.676600 155.312000
29.173300 94.083000 155.912000
30.229000 94.130300 153.212000
30.382200 95.186400 152.563000
30.463700 96.328700 151.913000
30.619700 97.371000 151.305000
31.241300 97.342500 149.519000
28.283900 93.263500 156.532000
28.471700 93.840800 155.765000
29.103500 94.180500 153.867000
29.730900 94.823100 152.308000
29.802100 95.859400 151.572000
29.775900 97.048300 151.170000
26.942400 93.717500 157.498000
27.704200 93.837100 155.739000
28.392300 93.956200 153.489000
28.810300 94.922500 152.172000
28.987800 96.065000 151.436000
28.896400 96.805600 150.855000
26.949600 93.661100 155.282000
27.879000 93.724700 152.576000
28.402100 94.522700 151.029000
28.177200 95.965200 151.328000
28.354600 96.356500 150.132000
25.792200 92.934800 156.078000
26.352000 93.226900 154.514000
26.990100 93.528000 152.566000
27.586500 94.228000 150.919000
27.609100 95.569700 150.681000
27.521200 96.252700 149.973000
25.588500 92.082200 154.727000
25.601500 92.999300 154.174000
26.474600 93.386400 151.806000
26.936200 94.137600 150.603000
26.934500 95.215800 150.175000
27.059900 95.779100 149.136000
24.832900 90.999300 154.854000
24.846200 91.826700 154.447000
25.296300 92.449400 152.868000
25.817600 93.223000 151.343000
26.062600 94.288800 150.784000
26.152300 95.110700 149.884000
26.543800 95.444500 148.603000
24.209300 90.688600 154.389000
24.469600 91.384400 153.564000
24.324600 92.302200 153.097000
24.878700 93.037900 151.482000
25.369100 94.068300 150.428000
25.524700 94.734000 149.415000
23.419100 90.490300 154.162000
23.596900 91.246500 153.536000
24.173600 91.744000 151.752000
24.418300 92.593600 150.494000
24.600500 93.820800 150.104000
24.831100 94.309200 148.876000
23.065800 90.030700 153.146000
23.571000 90.580200 151.921000
23.428700 91.619500 151.451000
23.958100 92.132500 149.737000
24.027200 93.338400 149.220000
24.558800 93.708500 147.817000
21.941800 90.186400 153.559000
22.587000 90.525300 152.025000
23.081100 91.145200 150.414000
23.058400 92.378300 149.750000
23.218100 93.343700 149.112000
23.548400 93.818400 148.151000
21.678500 89.760400 152.480000
22.322000 90.005100 150.615000
22.363300 91.156000 150.076000
22.513900 91.927100 149.051000
22.608100 93.093100 148.799000
23.087400 93.345200 147.489000
21.745200 89.088000 150.702000
21.482200 89.998200 150.598000
21.839100 90.691300 149.398000
21.915300 91.675000 148.718000
21.912200 92.665700 148.436000
21.321900 89.701100 149.567000
21.119600 90.670300 149.268000
21.266900 91.518200 148.586000
21.793300 91.866700 147.229000
20.896200 90.472300 148.588000
20.908900 91.309300 148.072000
17.080600 84.432100 150.540000
15.991700 86.540100 149.906000
16.726100 87.106300 148.261000
15.088400 87.652500 149.532000
15.062400 88.643400 148.832000
14.037400 87.925900 149.530000
14.043800 88.990200 148.721000
14.563600 89.427100 147.342000
13.077200 87.877500 149.533000
13.306500 88.848800 148.633000
13.396800 89.826500 147.862000
13.468400 90.671000 147.051000
11.354500 87.489000 151.122000
11.995500 87.991700 149.755000
12.418200 88.758300 148.741000
12.604700 89.664800 147.790000
12.634000 90.750900 147.096000
12.086800 92.161800 147.104000
12.706200 92.480700 145.531000
10.402000 87.534700 150.829000
10.822100 88.199400 149.997000
11.685600 88.778700 148.247000
11.967600 89.810100 147.160000
11.962000 90.908700 146.681000
11.346000 92.185100 146.948000
10.713000 93.521600 147.388000
9.194910 87.700200 151.167000
9.572120 88.384100 150.365000
10.610700 88.764900 148.338000
10.786700 89.878500 147.575000
11.034100 90.937100 146.824000
10.472300 92.272300 146.892000
9.295750 93.985900 147.828000
7.624850 88.210600 152.319000
8.258990 88.523300 150.857000
9.466870 88.836000 148.576000
9.869770 89.793400 147.507000
10.152600 90.869600 146.755000
9.319380 92.485600 147.144000
8.541840 93.953800 147.544000
7.484200 95.629100 148.637000
6.985760 88.055600 151.934000
7.576080 88.324300 150.379000
8.242290 88.927500 148.847000
9.027260 89.682000 147.303000
9.174970 90.883900 146.769000
8.466830 92.452500 146.950000
7.429080 94.264000 147.760000
6.838060 95.572500 148.299000
6.393070 87.841100 151.198000
6.957030 88.291400 149.857000
7.571980 88.849400 148.283000
7.740960 89.908400 147.727000
8.417000 90.733300 146.425000
7.265830 92.648800 147.172000
6.796010 94.062400 147.377000
6.064850 95.419600 148.041000
5.140300 88.107500 151.614000
6.351480 88.008900 149.556000
6.554140 88.776900 148.651000
7.035390 89.570900 147.247000
6.887910 91.081400 147.175000
7.005210 91.937100 146.138000
6.037950 93.867200 147.160000
5.147500 95.299300 147.851000
5.474660 88.149700 149.271000
6.329680 88.509100 147.536000
6.258610 89.454000 146.936000
6.258140 90.683600 146.424000
5.511440 92.592200 146.916000
4.944460 94.098400 147.346000
4.429660 95.122900 147.611000
4.341480 88.206200 149.114000
5.455860 88.496400 147.335000
5.644100 89.466700 146.560000
5.589780 90.339500 145.961000
5.466980 91.538800 145.669000
4.555140 93.413700 146.519000
2.961910 88.495600 149.719000
3.939100 88.686500 147.910000
5.037750 89.174400 146.144000
4.554870 90.554700 146.093000
4.321030 91.833800 145.815000
3.443930 93.372700 146.230000
1.739530 95.427600 148.031000
2.223370 88.352300 149.367000
3.026940 88.635800 147.710000
3.718560 89.407300 146.467000
3.889480 90.521700 145.683000
3.090220 92.034400 146.077000
2.231450 93.610100 146.598000
1.728280 94.881200 146.924000
0.859566 88.591400 149.930000
1.656810 88.819400 148.409000
2.455330 89.330700 146.814000
2.956940 90.319500 145.619000
2.011630 92.115100 146.085000
1.436380 93.681600 146.393000
0.866699 94.918400 146.820000
0.080641 88.490800 149.552000
1.093840 88.734400 147.731000
2.094890 89.208000 145.815000
1.454700 90.818700 146.238000
1.554390 91.535200 145.404000
1.037120 93.007600 145.658000
0.129006 94.614500 146.434000
-0.827011 88.309400 149.218000
0.016720 88.692900 147.985000
0.926526 89.054100 146.198000
0.981620 90.258900 145.570000
0.740159 91.527100 145.181000
-0.059289 93.201100 145.694000
-0.458775 94.295100 145.665000
-2.479590 88.519800 149.975000
-0.686186 88.563800 147.461000
0.279915 89.093200 145.705000
0.114538 90.255500 145.224000
-0.340001 91.709300 145.091000
-0.837274 93.195000 145.297000
-1.029910 94.119500 145.197000
-2.476380 87.085200 149.175000
-3.529930 88.451200 150.137000
-1.788200 88.494000 147.451000
-0.963873 89.259300 145.955000
-0.839514 90.340000 145.079000
-1.135060 91.503900 144.922000
-0.912317 92.268600 144.073000
-1.041320 93.397900 144.021000
-4.475250 87.739700 150.968000
-5.027970 88.683600 151.351000
-2.506900 88.425900 146.977000
-1.982140 89.120200 145.896000
-1.565910 89.976600 144.959000
-1.376750 90.942600 144.041000
-2.158020 92.428900 144.347000
-1.030560 92.547100 142.485000
-5.829810 88.777400 151.597000
-3.445070 88.664200 146.764000
-2.757930 89.029200 145.474000
-2.347590 89.920300 144.527000
-2.619540 91.302600 144.194000
-2.696690 92.389300 143.789000
-1.269920 92.151500 141.104000
0.363443 91.763100 138.420000
-3.623360 88.994300 145.197000
-3.226940 89.681400 144.281000
-2.723180 90.491800 143.225000
-2.718940 91.588100 142.527000
-2.271270 92.204000 141.094000
-0.605687 91.948000 138.743000
-4.686020 89.107400 145.185000
-4.474170 89.777700 144.534000
-3.697460 90.436800 143.107000
-3.244410 91.242300 141.764000
-2.891510 92.008000 140.782000
-1.519500 92.033500 138.883000
-5.550430 89.085200 144.873000
-4.829860 89.616100 143.582000
-4.275540 90.339700 142.445000
-4.185770 91.048600 141.704000
-3.110620 92.653100 139.998000
-6.919630 89.046600 145.136000
-5.921020 89.500600 143.803000
-5.612800 90.322100 142.897000
-6.337190 91.478100 143.065000
-7.803200 88.139200 145.466000
-7.856940 88.855500 145.082000
-6.842120 89.424800 143.702000
-7.259380 90.652700 143.506000
-7.370770 91.470500 142.984000
-8.428080 87.932000 145.168000
-8.381500 88.533000 144.577000
-8.208720 89.533400 143.999000
-8.488000 90.769300 143.548000
-8.860840 91.879900 143.595000
-9.131250 87.860700 144.785000
-8.881620 88.473500 144.036000
-9.365220 89.700300 144.012000
-9.538160 90.691800 143.555000
-9.376900 91.490700 142.834000
-10.060800 88.706200 144.081000
-10.248300 89.737700 143.838000
-10.415700 90.743400 143.411000
-10.783800 91.844000 143.201000
-11.136200 92.840300 143.146000
-12.017900 89.188900 144.881000
-11.390200 89.797800 143.921000
-11.405600 90.885200 143.365000
-11.812100 91.961400 143.163000
-11.432600 92.533700 142.371000
-14.130500 89.951400 146.188000
-12.497400 89.724100 143.999000
-12.369500 90.689500 143.311000
-12.837400 91.841500 143.167000
-13.042600 92.891700 143.167000
-13.312900 89.803600 143.574000
-13.551500 90.897700 143.402000
-13.242500 91.418500 142.490000
-15.031000 90.149000 144.005000
-13.987600 90.447300 142.662000
-14.455700 91.315900 142.527000
-15.388000 89.738400 143.136000
-15.524500 90.578500 142.970000
-15.399600 91.215800 142.412000
-16.748600 89.942500 143.473000
-16.588900 90.565800 142.929000
-16.663200 91.327300 142.652000
-17.648500 89.829600 143.282000
-17.617600 90.527600 142.839000
-17.502200 91.213200 142.375000
-18.379200 89.652500 142.874000
-18.811500 90.487400 142.742000
-18.337000 91.056600 142.108000
-19.780500 89.721700 143.039000
-19.478400 90.276300 142.321000
-19.395800 90.942900 141.919000
-20.590100 89.397600 142.734000
-20.554300 90.199900 142.344000
-20.621800 91.030500 142.088000
-22.757400 89.389300 144.605000
-21.499500 89.431100 142.729000
-21.667500 90.220300 142.422000
-21.027000 90.644600 141.476000
-21.143700 88.862200 141.363000
-20.760200 89.339800 140.607000
90.924000 95.895700 145.783000
91.135900 95.644700 143.518000
90.372900 96.226600 146.304000
90.619600 95.798100 143.819000
89.833800 95.845600 145.551000
90.017900 95.835800 143.977000
89.025600 95.979700 145.876000
89.373100 95.802100 143.830000
88.371600 95.954200 145.746000
88.569700 95.942100 144.162000
87.691600 95.919200 145.689000
87.847200 95.979300 144.184000
86.929900 96.161500 146.009000
87.052400 96.258400 144.333000
86.261000 96.109900 145.653000
86.391900 96.279700 143.854000
86.565800 96.454900 142.004000
85.607200 96.084600 145.442000
85.765300 96.369100 144.028000
85.838700 97.020900 142.940000
86.069800 97.074600 140.163000
86.419000 96.884300 136.440000
86.708900 96.926900 134.101000
86.808200 97.369400 133.258000
85.395800 92.579100 140.461000
85.319500 93.901000 141.199000
85.233800 95.818900 142.934000
85.207900 97.088000 143.319000
85.388900 97.333800 141.115000
85.679400 97.327500 137.988000
86.073200 97.334500 135.224000
86.201200 97.826300 134.283000
85.083600 91.866100 139.129000
85.104400 92.826700 139.084000
84.772900 95.085700 141.383000
84.731200 96.665500 142.096000
84.778400 97.297400 140.498000
85.048000 97.188500 137.506000
85.296500 97.802100 136.429000
85.445400 98.153800 135.060000
84.589400 91.624800 138.666000
84.502500 92.593300 138.738000
84.382400 94.212300 139.594000
84.339600 95.758300 139.822000
84.266600 96.980200 139.514000
84.393900 97.224900 137.655000
84.568500 97.874100 136.417000
84.750800 98.179300 135.006000
83.845200 91.889600 139.075000
83.879000 92.552700 138.404000
83.769000 93.987700 139.163000
83.788600 95.196300 139.086000
83.764400 96.299200 138.303000
83.864700 97.265000 137.359000
83.909200 97.768400 136.113000
84.004400 98.379800 135.364000
82.767700 92.617300 141.137000
82.904100 93.409400 140.547000
83.272600 93.582100 138.463000
83.234200 94.748100 138.142000
83.015900 96.085600 137.866000
83.193400 97.224600 137.248000
83.351900 97.699800 135.668000
83.404900 98.249700 134.982000
81.536400 92.493800 143.996000
81.790300 93.007000 142.766000
82.256500 93.131300 140.396000
82.389200 94.121500 139.639000
82.225100 95.500700 139.511000
81.988500 96.918800 139.624000
82.374800 97.375500 137.759000
82.682200 97.779000 136.136000
82.647300 98.523100 135.597000
81.120200 91.975800 143.034000
81.461200 92.615500 141.444000
81.698900 93.303000 140.191000
81.563800 94.510400 140.159000
81.118100 96.558200 141.682000
80.958000 97.839300 141.486000
81.553600 97.693200 138.405000
81.991100 97.826800 136.085000
81.966100 98.605900 135.721000
80.692200 92.642400 141.871000
81.021500 93.343700 140.390000
80.685300 94.969600 141.134000
80.778600 97.926800 138.871000
81.052800 98.394200 137.307000
81.370000 98.572000 135.676000
79.916900 92.680500 142.227000
80.213200 93.563000 141.040000
79.584500 95.898700 143.173000
80.294000 98.515200 137.613000
80.574700 98.857700 136.344000
79.154600 94.479100 142.926000
78.720200 96.310200 143.927000
79.515900 98.534800 137.799000
79.776200 99.032100 136.770000
78.887500 98.608100 137.614000
78.998200 99.090800 136.821000
77.807200 98.644900 139.966000
78.219200 98.748200 137.781000
78.432500 98.926600 136.330000
76.822600 98.942100 141.105000
77.463300 98.737900 137.961000
77.807300 98.947600 136.396000
75.960900 99.226900 141.974000
76.678800 98.750800 138.098000
76.973700 99.213100 137.072000
75.764800 98.582300 139.509000
75.979100 98.871700 137.978000
76.273500 99.157500 136.916000
74.796100 98.867800 140.860000
75.320800 98.911100 138.360000
75.342800 99.501300 137.608000
73.344800 99.072400 144.284000
73.793000 99.295600 142.080000
74.550200 98.976700 138.563000
74.617500 99.515800 137.242000
72.697200 99.278900 144.091000
73.343800 99.175700 140.910000
73.890600 99.075400 138.081000
74.149400 99.374500 136.761000
74.766900 98.884500 134.165000
71.982500 98.049100 144.885000
72.005200 98.943200 143.953000
72.371000 99.477600 141.953000
73.068700 99.215600 138.775000
73.301600 99.736800 137.752000
71.331500 97.981200 144.501000
71.233300 99.159500 144.246000
71.391200 99.781900 142.894000
72.109300 99.599900 139.769000
72.579700 99.707900 137.971000
70.748700 98.852500 143.480000
70.777000 99.737700 142.658000
71.244600 99.694100 140.166000
71.807300 99.740200 138.116000
70.296600 98.072900 142.426000
70.168200 99.538600 142.347000
70.612400 99.564600 139.716000
70.855900 100.038000 138.640000
69.686400 97.070400 142.758000
69.509700 98.350800 142.307000
69.911700 98.843600 140.308000
70.010200 99.627600 139.431000
70.506200 99.446500 137.246000
68.157000 97.248600 145.651000
68.673600 97.580600 143.467000
68.753000 98.415500 142.288000
69.063000 98.980400 141.105000
69.390100 99.332200 139.271000
69.600600 99.794900 137.994000
66.649400 97.112800 147.971000
67.008900 97.584200 146.626000
67.563800 98.004400 144.648000
67.802600 98.805100 143.343000
68.394300 99.010200 140.855000
68.773900 99.326900 138.884000
68.943100 99.746100 137.896000
66.033600 94.037500 148.577000
66.039700 95.373600 148.290000
66.060600 96.898500 148.017000
66.411700 97.509800 146.579000
66.438900 98.474300 145.956000
66.587800 99.469900 145.051000
67.263500 99.635900 142.401000
67.844800 99.812500 140.206000
68.226800 99.983800 138.544000
65.528200 94.440300 148.672000
65.563900 95.606900 148.200000
65.376400 96.813200 148.032000
65.655300 97.698300 146.895000
66.011400 98.109700 145.080000
65.766600 99.447600 145.436000
65.550900 100.768000 145.425000
67.208800 100.051000 140.770000
65.182900 93.891000 148.119000
65.025700 95.517100 148.208000
64.727000 96.958700 148.049000
64.933100 97.626600 147.001000
65.129500 98.457300 145.799000
64.932300 99.817200 145.681000
64.750800 100.957000 145.560000
65.400100 100.557000 142.671000
64.289600 97.731900 146.474000
64.460600 98.553800 145.275000
64.157900 100.177000 145.982000
64.222200 100.834000 144.985000
64.826700 100.498000 141.899000
63.541500 97.691000 146.287000
63.714900 98.255600 145.116000
63.844800 99.479000 144.705000
63.859000 100.334000 143.682000
64.373300 100.277000 141.031000
64.752800 100.502000 139.696000
62.981700 96.027400 145.231000
63.052500 97.221600 145.383000
63.139500 97.812700 144.306000
63.157700 99.265700 144.226000
63.363600 100.113000 142.922000
63.631400 100.388000 141.111000
64.180200 100.492000 139.513000
62.666600 93.989200 144.474000
62.643700 95.189000 144.256000
62.601200 96.698600 144.581000
62.687700 97.365400 143.502000
62.744600 98.440000 142.954000
62.698700 99.810500 142.570000
62.875100 100.481000 141.270000
63.315500 100.768000 139.960000
62.491800 94.310000 142.477000
62.327700 95.987200 142.967000
62.178100 97.391100 142.816000
61.981500 98.861100 143.013000
62.013900 99.771000 142.511000
62.155900 100.415000 141.567000
62.306500 101.023000 140.597000
62.121200 95.036700 141.102000
61.830000 96.696500 141.667000
61.714400 98.051300 141.578000
61.543200 99.524200 141.958000
61.533900 100.377000 141.140000
61.575400 100.990000 140.277000
61.621700 95.790400 140.008000
61.114500 97.697600 141.093000
60.850700 99.427600 141.579000
60.919400 100.309000 140.650000
60.892000 101.035000 140.273000
60.977000 95.532700 139.809000
60.587500 97.247700 140.488000
60.019000 99.227600 141.538000
60.210000 100.208000 140.868000
60.218800 100.968000 140.254000
59.461100 97.193500 142.212000
59.179500 98.376700 142.143000
59.364600 99.238400 141.050000
59.464400 100.251000 140.749000
59.574800 100.870000 140.015000
57.833300 98.297600 144.525000
57.499300 99.487600 144.696000
57.908500 100.214000 143.310000
58.414800 100.629000 141.550000
58.971200 100.772000 139.841000
57.001100 97.549400 145.175000
56.680400 98.717300 145.686000
56.431000 99.858300 145.635000
56.796100 100.615000 144.377000
57.650400 100.555000 141.580000
58.010000 101.008000 140.450000
55.620100 98.358700 146.985000
55.871000 98.898800 146.017000
55.515400 100.121000 146.332000
55.637300 101.031000 145.598000
56.591300 100.856000 142.463000
57.037300 101.149000 140.802000
54.774400 98.248600 146.948000
55.023300 99.016200 146.306000
54.884500 100.268000 146.225000
55.161300 100.869000 144.684000
56.137800 100.720000 141.697000
56.395400 101.008000 140.430000
53.977700 98.233300 146.999000
54.316500 98.786600 146.226000
54.331000 99.845600 145.667000
54.315900 100.800000 144.871000
55.246600 100.882000 142.327000
56.136200 100.566000 139.639000
53.244100 98.221700 146.887000
53.581300 98.868500 146.194000
53.513700 99.860600 145.492000
53.800600 100.687000 144.594000
52.317800 98.403400 147.276000
52.833100 98.835200 146.028000
52.477300 100.005000 146.029000
52.970200 100.503000 144.789000
51.299500 98.687100 147.833000
51.911500 98.981200 146.333000
51.557100 100.144000 146.341000
52.250400 100.268000 144.565000
50.625400 98.466500 147.531000
50.962300 99.142200 146.599000
50.796700 100.247000 146.482000
51.144100 100.621000 145.178000
49.743300 98.624400 147.981000
50.139600 98.999200 146.697000
50.187400 100.057000 146.015000
50.606500 100.515000 144.154000
49.147700 98.544200 147.563000
49.476200 99.104300 146.476000
49.270500 100.105000 146.076000
49.665700 100.821000 144.674000
50.068200 101.295000 142.987000
50.489500 101.528000 141.379000
48.180800 98.722500 147.774000
48.687600 99.103400 146.534000
48.496400 100.071000 146.208000
48.719800 100.893000 145.180000
49.171000 101.492000 143.457000
49.567600 101.973000 142.310000
47.465800 98.724200 147.728000
47.957800 99.055200 146.297000
48.251400 99.758900 145.065000
48.144600 100.818000 144.442000
48.320300 101.700000 143.505000
48.945600 101.894000 142.077000
47.347400 98.924400 146.003000
47.298700 99.872300 145.491000
47.096000 100.980000 145.049000
47.499800 101.650000 143.623000
48.053400 102.029000 142.335000
46.608500 99.048300 145.756000
46.270100 100.133000 145.664000
46.581000 100.960000 144.358000
46.717900 101.792000 143.577000
47.269200 102.027000 142.322000
45.538000 99.364900 146.221000
45.202100 100.316000 146.259000
45.579000 100.967000 144.850000
45.931800 101.775000 143.732000
46.206500 102.389000 142.983000
44.421700 99.630000 146.680000
44.607100 100.315000 145.821000
44.794100 101.064000 144.754000
44.857100 102.038000 144.370000
45.543100 102.229000 142.728000
41.146100 99.875400 152.219000
43.425600 99.573900 146.869000
43.747600 100.298000 146.062000
43.941700 101.139000 145.325000
44.061400 101.903000 144.298000
44.584700 102.336000 143.019000
40.129800 99.619400 153.583000
40.718200 99.748400 151.819000
42.522600 99.459600 147.162000
42.711100 100.340000 146.449000
43.109500 101.208000 145.449000
42.883700 102.314000 145.056000
43.473700 102.579000 143.434000
38.591400 99.347400 155.448000
39.636400 99.321000 152.962000
40.628500 99.523500 150.364000
41.766600 99.577800 147.293000
41.862100 100.477000 146.621000
42.013400 101.433000 145.800000
42.498000 102.053000 144.132000
42.884900 102.427000 142.917000
38.483100 98.741500 154.223000
38.834000 99.236100 153.145000
39.461900 99.592900 151.172000
40.931300 99.429200 147.623000
41.185600 100.354000 146.367000
41.363600 101.268000 145.508000
41.502600 102.088000 144.686000
42.092000 102.352000 142.877000
37.700800 98.632000 154.242000
38.107800 99.122900 153.036000
38.879000 99.293300 150.556000
39.912900 99.547900 147.824000
40.053000 100.656000 146.898000
40.664200 102.156000 144.556000
41.658800 101.943000 142.025000
36.290600 97.754900 155.241000
37.082500 98.270500 153.646000
37.546500 98.977500 152.368000
38.292900 99.281500 149.954000
39.312700 99.377300 147.409000
39.305400 100.390000 146.970000
40.967600 101.840000 141.885000
35.571600 97.733700 155.462000
35.869500 98.313800 154.528000
36.878200 98.580500 151.832000
37.710100 99.002000 149.388000
38.572200 99.409200 147.432000
40.791400 101.415000 140.980000
34.958800 97.615700 155.285000
35.378500 98.028300 153.775000
36.132300 98.275200 151.558000
36.783000 98.906800 149.871000
34.306400 97.217500 154.603000
35.098700 97.516300 152.546000
36.061000 97.849300 150.259000
36.690000 98.652800 148.610000
31.526600 96.500900 159.059000
32.607400 96.584900 156.469000
33.854600 96.805400 153.779000
34.556500 97.294300 152.186000
34.318500 103.763000 148.360000
31.663200 95.735700 157.381000
31.942000 96.194900 156.153000
32.681800 96.775900 154.409000
33.449200 97.209200 152.733000
34.415700 102.381000 147.535000
33.909900 103.682000 148.056000
34.919300 103.322000 144.915000
31.166400 95.235200 156.567000
31.240400 95.993900 155.916000
31.918600 96.552200 154.243000
32.345600 97.234300 152.855000
34.799900 100.592000 145.846000
33.539600 102.423000 147.644000
33.808600 103.158000 146.660000
34.348100 103.396000 144.823000
29.852900 94.549600 157.699000
30.514600 95.005300 156.130000
31.040800 95.738500 154.660000
31.623200 96.402300 153.100000
31.690000 97.170400 152.214000
32.912000 96.888100 149.602000
33.312600 101.168000 147.052000
32.851500 102.363000 147.247000
33.385200 102.968000 145.787000
34.108500 102.996000 143.913000
29.123700 94.358400 157.648000
29.293800 95.022400 156.989000
30.125000 95.429300 154.864000
30.894500 96.167000 152.821000
31.471900 96.776300 151.288000
31.285400 97.777000 151.505000
31.711200 101.646000 148.348000
31.539900 102.619000 148.106000
32.738100 102.740000 145.662000
33.255700 103.103000 144.266000
28.692000 94.090500 156.997000
29.079400 94.574400 155.665000
29.614900 95.210000 154.072000
30.282600 95.789800 152.465000
30.779200 96.718500 151.557000
31.711300 99.992700 147.170000
30.539900 101.746000 149.020000
29.696900 103.128000 150.106000
32.376800 102.566000 145.159000
32.720200 103.051000 144.132000
28.058400 93.975800 156.435000
28.428100 94.460500 155.113000
28.936400 94.972300 153.690000
30.449700 100.321000 148.141000
29.514900 101.765000 149.430000
28.784300 103.129000 150.441000
27.302000 93.768900 155.926000
27.787300 94.238600 154.586000
28.417700 94.533100 153.031000
29.774800 99.881800 147.683000
28.708400 101.519000 149.325000
26.487500 93.611600 155.835000
26.928000 94.031900 154.637000
27.283100 94.552600 153.537000
29.580100 98.419900 146.730000
28.858800 99.764100 147.779000
28.131300 101.025000 148.624000
26.099500 93.270200 155.043000
26.375600 93.774700 153.965000
26.754900 94.171600 152.618000
28.018000 99.005100 148.100000
28.016400 99.780600 147.869000
27.166700 101.065000 148.878000
23.112200 106.086000 154.714000
25.321900 91.687300 154.472000
25.504300 92.899800 154.362000
26.201800 93.177500 152.550000
25.962200 94.094600 152.373000
26.868400 98.969900 148.484000
27.093500 99.786600 148.110000
25.873400 101.408000 149.897000
22.837300 105.641000 154.051000
22.809800 106.613000 153.688000
23.178600 107.156000 152.461000
23.757300 91.015500 156.305000
24.809600 91.180400 154.084000
24.856200 92.404400 153.909000
25.506000 93.000100 152.161000
25.805100 93.526400 150.995000
25.935100 98.773500 148.601000
26.132200 99.605900 148.171000
23.321900 103.478000 152.178000
22.216900 105.565000 153.818000
22.509400 106.424000 152.872000
22.986700 106.806000 151.600000
24.001700 90.420500 154.649000
24.052100 91.229700 154.154000
24.569200 91.995400 152.734000
24.956400 92.781800 151.517000
25.423400 93.137200 150.116000
25.862600 97.396800 147.679000
25.195800 98.734800 148.535000
24.101500 100.799000 149.839000
22.476800 103.568000 152.299000
21.601900 105.333000 153.478000
21.577900 106.340000 153.139000
22.168800 106.822000 151.828000
23.279300 90.410000 154.462000
23.935100 90.745500 152.581000
24.355700 91.679300 151.596000
24.314500 92.592700 151.146000
25.426200 92.474000 148.696000
24.513200 97.808000 148.715000
23.645800 99.245700 149.558000
23.768900 100.289000 148.750000
22.742100 102.394000 150.363000
21.289500 104.906000 152.674000
20.773100 106.382000 153.283000
25.170400 109.861000 139.914000
22.910100 90.004000 153.348000
23.222000 90.508800 152.098000
23.694900 91.422600 151.300000
24.001400 92.035100 150.172000
23.141500 97.917000 149.468000
22.738800 98.996200 149.631000
23.160100 99.845800 148.339000
22.961100 101.332000 148.387000
21.620600 103.739000 150.844000
20.821700 105.534000 151.998000
24.170200 109.445000 141.086000
24.797900 109.671000 139.629000
25.912500 109.490000 137.089000
22.164800 89.819000 152.804000
22.815400 90.243000 151.272000
22.929500 91.259100 151.063000
23.786700 91.319100 148.883000
23.237300 96.272100 148.087000
22.127900 97.912700 149.728000
21.915000 99.077800 149.593000
22.667900 99.484300 147.492000
22.928500 100.569000 146.768000
23.289400 101.223000 145.646000
23.223600 101.998000 144.952000
23.768200 108.501000 141.177000
23.778900 109.225000 140.727000
24.736300 109.299000 138.622000
25.134300 109.797000 137.100000
21.268100 89.605600 152.641000
22.035600 90.116200 151.220000
22.445900 90.921700 150.398000
23.239000 91.045700 148.512000
22.022400 96.479900 148.706000
21.389000 97.899000 149.570000
21.323600 98.883200 149.035000
22.009700 99.328200 147.166000
22.266300 100.284000 146.283000
22.724400 101.121000 145.141000
23.004600 101.658000 144.099000
23.149200 108.470000 141.226000
22.806800 109.521000 141.385000
24.035300 109.349000 138.689000
24.891200 109.537000 136.335000
20.499700 89.395800 152.481000
20.949300 89.987300 151.477000
21.891900 90.528300 149.897000
21.251400 96.227100 148.503000
20.728900 97.534000 149.022000
20.904600 98.617400 148.151000
21.540000 99.288100 146.504000
21.720300 100.127000 145.766000
21.795000 101.056000 145.290000
22.285000 101.642000 144.123000
23.815900 110.880000 136.644000
20.628800 88.118400 151.244000
20.173800 89.158400 151.814000
20.338700 89.815700 151.029000
21.084400 90.162000 149.505000
20.573700 95.903100 148.137000
19.662800 97.379200 149.194000
20.282100 98.078000 147.808000
20.504800 99.126100 146.934000
20.728800 100.157000 146.004000
21.542600 100.891000 144.527000
21.286500 101.972000 144.668000
20.235500 88.794200 150.448000
20.363500 89.446500 149.767000
20.648900 89.955100 148.968000
20.420300 94.540400 147.302000
19.458700 95.986600 148.544000
19.124900 97.268900 148.523000
19.517100 98.274000 147.604000
19.267600 99.518500 147.426000
18.567300 100.954000 148.026000
18.676900 101.642000 147.569000
19.001400 94.926600 148.376000
18.511100 95.993400 148.645000
18.105100 97.191300 148.710000
18.024500 98.633000 148.456000
18.154200 99.829700 147.866000
17.879300 100.776000 147.796000
18.237200 94.819300 148.180000
17.463500 96.086300 148.884000
16.948800 97.510300 149.195000
16.012600 99.395200 150.080000
16.744000 100.128000 148.770000
16.244800 101.250000 148.805000
17.101800 94.980000 148.541000
16.201100 96.358000 149.492000
15.706700 97.836200 149.845000
15.353400 99.458400 149.766000
15.383600 100.506000 149.302000
15.153600 101.451000 148.933000
16.118400 94.998100 148.651000
15.185400 96.273000 149.714000
14.825100 100.469000 148.849000
14.336700 101.614000 149.122000
12.921200 103.338000 150.659000
14.915700 95.155600 149.281000
14.269600 96.193900 149.954000
13.359900 101.873000 149.183000
12.110900 103.411000 150.348000
14.519100 94.899100 148.864000
12.195800 102.054000 149.137000
11.438900 103.283000 149.968000
11.281100 101.929000 148.946000
11.451900 102.494000 148.484000
11.358600 100.598000 147.877000
10.574000 101.831000 148.853000
10.200700 102.639000 148.871000
10.620900 88.131300 151.688000
11.990500 88.273900 149.270000
12.268400 89.184400 148.429000
12.695500 89.871300 147.285000
9.833430 101.815000 148.628000
9.148830 102.745000 148.991000
9.739610 88.165400 152.010000
10.965900 88.308900 149.882000
11.405400 89.163600 148.805000
12.245800 89.759600 147.054000
12.233000 90.600200 146.558000
9.219720 101.642000 148.185000
8.274990 102.916000 149.162000
9.029190 88.190700 151.900000
10.075000 88.322300 150.096000
10.633900 88.964000 148.636000
11.360500 89.777500 147.129000
11.565400 90.665300 146.517000
11.651800 91.379800 145.726000
8.950290 101.369000 147.553000
9.379130 88.424400 149.603000
10.150100 88.836700 147.961000
10.129700 89.881800 147.487000
10.575300 90.866100 146.488000
10.220900 91.952400 146.453000
8.517640 88.409300 149.108000
9.152040 89.012200 148.063000
9.272760 89.972600 147.290000
9.747160 90.737300 146.367000
9.570250 91.838700 146.030000
11.073400 91.739600 143.773000
7.367760 88.449300 149.322000
8.170950 88.943300 148.017000
8.641080 89.748300 147.096000
8.625420 90.911000 146.506000
8.488850 92.043100 146.155000
7.788380 93.318800 146.575000
6.451440 88.471300 149.404000
7.098980 88.913600 148.092000
7.733820 89.817900 146.927000
7.573420 91.043200 146.656000
