# .PCD v0.7 - Point Cloud Data file format
VERSION 0.7
FIELDS x y z
SIZE 4 4 4
TYPE F F F
COUNT 1 1 1
WIDTH 1711
HEIGHT 1
VIEWPOINT 0 0 0 1 0 0 0
POINTS 1711
DATA ascii
1.44293 0.990233 1.404219
1.36734 0.93001401 1.388002
1.3761301 0.93748903 1.3891921
1.3990101 0.940516 1.395214
1.42681 0.945822 1.401754
1.4173 0.962982 1.396994
1.41702 0.976493 1.394411
1.41019 0.99103403 1.3905439
1.42532 0.99661601 1.3941211
1.43082 1.006 1.394336
1.38823 0.92305398 1.3894861
1.3929601 0.93212098 1.389619
1.4213901 0.96247399 1.391763
1.42224 0.97359395 1.389836
1.4154401 0.98785102 1.3863009
1.42037 0.99795401 1.3866271
1.43436 1.00533 1.389528
1.4314799 0.97166097 1.386232
1.42761 0.98373598 1.383237
1.42415 0.99548101 1.3815631
1.4337801 1.00398 1.3827651
1.4561 0.97558194 1.385417
1.44609 0.99051595 1.381031
1.44836 1.00223 1.380253
1.47312 0.98157203 1.383291
1.5072701 1.09487 1.581926
1.4391 0.99290705 1.589033
1.40254 0.90334296 1.5878079
1.5054201 1.09443 1.581817
1.4030499 0.90005094 1.582069
1.3671401 0.92774302 1.4010761
1.3944401 0.92211604 1.407352
1.4252601 0.945113 1.408741
1.3853799 0.92776603 1.399456
1.4102 0.92538399 1.404705
1.41961 0.93661797 1.403936
1.4089 0.95581704 1.398985
1.3808399 0.92850703 1.3921111
1.4091499 0.926494 1.3985679
1.4156599 0.93991697 1.3975149
1.41711 0.95028502 1.3966681
1.43725 1.01131 1.3885361
1.39869 0.91818398 1.3920151
1.4258701 0.94415802 1.3941671
1.43467 1.01194 1.3817101
1.44864 1.0135601 1.38439
1.43638 1.01183 1.375465
1.45033 1.0051399 1.371917
1.5169799 1.0622699 1.5899719
1.5165401 1.06218 1.5848379
1.4613 0.97032797 1.5891031
1.4507099 0.964625 1.584684
1.45116 0.95239604 1.5846311
1.4615401 0.94481903 1.583671
1.53503 1.07998 1.539115
1.48511 1.00533 1.557234
1.45424 0.96899498 1.574119
1.43218 0.94112605 1.5821651
1.4577 0.941028 1.577561
1.46412 1.00193 1.5577011
1.47121 0.995188 1.5578551
1.4549401 0.97259599 1.5662481
1.41948 0.92962897 1.578311
1.4380901 0.92911798 1.5753779
1.4553701 0.92530704 1.5729049
1.48015 1.00098 1.5474319
1.4640801 0.982256 1.5552001
1.40074 0.918109 1.57645
1.4172 0.91580498 1.5739751
1.4879401 1.00532 1.536153
1.4762501 0.990439 1.5428959
1.39009 0.91185999 1.572377
1.3991799 0.906932 1.571177
1.49647 1.00225 1.5283859
1.3844701 0.90843004 1.565834
1.49494 1.002 1.5208099
1.3784599 0.90410799 1.558411
1.5052201 1.09174 1.586447
1.47261 1.01539 1.5895239
1.48217 1.01078 1.589146
1.48549 0.99941707 1.5895649
1.46 1.0093 1.586229
1.4829299 1.01071 1.581573
1.47998 0.99789101 1.5831101
1.4582601 1.0088401 1.5799041
1.48276 1.0110099 1.57287
1.47507 0.997181 1.576982
1.4565401 0.939246 1.589196
1.4855701 1.0127701 1.5632761
1.48173 1.00165 1.5674369
1.45263 0.93570799 1.584036
1.54102 1.07108 1.5333
1.4871601 1.00492 1.5575881
1.49605 1.00985 1.546311
1.4809101 1.0013 1.543094
1.4802001 1.00011 1.5366271
1.4769901 0.99904996 1.531185
1.49103 0.99137497 1.4962131
1.4963299 0.99239403 1.488175
1.48791 0.97846103 1.491915
1.49295 0.98073095 1.4838501
1.49938 0.98401606 1.4739621
1.5041001 0.98649806 1.464833
1.4843299 0.97713602 1.4632851
1.49264 0.99972397 1.589465
1.52071 1.06977 1.5649819
1.49558 1.01029 1.5815281
1.47475 0.98984903 1.588739
1.48513 1.00336 1.5767691
1.46569 0.98436093 1.5842041
1.46403 0.95879096 1.587348
1.46767 0.94812894 1.587804
1.46852 0.939255 1.588716
1.51907 1.0643901 1.5547509
1.43338 1.00484 1.5843461
1.4892999 1.00569 1.5675759
1.472 0.99008101 1.574573
1.44733 0.967502 1.5842971
1.44286 0.95095301 1.586634
1.46573 0.94703597 1.581064
1.4285899 1.0100499 1.5785561
1.4218401 1.0007 1.5800711
1.48764 1.00527 1.560948
1.4686999 0.98923796 1.569185
1.4278301 0.95441401 1.584414
1.42756 0.94352096 1.583828
1.45061 0.94046205 1.578809
1.4111999 1.00334 1.5776471
1.4959599 1.00965 1.5498481
1.48955 0.99938697 1.5543879
1.4281399 0.95289397 1.577574
1.4106799 0.93622804 1.582305
1.41602 0.92939103 1.582616
1.5358 1.07195 1.524557
1.41223 1.0040699 1.5720171
1.49702 1.0099 1.5425861
1.49549 1.00261 1.544077
1.42453 0.951428 1.573256
1.39319 0.92681503 1.579944
1.4018899 0.92336196 1.579803
1.49612 1.00975 1.5357611
1.4938 1.00177 1.537124
1.39022 0.92475998 1.5731891
1.3917199 0.91820198 1.575441
1.4951601 1.00121 1.529075
1.3826801 0.92071897 1.5675461
1.3891001 0.916278 1.5682291
1.4931101 0.99962699 1.5220641
1.48255 0.98761296 1.5266271
1.36694 0.91376901 1.5644729
1.3749499 0.907947 1.563692
1.49137 0.99913001 1.5155661
1.4855599 0.98784798 1.518609
1.37573 0.90788901 1.5553939
1.47964 0.98463202 1.513514
1.36601 0.913086 1.5502499
1.3784801 0.90871298 1.547529
1.49288 0.99035698 1.5023471
1.3659301 0.91258204 1.542606
1.3753301 0.90664297 1.5416729
1.49297 0.99042702 1.4954981
1.3649601 0.912117 1.53697
1.51389 1.09272 1.588294
1.51077 1.0822899 1.582841
1.49326 1.00734 1.586694
1.47835 1.01405 1.584534
1.4884599 1.00421 1.5828061
1.47798 0.98966199 1.5869751
1.46647 1.01051 1.580402
1.48141 1.0027601 1.578517
1.4577699 0.98291296 1.5867521
1.46323 0.947043 1.587608
1.4604601 1.0079499 1.575572
1.47668 1.0024199 1.5729871
1.44286 0.97619903 1.584097
1.45303 0.94390404 1.584082
1.54073 1.07985 1.538139
1.4680901 0.99931604 1.568289
1.43829 0.97585297 1.5795531
1.4198599 0.957403 1.586409
1.41942 0.93554002 1.588097
1.47944 1.00695 1.556007
1.41584 0.96714401 1.582502
1.3983501 0.93733597 1.586004
1.4105201 0.93112701 1.5832491
1.39726 0.93485099 1.578873
1.40047 0.926166 1.579054
1.3824 0.92821604 1.576907
1.39719 0.92408895 1.5728439
1.41617 0.91952497 1.5676181
1.38149 0.91713202 1.571599
1.3937399 0.912323 1.5679899
1.38854 0.908319 1.562597
1.3818099 0.90231794 1.555589
1.3846 0.90277499 1.538728
1.51256 1.0912 1.5850171
1.50518 1.09988 1.580846
1.47106 1.01386 1.5894001
1.489 1.00702 1.583851
1.4860201 0.99671602 1.5856441
1.46506 1.01358 1.5851041
1.4857401 1.00699 1.578681
1.47961 0.99517995 1.5808681
1.4624801 0.95384198 1.589608
1.4855499 1.00612 1.571038
1.4778199 0.99558699 1.5744411
1.45964 0.95025998 1.583414
1.4712501 0.94146597 1.579119
1.4837199 1.00682 1.563833
1.4781599 0.99679494 1.56749
1.4241099 0.944166 1.5875641
1.45841 0.93934995 1.576996
1.48943 1.0086 1.5551331
1.4900501 0.99980497 1.5556841
1.4022 0.93780702 1.5873641
1.4288299 0.93417501 1.5791631
1.53073 1.07311 1.532057
1.4933901 1.00825 1.547164
1.4889901 0.99886805 1.549481
1.38325 0.93134999 1.586845
1.3997099 0.92573404 1.5816211
1.4318299 0.92150098 1.5712601
1.4958501 1.0090699 1.538877
1.49164 0.99974799 1.5419461
1.3911901 0.92153394 1.5771741
1.41242 0.91652 1.5706149
1.50226 1.01027 1.5305791
1.4946899 1.00086 1.533483
1.37457 0.91490304 1.574911
1.39425 0.91110605 1.569039
1.49502 1.00058 1.5268091
1.38588 0.90742797 1.564391
1.49981 1.00183 1.518716
1.4053301 0.91857004 1.5890421
1.4155499 0.94597399 1.5895129
1.42987 0.95350403 1.5866741
1.42974 0.96413398 1.5879849
1.4330601 0.97496903 1.587984
1.4353999 0.98778701 1.587185
1.43091 1.00069 1.5886929
1.3938699 0.92015404 1.586236
1.3895 0.93043101 1.5886081
1.39342 0.93893099 1.588321
1.44559 0.99828202 1.5776981
1.3995799 0.90914297 1.576743
1.39035 0.91987902 1.5806311
1.3852299 0.93067002 1.58333
1.4080701 0.93179297 1.576259
1.46661 1.00524 1.563391
1.38823 0.911726 1.574332
1.38525 0.920403 1.5756191
1.39332 0.92657799 1.574185
1.4786099 1.00387 1.5512171
1.38086 0.91215301 1.5690891
1.38826 0.91744304 1.5674831
1.48517 1.00266 1.5423089
1.38494 0.90901297 1.561196
1.40192 0.91027701 1.5556771
1.48524 1.0033799 1.535159
1.3942599 0.90273499 1.550882
1.4932699 1.00081 1.5170701
1.39248 0.94390404 1.4074881
1.4355 0.99095297 1.396062
1.4344701 0.99989098 1.397115
1.44139 1.0107 1.3957601
1.37921 0.94708395 1.408427
1.39493 0.95158696 1.4025661
1.3944701 0.963772 1.4036521
1.40101 0.97363096 1.4019181
1.4018101 0.98525101 1.403371
1.4175 0.99357104 1.399032
1.41711 1.00237 1.399819
1.4325501 1.00959 1.3936599
1.3875301 0.93531096 1.3973861
1.38228 0.94444299 1.400552
1.37895 0.95667195 1.4040719
1.38316 0.96752602 1.4033611
1.3928 0.97618598 1.400528
1.3995199 0.98599195 1.3984399
1.40826 0.99448305 1.3970691
1.42059 1.0022 1.391819
1.4321899 1.01126 1.387677
1.38072 0.93571299 1.3935291
1.3737199 0.94739801 1.39789
1.3740801 0.95882696 1.3995709
1.3794099 0.96700305 1.3992101
1.38196 0.97680002 1.3990091
1.39239 0.98527098 1.3951761
1.40476 0.99441099 1.3914951
1.42398 1.0018699 1.3842571
1.44628 1.00825 1.3753979
1.3701601 0.93818605 1.3920751
1.37481 0.94495004 1.390169
1.3790401 0.95439303 1.390383
1.37983 0.96821296 1.393163
1.38649 0.97788101 1.391115
1.3969799 0.98561096 1.3876041
1.4071801 0.99446297 1.3848931
1.36388 0.937985 1.3883481
1.3781799 0.94261497 1.382556
1.3903799 0.97695398 1.3844709
1.40353 0.92527199 1.589339
1.40685 0.93406796 1.589937
1.43257 0.93465203 1.583275
1.4174401 0.90786302 1.5753371
1.4103 0.921417 1.580568
1.4144599 0.93063104 1.5818249
1.44099 0.997352 1.58189
1.41935 0.89662802 1.5665871
1.39912 0.91280001 1.5748791
1.42897 0.915591 1.570523
1.4039999 0.900132 1.5644341
1.4082899 0.905617 1.564487
1.39889 0.899382 1.55864
1.40606 0.904562 1.558305
1.39395 0.89936697 1.553705
1.43128 0.965967 1.3901831
1.4218601 0.97904801 1.3962539
1.4301801 0.98752803 1.3945709
1.43117 0.999376 1.395654
1.4414101 1.0107399 1.3946041
1.41057 0.97276604 1.3940589
1.4125301 0.98197305 1.394545
1.4177001 0.99163103 1.3952091
1.42263 1.00067 1.393523
1.43102 1.00985 1.3915801
1.41359 0.95149696 1.381909
1.42722 0.955302 1.377485
1.40722 0.97381598 1.389419
1.4070599 0.98411399 1.391029
1.41251 0.99309897 1.390651
1.42379 1.00158 1.386533
1.4301699 1.01188 1.385592
1.4243 0.95471102 1.373419
1.4147999 0.968211 1.3800579
1.40957 0.98378801 1.3845401
1.41676 0.993545 1.382503
1.4272799 1.00141 1.3791211
1.4415699 1.01017 1.374697
1.42301 0.990794 1.374337
1.42627 0.91054803 1.585016
1.41294 0.90528601 1.5817331
1.4077499 0.91998804 1.5863659
1.41908 0.92623705 1.585719
1.43627 0.98931801 1.58992
1.44135 1.00034 1.587932
1.40741 0.907345 1.577361
1.40431 0.92041802 1.5816181
1.4045399 0.89725798 1.5696249
1.403 0.90662003 1.5709881
1.4088 0.91390902 1.5719281
1.3969001 0.899234 1.564944
1.40519 0.90403903 1.564054
1.38991 0.90109396 1.5599151
1.3870599 0.90010804 1.5535971
1.4037399 0.90788805 1.5824471
1.4038299 0.91983199 1.5852001
1.42794 0.988536 1.588987
1.42942 0.99832702 1.5882629
1.40214 0.90836406 1.575896
1.4111 0.91239196 1.5742871
1.4367999 0.99479795 1.5805371
1.4333701 1.00797 1.5822259
1.39951 0.90793401 1.5694009
1.4496601 0.999093 1.5715461
1.3896401 0.90029407 1.562368
1.44187 1.0200801 1.392538
1.4397701 1.02122 1.3875231
1.4409 1.02158 1.38185
1.4017199 0.90325797 1.5852071
1.4006 0.91463399 1.588369
1.4086 0.92195398 1.588551
1.4291701 0.92156798 1.5842191
1.40557 0.90991503 1.5799279
1.43876 0.98901904 1.5833709
1.42633 1.00827 1.589301
1.4133999 0.90025598 1.568063
1.4403501 1.00085 1.577721
1.4254299 0.99464697 1.3984531
1.4410001 0.996984 1.3937011
1.42065 0.99688697 1.394752
1.4261099 1.00372 1.3944861
1.4477099 1.00442 1.3868871
1.4213201 0.99711305 1.388226
1.43244 1.00105 1.385197
1.4412301 1.00773 1.382771
1.42468 0.99526703 1.3805361
1.42621 1.00533 1.382318
1.45104 1.00211 1.372794
1.48395 1.0270801 1.5899529
1.4215199 0.94957495 1.5862201
1.43855 0.96203101 1.5892349
1.44075 0.94857699 1.585593
1.4455701 0.93832201 1.584011
1.4414999 0.962771 1.582939
1.4464301 0.95133698 1.5820011
1.44681 0.93943101 1.5791861
1.44356 0.92541605 1.5741681
1.4627 0.98932505 1.587321
1.44253 0.96074098 1.575377
1.44166 0.94746804 1.5731149
1.4423801 0.93327695 1.568554
1.45237 0.92561096 1.5691161
1.47965 1.01267 1.5878121
1.4333299 0.93965203 1.5610421
1.4824899 1.0151401 1.581158
1.42119 0.91936898 1.544585
1.4835601 1.0174099 1.5744549
1.38035 0.92539102 1.585614
1.3878599 0.93820602 1.583014
1.3828501 0.92494601 1.577787
1.4138901 0.95014703 1.584969
1.39666 0.93004096 1.5759671
1.3876801 0.91641897 1.570573
1.4332299 0.95928496 1.5844861
1.4274601 0.94294405 1.580058
1.4200799 0.92830598 1.575127
1.46039 0.98528999 1.5894741
1.4524699 0.96903098 1.584391
1.4402699 0.94916701 1.5768161
1.43959 0.93537402 1.574671
1.4431 0.92494202 1.572908
1.467 1.00046 1.5874591
1.45021 0.97849703 1.577677
1.44822 0.96278101 1.574239
1.4452699 0.94916499 1.5705611
1.4499401 0.94042397 1.571864
1.45078 0.92740703 1.568495
1.48264 1.01888 1.5886501
1.47023 1.00225 1.580914
1.4268299 0.95377403 1.559076
1.44416 0.94924897 1.56376
1.45204 0.94016999 1.5652541
1.4834 1.01923 1.580531
1.47416 1.00607 1.574797
1.4317 0.94431299 1.5532299
1.47789 1.00895 1.568832
1.4764199 1.00843 1.560122
1.3884801 0.945665 1.585799
1.3813699 0.93230003 1.580273
1.3782899 0.92980903 1.572343
1.3639599 0.91635597 1.564631
1.4284599 0.95248395 1.584232
1.37921 0.91880399 1.5622309
1.4534 0.98109299 1.5888311
1.4466001 0.96715701 1.584214
1.44681 0.95629501 1.58339
1.40745 0.92593902 1.5642849
1.39519 0.91391701 1.559069
1.452 0.98834199 1.584455
1.4431701 0.97424799 1.5778481
1.4438001 0.96352798 1.575291
1.4480799 0.955553 1.5765461
1.43468 0.93775201 1.568302
1.42978 0.92438203 1.564937
1.47646 1.0164701 1.5870981
1.4374299 0.96025902 1.5663141
1.44243 0.95100999 1.5663561
1.4429899 0.93962198 1.5642481
1.44556 0.92816806 1.5631911
1.48215 1.01818 1.5819941
1.43705 0.948268 1.557421
1.4435899 0.93895602 1.5576831
1.48313 1.01903 1.575636
1.4413201 0.939201 1.5514441
1.38208 0.93365502 1.5875821
1.3743601 0.92219704 1.5837561
1.3882899 0.94605005 1.5844589
1.38302 0.93399298 1.58049
1.37471 0.921794 1.5752161
1.4106599 0.95159698 1.585003
1.38414 0.933429 1.573445
1.36847 0.91747999 1.564474
1.44013 0.960558 1.588356
1.4154299 0.94193804 1.5777659
1.3874 0.92244905 1.5652729
1.37099 0.90726 1.557346
1.45435 0.98635101 1.588627
1.4538901 0.97418296 1.5881531
1.44972 0.960895 1.58424
1.44033 0.948048 1.5798731
1.4224401 0.93272501 1.571501
1.3782201 0.90815496 1.553652
1.4401 0.98101997 1.577373
1.44427 0.97188103 1.5776061
1.4503599 0.96197701 1.578127
1.4486001 0.95012802 1.575731
1.43817 0.93577695 1.570022
1.43027 0.92242402 1.565138
1.39907 0.90482402 1.553061
1.48265 1.01582 1.5889469
1.47291 1.00649 1.5829401
1.44275 0.95896304 1.5685431
1.44953 0.95090896 1.56976
1.4509801 0.93918604 1.567542
1.47496 1.01539 1.5788009
1.4766201 1.00789 1.5767871
1.4524601 0.948291 1.563609
1.45102 0.93700302 1.5595751
1.47086 1.0070601 1.56671
1.4698399 1.00668 1.5585721
1.44635 1.00273 1.404791
1.45401 0.95820701 1.589975
1.4340401 0.94270104 1.589285
1.4291099 0.967843 1.586895
1.41886 0.972754 1.5882519
1.41017 0.91210097 1.589357
1.4168601 0.93038297 1.5870709
1.40029 0.93531698 1.5884011
1.4027001 0.95120597 1.58722
1.4030299 0.962937 1.585296
1.4289999 0.90908796 1.577305
1.4105 0.91096002 1.582484
1.40047 0.92046094 1.5841341
1.3896 0.928756 1.584555
1.3937399 0.94419295 1.5827099
1.3993601 0.95962197 1.579435
1.3808701 1.0391101 1.570312
1.42294 0.91703904 1.5711941
1.4014701 0.91833001 1.5769681
1.38757 0.92384905 1.5790429
1.3899499 0.94051003 1.577338
1.4019099 0.96086699 1.57244
1.37766 1.03627 1.564361
1.3792399 1.04581 1.5637939
1.3938299 0.915003 1.5714051
1.395 0.92845398 1.569725
1.37288 1.0415 1.5597861
1.39065 0.90401804 1.5655811
1.3852099 0.90912902 1.565961
1.46039 0.99428296 1.524731
1.45306 0.97667295 1.522332
1.45653 0.98908699 1.5190949
1.4586999 0.97965205 1.5137562
1.4590601 0.991063 1.5108681
1.4612399 0.98147202 1.504972
1.4619 0.99370003 1.5013251
1.46032 0.98127198 1.4967691
1.41136 1.0001 1.504868
1.4709101 0.98827499 1.484107
1.41821 1.0058399 1.4950271
1.41941 1.00804 1.4861951
1.42287 1.01261 1.474942
1.4248599 1.01625 1.4651409
1.4052299 1.01591 1.4697289
1.4126199 1.0334201 1.457157
1.4665101 0.985663 1.441384
1.4660201 0.98524201 1.432795
1.465 0.98406404 1.424803
1.4576499 1.00666 1.354768
1.44248 1.0083699 1.3576809
1.4711701 0.984079 1.3454871
1.46543 0.99646103 1.3466439
1.4494901 1.00132 1.3497189
1.42239 0.99450797 1.3583909
1.4563699 0.97868299 1.3452801
1.4451699 0.985174 1.347713
1.43806 0.99484396 1.3468601
1.4137601 0.988424 1.3545411
1.39353 0.93938696 1.360569
1.3924099 0.94932401 1.3597051
1.41407 0.97699797 1.350367
1.4065199 0.98199099 1.350852
1.39333 0.93957496 1.3548691
1.3854699 0.94408 1.357159
1.39114 0.95897204 1.352702
1.40099 0.94543999 1.3441091
1.3830701 0.94286001 1.3515359
1.39363 0.95938498 1.342507
1.3895 0.94796503 1.3406421
1.40045 0.96485603 1.332052
1.3862 0.94636297 1.336149
1.4267 0.97583199 1.5864459
1.4316001 0.99004996 1.5852799
1.42452 1.0002999 1.585459
1.4041499 1.00211 1.588603
1.40868 0.96501404 1.584421
1.4143699 0.97920799 1.582446
1.4175 0.99530298 1.580632
1.4047501 1.00231 1.5806069
1.3942701 1.01108 1.5839599
1.38894 1.02117 1.5824181
1.39455 0.95652097 1.5825959
1.40488 0.97219396 1.578058
1.4096899 0.98969597 1.5747839
1.40299 1.00176 1.57321
1.3962801 1.0122 1.5755301
1.39214 1.02477 1.5739571
1.39011 0.95487803 1.5782679
1.4101801 0.97865504 1.568983
1.4092599 0.99315101 1.566429
1.4065 1.0043 1.565482
1.4005499 1.01499 1.565676
1.39326 1.0269799 1.566156
1.39843 0.960868 1.570156
1.41584 0.99685305 1.55662
1.4027699 1.0019001 1.560398
1.3974 1.0115399 1.558852
1.39534 1.02582 1.557893
1.4103799 1.00652 1.549886
1.4044701 1.01762 1.548974
1.3947999 1.02711 1.5497681
1.4373399 1.00109 1.535818
1.4274899 1.00564 1.536821
1.4101501 1.00778 1.541591
1.40071 1.0173401 1.54284
1.4041499 1.00425 1.5357269
1.40205 1.01667 1.535278
1.3932 1.02421 1.5345531
1.3992 1.0150399 1.528918
1.4017799 1.0207 1.5186501
1.3886399 1.03425 1.517948
1.40134 1.03248 1.5077701
1.38034 1.02902 1.5141921
1.41427 1.01626 1.498296
1.40483 1.0332199 1.498584
1.3903 1.03541 1.503513
1.41133 1.02316 1.490571
1.397 1.03976 1.4918699
1.41862 1.01688 1.4811391
1.4089 1.0336499 1.481127
1.40025 1.05432 1.479179
1.41844 1.0165 1.473617
1.4141901 1.02465 1.4742501
1.40741 1.0490299 1.47097
1.41422 1.01475 1.467531
1.4163001 1.02776 1.4653351
1.4156599 1.07789 1.45495
1.40628 1.00973 1.4627891
1.4196899 1.0291101 1.455358
1.4139 1.04082 1.4556781
1.41643 1.0152401 1.450986
1.46103 0.98239404 1.429961
1.4580901 0.99106002 1.423952
1.45023 1.01205 1.3571811
1.45987 1.00591 1.346552
1.44328 1.0084 1.3517489
1.4679101 0.98545194 1.3420681
1.4615899 0.99633902 1.340872
1.4486799 1.0011001 1.343681
1.44013 1.0051999 1.3443521
1.42979 0.98181397 1.34552
1.4461999 0.99920899 1.3372101
1.4463 1.00766 1.335101
1.43621 0.99377799 1.335591
1.42816 0.97391099 1.588542
1.43013 0.98861098 1.586576
1.42511 0.99771005 1.5869
1.41567 1.00415 1.58832
1.40597 1.0102301 1.5898261
1.41102 0.95036697 1.587973
1.4166701 0.96696502 1.5850611
1.4157801 0.98051298 1.583905
1.41958 0.995242 1.582193
1.4114 1.00377 1.5821
1.4027699 1.0099 1.582515
1.40259 0.90845495 1.5890731
1.4033501 0.92079902 1.586423
1.3927799 0.92812896 1.587556
1.3852 0.93725401 1.5886731
1.40008 0.95790398 1.582978
1.41093 0.97697604 1.577906
1.41579 0.99427599 1.5752679
1.4065 1.00309 1.575955
1.40273 1.01035 1.575681
1.4076101 0.91070294 1.5797009
1.3895 0.91622102 1.583671
1.3781799 0.92332703 1.5862219
1.37535 0.932154 1.584949
1.39809 0.95532697 1.5765311
1.40488 0.97247702 1.5726361
1.41538 0.99227601 1.566951
1.40868 1.00208 1.5688611
1.40254 1.00968 1.568949
1.4177699 0.91172099 1.5696781
1.39416 0.914168 1.5757611
1.3750701 0.92019796 1.580354
1.37694 0.93198895 1.577895
1.4221201 0.97193497 1.561372
1.4214301 0.98376703 1.5585561
1.4105 0.99238402 1.5604072
1.4074899 1.00251 1.5614051
1.4001499 1.0087 1.5625091
1.4271899 0.89556003 1.559926
1.42362 0.91216499 1.5619321
1.37052 0.90780294 1.575536
1.3678999 0.91691899 1.575173
1.3846201 0.93336797 1.568414
1.4452499 0.98297602 1.545094
1.44696 0.99487603 1.541754
1.4331 1.0021399 1.545846
1.4155 1.00629 1.5509089
1.3984101 1.00772 1.5564731
1.3686399 0.915838 1.5678132
1.45175 0.97549403 1.536772
1.4568601 0.98717302 1.533565
1.45635 0.99858302 1.5310711
1.4158 1.00555 1.5432651
1.4045 1.01008 1.5468609
1.42177 0.899607 1.5503631
1.36588 0.91291398 1.5614361
1.4698501 0.98358703 1.5229621
1.46017 0.98898804 1.5254711
1.40802 1.01149 1.5371341
1.37395 0.91547096 1.5532581
1.46948 0.98248595 1.514505
1.46306 0.99016196 1.516994
1.41697 1.0072 1.528139
1.4043 1.01008 1.530715
1.4699899 0.982333 1.506538
1.46226 0.98786598 1.509926
1.42327 1.0088201 1.519227
1.3963901 1.0056601 1.528123
1.4688699 0.98221701 1.499202
1.4619401 0.98868501 1.502574
1.47276 0.98403394 1.489939
1.4602799 0.988352 1.495092
1.4783299 0.986871 1.479756
1.4633299 0.98981202 1.485876
1.4753101 0.98466498 1.473015
1.47563 0.98544198 1.4582381
1.41379 1.01528 1.4716561
1.4231 1.01973 1.462437
1.4207699 1.01894 1.4562171
1.4600301 0.98924398 1.440235
1.4233501 1.02029 1.447295
1.4575599 0.99048305 1.4328461
1.42322 1.02027 1.439453
1.4298301 1.02389 1.428826
1.4272799 1.02229 1.4221921
1.43019 1.02336 1.412608
1.43434 1.02579 1.4014981
1.4413201 1.02053 1.391741
1.4291701 1.0242701 1.3956101
1.4287699 1.02352 1.387681
1.45061 1.01098 1.375025
1.44556 1.02156 1.3734031
1.4202499 1.01943 1.3833489
1.45464 1.0120701 1.3642511
1.4449699 1.0207599 1.3651959
1.4188499 1.0184 1.3764371
1.44504 1.0086 1.359249
1.43704 1.01762 1.362237
1.4097999 1.01415 1.374675
1.45227 0.99781197 1.35063
1.4389501 1.0036399 1.353914
1.43821 1.01438 1.3530771
1.4601401 0.98945504 1.341352
1.4374499 0.99148905 1.3493921
1.43972 1.00441 1.346164
1.4490199 1.01817 1.3400251
1.4383299 0.97051597 1.3459381
1.4376199 0.98077399 1.344115
1.44478 0.996503 1.338495
1.44682 1.00805 1.33478
1.4263099 0.97333699 1.344799
1.45332 1.0015399 1.3265891
1.45846 1.0059201 1.31476
1.45407 0.943012 1.5893521
1.4342101 0.95844805 1.588653
1.4264599 0.96757799 1.589879
1.41976 0.97438204 1.589409
1.41223 0.95200598 1.5884449
1.40957 0.96263903 1.588099
1.40254 0.90127999 1.588253
1.4011799 0.91137397 1.587865
1.4033501 0.92227995 1.585302
1.3922701 0.93022001 1.587608
1.38877 0.94206399 1.588441
1.3897799 0.95426202 1.5879849
1.4254401 0.90707296 1.5734891
1.4082899 0.91346604 1.578805
1.3964701 0.921417 1.581387
1.3783001 0.92511499 1.585264
1.38017 0.93699998 1.5840011
1.38572 0.950418 1.5817599
1.42664 0.915914 1.5656559
1.3933001 0.918679 1.5757201
1.37448 0.92490095 1.5799741
1.3881301 0.94175303 1.5743331
1.40801 0.95852602 1.565858
1.36835 1.04074 1.5693581
1.41953 0.91396403 1.561741
1.37105 0.914303 1.5751981
1.3755001 0.92446601 1.572917
1.4208299 0.957026 1.556437
1.44031 0.97145301 1.5477459
1.3655299 0.91143399 1.570792
1.38511 0.92464799 1.563256
1.45042 0.96823901 1.540203
1.4521 0.97559899 1.538318
1.3688099 0.90945101 1.5626471
1.44963 0.97551805 1.534603
1.3847301 1.0315 1.542639
1.38425 1.0191799 1.5368649
1.39186 1.03308 1.53386
1.40289 1.015 1.524106
1.3959 1.0233101 1.5271749
1.3928101 1.0334101 1.5263211
1.40485 1.0052201 1.51825
1.40747 1.0147099 1.5156131
1.3947301 1.0212899 1.520844
1.3980701 1.03373 1.5172172
1.41713 1.00895 1.507599
1.41079 1.01546 1.5070391
1.39924 1.0234799 1.5114169
1.3958099 1.03509 1.51142
1.415 1.00805 1.5009609
1.4132299 1.01607 1.4986939
1.40553 1.02461 1.501163
1.3986 1.03623 1.502596
1.3965 1.0477901 1.5006261
1.41917 1.00989 1.491341
1.4172901 1.0173301 1.4910141
1.40984 1.0244499 1.492466
1.4049801 1.03563 1.4927111
1.39377 1.04514 1.494454
1.3982401 1.05828 1.4917511
1.42258 1.01083 1.4819419
1.4155099 1.01718 1.485127
1.3950101 1.03449 1.4892151
1.39762 1.04721 1.484937
1.38916 1.0549901 1.487489
1.42515 1.01143 1.474066
1.4171699 1.01824 1.4757251
1.4108901 1.02877 1.4762551
1.39619 1.03451 1.481854
1.39685 1.04567 1.478531
1.39168 1.05518 1.47909
1.40183 1.0697 1.47392
1.42084 1.0100399 1.469027
1.42215 1.02 1.465209
1.41054 1.02739 1.469449
1.39871 1.03523 1.4737741
1.397 1.04694 1.4715641
1.40569 1.0626301 1.4660381
1.4283999 1.0133001 1.458269
1.41221 1.0279 1.461136
1.40851 1.0393801 1.462496
1.4154899 1.0423599 1.452009
1.43293 1.0151 1.433664
1.4353501 1.01656 1.424438
1.42742 1.03391 1.4250591
1.4297301 1.03394 1.416086
1.43358 1.0251499 1.4091431
1.44822 1.02235 1.3694991
1.44425 1.01919 1.3645531
1.4481399 1.02947 1.3614801
1.4445399 1.0192701 1.3576269
1.4582001 1.02552 1.3431751
1.4035699 1.00696 1.58795
1.4028701 1.0085 1.5809
1.39669 1.0150499 1.5822251
1.38363 1.02298 1.585865
1.3806 1.03523 1.584267
1.3987499 1.00818 1.574896
1.3860099 1.01468 1.5787041
1.38414 1.0252401 1.5787671
1.37646 1.03264 1.578961
1.39572 1.0061699 1.568699
1.39028 1.01422 1.5697931
1.38063 1.0231199 1.5734781
1.38228 1.03556 1.5700619
1.3948599 1.00648 1.562304
1.39446 1.0165 1.5613431
1.38032 1.0226899 1.566617
1.38554 1.0348899 1.562341
1.37791 1.0436901 1.563834
1.4158599 1.01177 1.547159
1.39948 1.0173 1.553143
1.3873301 1.02487 1.5574059
1.38126 1.03456 1.557214
1.38041 1.04638 1.556134
1.3885001 1.0255001 1.5499871
1.3875101 1.0379699 1.5475861
1.39239 1.0274 1.540887
1.38612 1.0367199 1.5416119
1.38491 1.04763 1.5411481
1.39589 1.02729 1.532372
1.38959 1.03747 1.53433
1.3979801 1.02676 1.5251679
1.39095 1.03725 1.5261431
1.46586 0.992405 1.497355
1.39882 1.0282 1.5178241
1.3897901 1.05002 1.517375
1.40222 1.0305001 1.508345
1.39762 1.0415 1.5079541
1.39266 1.06244 1.507259
1.39412 1.03826 1.503551
1.3928599 1.0507599 1.5018179
1.3862801 1.0600901 1.5027481
1.3969501 1.07234 1.4976941
1.3970399 1.0397201 1.495502
1.39389 1.05049 1.49371
1.3890899 1.06066 1.494509
1.39379 1.07109 1.49174
1.40976 1.0316 1.4834509
1.3982401 1.0410501 1.4869701
1.3885001 1.05119 1.488719
1.3822701 1.05902 1.4902301
1.3892599 1.06932 1.48629
1.41197 1.0325 1.475088
1.40584 1.0417501 1.477077
1.39827 1.05194 1.4777451
1.38843 1.06043 1.4813541
1.39439 1.0708001 1.476173
1.4089301 1.03171 1.4689889
1.40359 1.0423599 1.470356
1.39677 1.05164 1.4712691
1.39823 1.0628099 1.469557
1.40328 1.07399 1.4646491
1.41256 1.03249 1.4604089
1.4065199 1.0418 1.4624249
1.40591 1.05404 1.460948
1.4117999 1.0680699 1.455966
1.4170899 1.0341001 1.451175
1.40756 1.04302 1.454931
1.4117501 1.05689 1.4505321
1.41995 1.03486 1.442427
1.4155499 1.04593 1.444108
1.4187399 1.04682 1.435153
1.44683 1.01946 1.3790741
1.4442199 1.0291101 1.380448
1.45033 1.01877 1.3699601
1.44473 1.0297799 1.3728631
1.4474499 1.0431 1.3691031
1.4495399 1.01898 1.361793
1.44558 1.0302501 1.364453
1.44742 1.0071601 1.356833
1.4358001 1.0150499 1.361219
1.4474001 1.0297101 1.355322
1.4437801 0.99621695 1.353089
1.4267999 1.00006 1.358783
1.4405099 1.01545 1.3518929
1.45033 1.03012 1.345683
1.42873 0.991027 1.352007
1.4268299 1.00052 1.35168
1.4503599 1.01926 1.338901
1.4602799 0.97818899 1.331367
1.4464301 0.98374295 1.3373111
1.42693 0.98969001 1.3461831
1.4383 1.00352 1.3393581
1.3931301 0.93378097 1.3579291
1.39782 0.94452101 1.353974
1.41056 0.96011806 1.346555
1.4364301 0.97853696 1.3352051
1.43634 0.98842502 1.335336
1.3910899 0.93417501 1.352568
1.38866 0.94149697 1.35331
1.4030499 0.95550203 1.344635
1.42036 0.971035 1.336364
1.3979499 0.93594903 1.340488
1.38695 0.94178003 1.347191
1.4102 0.95686305 1.334913
1.39623 0.933411 1.3332611
1.4007601 0.94327903 1.3319751
1.4006599 0.92511702 1.324689
1.39692 0.93272698 1.3271521
1.39485 0.92191803 1.322731
1.3909199 0.919891 1.319777
1.42864 0.944179 1.588339
1.4256799 0.93296206 1.58798
1.4102299 0.92332298 1.582549
1.40442 0.914316 1.5806559
1.40696 0.90417296 1.5822549
1.44054 0.93269503 1.586223
1.4219501 0.92313403 1.579654
1.4081399 0.91269898 1.5752609
1.40553 0.90068197 1.574648
1.40941 0.91242796 1.5676731
1.40439 0.90195799 1.5664371
1.5211301 1.07876 1.589385
1.5124699 1.0703501 1.5882061
1.50489 1.03684 1.5880079
1.50438 1.02425 1.588611
1.49798 1.00474 1.5879159
1.49515 0.99353898 1.587667
1.48383 0.94925201 1.586076
1.4055901 0.90221298 1.5591031
1.5322099 1.07523 1.587706
1.5188401 1.06738 1.583282
1.5053301 1.0369 1.5811219
1.5060899 1.0261799 1.5823621
1.5039101 1.01342 1.5828619
1.5011901 1.00207 1.5831219
1.48869 0.99399495 1.577242
1.5011001 0.98057902 1.5846291
1.49288 0.95923698 1.583056
1.47127 0.95148599 1.57427
1.52291 1.07653 1.577161
1.5182099 1.0662 1.575282
1.50788 1.0357801 1.574872
1.50835 1.0227799 1.57627
1.49977 1.01363 1.573405
1.49845 1.00253 1.574864
1.4917599 0.99316704 1.572336
1.5005001 0.98103797 1.5766031
1.50117 0.96923602 1.579555
1.49338 0.96043605 1.575802
1.52245 1.07594 1.569466
1.5233001 1.06616 1.5704911
1.5153301 1.05672 1.568378
1.5152099 1.03405 1.5706491
1.50788 1.02525 1.5681829
1.51072 1.0138099 1.571571
1.5058299 1.00424 1.5709159
1.4976 0.99128997 1.569082
1.4998 0.97984904 1.5699279
1.50309 0.96913904 1.571915
1.49094 0.962699 1.5671099
1.5292799 1.0647399 1.566492
1.51934 1.05642 1.5622931
1.51185 1.0348899 1.561983
1.50608 1.02549 1.560468
1.5095 1.01569 1.563432
1.50362 0.97684896 1.5656689
1.50509 0.96792394 1.5657099
1.4941001 0.96249604 1.5611149
1.52662 1.0630001 1.557946
1.5239501 1.0536699 1.5566341
1.51811 1.04405 1.556524
1.51712 1.03348 1.55726
1.5116099 1.02483 1.555918
1.51565 1.01534 1.557043
1.5082401 0.96597201 1.5602969
1.49386 0.96204203 1.5539939
1.5260899 1.05481 1.550742
1.5261799 1.04337 1.5515339
1.5191001 1.03298 1.55155
1.5161999 1.02303 1.550137
1.5179801 1.0145301 1.550349
1.51631 0.963507 1.557307
1.49342 0.96134597 1.547865
1.52373 1.0624501 1.542503
1.53223 1.0520201 1.546219
1.53457 1.04114 1.547083
1.5237801 1.03126 1.545426
1.5239 1.02037 1.546548
1.5190401 1.01353 1.543451
1.5068899 0.95878404 1.548611
1.52772 1.06055 1.536955
1.53896 1.0496601 1.541779
1.54027 1.04015 1.542762
1.5337801 1.03124 1.5416451
1.5239301 1.0209301 1.5384231
1.51916 1.01175 1.5360581
1.53427 1.05855 1.531533
1.54465 1.04712 1.5374249
1.5417399 1.03794 1.53767
1.53342 1.02933 1.5342779
1.5268899 1.0196099 1.531401
1.5210201 1.01133 1.5307981
1.51687 1.00228 1.528012
1.5376101 1.05941 1.524451
1.53844 1.0505 1.52736
1.5389 1.03931 1.528281
1.5347099 1.0273 1.527469
1.5240101 1.01965 1.5235502
1.52334 1.00963 1.524361
1.51136 1.00175 1.5192829
1.51594 0.99141294 1.5208371
1.52983 1.0180401 1.5194451
1.5332 1.00688 1.5221111
1.5196099 0.99955201 1.5166101
1.50213 0.99148005 1.507467
1.52461 0.97878802 1.5194271
1.5305001 1.03002 1.5101311
1.5316499 1.0191101 1.511765
1.52077 1.00905 1.509163
1.5151199 0.99859101 1.5073121
1.50754 0.98994201 1.502763
1.51572 0.979087 1.508631
1.53128 1.0182 1.5040179
1.52719 1.00945 1.504398
1.51799 0.99959397 1.500813
1.5038699 0.990448 1.493414
1.5174401 0.97863001 1.502483
1.51442 0.97081101 1.500662
1.5280401 1.00852 1.497013
1.5142 0.99861503 1.4903259
1.5006599 0.99011999 1.484883
1.51366 0.97833902 1.493525
1.5016999 0.97112197 1.4862061
1.52666 1.00635 1.488414
1.5171001 0.997917 1.4840451
1.5061799 0.99056798 1.480795
1.51263 0.97814798 1.4849609
1.50323 0.96899694 1.479865
1.53174 1.0078601 1.483781
1.5253199 0.99863195 1.4810569
1.5119901 0.98880202 1.475639
1.51529 0.97545701 1.4783291
1.5007001 0.96878099 1.471326
1.53931 1.01748 1.4785221
1.5239799 0.99658096 1.4734131
1.5139799 0.98780406 1.467864
1.5174201 0.97738194 1.4721991
1.50134 0.97007895 1.4644791
1.4891701 0.96402299 1.4580661
1.5248399 0.99613601 1.465885
1.5090801 0.97773802 1.460247
1.4980701 0.96972197 1.455858
1.4809899 0.96572095 1.447121
1.5287499 0.98640198 1.4614731
1.5160699 0.97841203 1.4555831
1.50248 0.97059095 1.450112
1.52165 0.986691 1.4496069
1.51912 0.97612298 1.450174
1.50383 0.971219 1.441432
1.5344901 0.99309099 1.4471921
1.5206599 0.97616994 1.4433099
1.50466 0.971766 1.433828
1.54106 0.99331594 1.442979
1.51711 0.97742599 1.433625
1.51034 0.97155404 1.429722
1.52433 0.97806096 1.428967
1.4230499 0.92736298 1.589231
1.4148599 0.91629303 1.5867101
1.4490401 0.94583505 1.589594
1.4316901 0.936782 1.584429
1.41377 0.92746401 1.5777789
1.40848 0.91668999 1.576399
1.4108599 0.90540701 1.579712
1.5113001 1.07226 1.588877
1.4986501 1.04013 1.5891221
1.4645 0.94332606 1.588659
1.43839 0.92487198 1.5798019
1.39928 0.91894698 1.565516
1.3994299 0.90720701 1.5669761
1.52222 1.08136 1.584832
1.51903 1.0716001 1.585748
1.501 1.0271701 1.584738
1.49349 1.01802 1.5828019
1.49544 1.0066301 1.5851821
1.49338 0.99540901 1.5843649
1.49201 0.98327905 1.585813
1.49371 0.97014397 1.589725
1.4835401 0.96037203 1.5853341
1.48083 0.94809097 1.585542
1.4717799 0.940018 1.5843719
1.4539399 0.92078501 1.5781341
1.42779 0.91460299 1.5689819
1.39259 0.90941 1.556718
1.5180099 1.07094 1.578338
1.50116 1.02837 1.576233
1.4981301 1.01651 1.5783709
1.49871 1.00409 1.579048
1.49598 0.99247003 1.5784241
1.4915199 0.98255503 1.5785071
1.4944999 0.970595 1.5819141
1.47614 0.96412396 1.5752679
1.47147 0.95128196 1.5752569
1.51606 1.07013 1.5693879
1.5058999 1.03872 1.570226
1.5017999 1.0255799 1.569751
1.49975 1.0146199 1.5711571
1.50293 1.00158 1.574008
1.49009 0.99534202 1.568362
1.49266 0.98244596 1.571489
1.4986099 0.96980697 1.576475
1.46377 0.93956202 1.5667391
1.51671 1.06993 1.562003
1.5172701 1.0598 1.564236
1.5041901 1.0118001 1.565213
1.50017 1.00304 1.5656641
1.49519 0.99246299 1.563379
1.49683 0.98160696 1.5657089
1.49491 0.97366303 1.5660291
1.5154201 1.00565 1.5629251
1.4985001 1.00205 1.557027
1.49529 0.99263602 1.556375
1.4961799 0.98210603 1.558202
1.50811 0.96963698 1.563307
1.52247 1.0475399 1.550862
1.50586 0.99888098 1.553377
1.4965601 0.99140704 1.55002
1.5034801 0.978154 1.553719
1.5057601 0.96946096 1.555643
1.52747 1.05181 1.5465131
1.53351 1.0419999 1.54768
1.4987301 0.99044001 1.5439219
1.5032099 0.979177 1.545753
1.5036701 0.97062796 1.5480909
1.53631 1.04803 1.5427029
1.54313 1.03803 1.545356
1.5401 1.0298899 1.5442801
1.5035001 0.98555493 1.538542
1.5059301 0.97683501 1.539485
1.50509 0.97060502 1.541131
1.54388 1.04526 1.538056
1.5466599 1.03522 1.540992
1.5358599 1.02946 1.5357621
1.5325301 1.0229499 1.5357201
1.5156 0.97360301 1.538622
1.508 0.96914804 1.53599
1.5405999 1.04681 1.528602
1.5412601 1.0372 1.531692
1.53793 1.02856 1.529951
1.53601 1.02043 1.5302951
1.52262 0.96493602 1.537699
1.5238299 1.02175 1.5164101
1.53022 1.02904 1.5120821
1.52746 1.01123 1.5122641
1.52311 0.99939698 1.496104
1.5162101 0.99207199 1.486861
1.51977 0.998492 1.4814039
1.51596 0.99080104 1.4788861
1.51235 0.98988801 1.46866
1.50982 0.97931504 1.461342
1.51197 0.96902102 1.4625931
1.51489 0.98539805 1.456026
1.5150399 0.974886 1.458158
1.50457 0.96965599 1.4527451
1.5110899 0.97545999 1.44881
1.5033799 0.96967596 1.445672
1.51297 0.97609103 1.441258
1.5076699 0.96888 1.440781
1.5259801 0.98482597 1.437861
1.51923 0.97550201 1.4363611
1.50817 0.96961898 1.43208
1.4327699 0.969437 1.389532
1.5167799 0.97451204 1.42808
1.5032401 0.971232 1.42145
1.4260499 0.972422 1.3800241
1.42608 0.96386302 1.3812271
1.5187399 0.97563797 1.420894
1.4606 0.97421998 1.3882099
1.43332 0.97276902 1.3762109
1.42319 0.965626 1.373096
1.4181199 0.95714402 1.370934
1.41715 0.94849896 1.370874
1.46224 0.97510695 1.3825369
1.4309399 0.97281897 1.3687201
1.42668 0.96341795 1.3679781
1.41225 0.95757204 1.361622
1.4760801 0.97418296 1.3816501
1.43955 0.971829 1.365802
1.42164 0.964571 1.359422
1.47916 0.97352701 1.376467
1.4322 0.95084 1.5880311
1.4206901 0.94282305 1.584218
1.41845 0.93371397 1.586597
1.51723 1.08779 1.589254
1.51757 1.0764 1.589882
1.4913001 1.0347899 1.588081
1.4529899 0.94557297 1.58793
1.43854 0.938169 1.583913
1.42379 0.93336898 1.5804739
1.5139101 1.07613 1.581372
1.50463 1.02924 1.586087
1.4935499 1.022 1.583582
1.49229 1.0078501 1.585018
1.49186 0.994093 1.5863791
1.4906399 0.98381597 1.588919
1.4886 0.97162199 1.589996
1.47203 0.96293294 1.583745
1.47201 0.95004404 1.5855709
1.4640801 0.94252503 1.5849891
1.5030099 1.0420899 1.5761141
1.49722 1.0317 1.5756149
1.49748 1.0177701 1.578624
1.4903799 1.0095201 1.576014
1.4917101 0.99618798 1.578197
1.4897 0.98235703 1.580817
1.48985 0.96793604 1.5825011
1.46179 0.96619397 1.5718249
1.4733 0.95017099 1.5787261
1.5044399 1.0281501 1.569823
1.4960201 1.0189 1.570334
1.4952699 1.00665 1.5709039
1.4920501 0.99615896 1.5705209
1.4922501 0.98383498 1.572988
1.49151 0.97034204 1.5747701
1.46817 0.96663398 1.5676379
1.4655499 0.95454496 1.568015
1.51677 1.0433999 1.5665851
1.50683 1.0371701 1.5628231
1.4997001 1.01703 1.5632499
1.49777 1.0038301 1.565102
1.49234 0.99330705 1.563526
1.49786 0.97786695 1.5685459
1.4932201 0.96890903 1.568488
1.48067 0.96379304 1.564961
1.45507 0.94408697 1.559791
1.50894 1.03538 1.5573691
1.50386 1.02747 1.556446
1.4986099 1.01694 1.553852
1.4970599 1.0042 1.556743
1.4966701 0.991808 1.5575321
1.4933701 0.98106301 1.5586669
1.4938 0.96908796 1.5619031
1.47489 0.96736097 1.5530969
1.5062 1.02426 1.5494721
1.49905 1.0163701 1.5465209
1.49787 1.0052301 1.5485201
1.49308 0.99538004 1.5491501
1.49878 0.98121595 1.553022
1.48994 0.97171098 1.5514771
1.47264 0.96837503 1.543465
1.5410401 1.06118 1.5430549
1.5106101 1.02002 1.5441871
1.5090899 1.01291 1.544879
1.4944701 1.00765 1.5393469
1.4922501 0.99461603 1.540536
1.5003301 0.97781599 1.547012
1.4860801 0.97192103 1.541568
1.47377 0.967363 1.5361971
1.5337199 1.06417 1.534354
1.54775 1.05117 1.542716
1.5060899 1.01097 1.536849
1.49637 1.0029 1.533049
1.4876 0.99533099 1.530668
1.49541 0.97996104 1.5363611
1.48194 0.972781 1.532415
1.4672301 0.96990502 1.5254401
1.53456 1.06345 1.527752
1.5436901 1.0529 1.5346891
1.50159 1.00032 1.5278461
1.4925799 0.99285203 1.5257061
1.49787 0.97927594 1.529649
1.4849299 0.97287399 1.5257241
1.4636301 0.97115195 1.5165679
1.53922 1.05384 1.5238681
1.5185499 0.99223197 1.5290091
1.49982 0.99116206 1.52197
1.4969299 0.97999603 1.522923
1.48226 0.97316396 1.5181022
1.45727 0.97287399 1.508007
1.55574 1.03687 1.5257541
1.5079401 0.98697305 1.5206039
1.49114 0.971542 1.5166119
1.38292 0.94198304 1.381831
1.38237 0.93293601 1.383453
1.4048899 0.96038496 1.380972
1.395 0.95034897 1.37914
1.38568 0.94186097 1.376947
1.38331 0.93309098 1.3775909
1.49491 0.97441703 1.412093
1.42624 0.977422 1.3789669
1.41246 0.96996599 1.375563
1.40766 0.95864898 1.376568
1.3892399 0.95170999 1.3692801
1.3859301 0.94084001 1.3707221
1.3801301 0.93415701 1.3684551
1.44519 0.982683 1.379508
1.4256799 0.97692597 1.372898
1.41336 0.96825302 1.369787
1.40196 0.95985395 1.3664801
1.3985499 0.95060998 1.365916
1.3891001 0.94135201 1.3646741
1.3824099 0.93381602 1.3630741
1.4556799 0.98208505 1.377074
1.4364901 0.97674698 1.369856
1.4230901 0.969019 1.3658209
1.4065801 0.96100998 1.360916
1.4003 0.94984597 1.361335
1.45425 0.98098701 1.3688949
1.43295 0.97663099 1.3611419
1.41278 0.97330201 1.3528329
1.46104 0.97937304 1.364641
1.44258 0.97570604 1.35806
1.47975 0.97520697 1.3664631
1.48309 0.97610605 1.358878
1.5177799 1.08813 1.5841631
1.49071 1.03166 1.5861681
1.49108 1.01762 1.588724
1.48757 1.0059301 1.589197
1.49894 1.02772 1.5810721
1.49192 1.01736 1.5813861
1.48183 1.0081401 1.578305
1.47935 0.99722201 1.581442
1.48575 0.98283201 1.5871891
1.53601 1.07178 1.577646
1.51442 1.0743099 1.570381
1.4971499 1.02589 1.5740759
1.48928 1.01638 1.5719461
1.4861901 1.00543 1.573051
1.47803 0.99857402 1.5726941
1.5168899 1.07033 1.564851
1.4953901 1.01416 1.5669611
1.4844099 1.00693 1.564483
1.47727 0.99970299 1.563881
1.4924899 1.017 1.5577091
1.49115 1.00379 1.558075
1.48101 0.998469 1.557644
1.49701 1.01359 1.5509681
1.4934 1.0024199 1.550686
1.4866 0.995942 1.5518341
1.49931 1.01138 1.543977
1.4912399 1.00314 1.541742
1.49263 0.99308801 1.546091
1.52354 1.03509 1.5409629
1.49719 1.0106 1.535605
1.48949 1.00352 1.534321
1.49001 0.99444395 1.5362049
1.5361199 1.0173 1.5418969
1.51149 1.01976 1.532214
1.50798 1.0075099 1.532048
1.4939901 1.00179 1.529406
1.49261 0.99290299 1.528681
1.5129601 1.01666 1.526389
1.51041 1.00476 1.525903
1.4997799 0.99847198 1.523782
1.4922099 0.991961 1.5203799
1.50164 0.99537903 1.517158
1.4936501 0.99108803 1.514443
1.50788 0.99129796 1.5144571
1.4997001 0.98732901 1.5120641
1.50688 1.0931 1.5853701
1.51595 1.0713099 1.566915
1.5170399 1.07043 1.5605811
1.5184599 1.05586 1.5546051
1.5269901 1.05918 1.547285
1.5368401 1.05286 1.5442821
1.52842 1.0479 1.5429519
1.52263 1.02916 1.5437939
1.53582 1.04197 1.5397391
1.5259199 1.0363201 1.5366451
1.52387 1.02724 1.5373629
1.54143 1.03512 1.5361
1.5478799 1.02036 1.5403079
1.53219 1.0212101 1.535086
1.53887 1.01687 1.5325251
1.39902 0.90893602 1.585156
1.3994 0.92102897 1.5891409
1.39903 0.89893895 1.574414
1.3962399 0.90706903 1.5763251
1.39963 0.92200994 1.580974
1.4145799 0.94942594 1.5895489
1.4066 0.90251195 1.569468
1.40289 0.911309 1.572072
1.4174 0.93459505 1.5798489
1.43685 0.96342105 1.589608
1.42342 0.97167802 1.5893401
1.4020101 0.898476 1.559486
1.4075999 0.91322404 1.565038
1.43104 0.943865 1.577186
1.45108 0.97206903 1.586979
1.4350799 0.97743303 1.5848191
1.4250301 0.98630899 1.584879
1.42679 1.0031301 1.587791
1.4020101 0.897223 1.550971
1.41441 0.916686 1.5600301
1.4578999 0.96503997 1.581148
1.4570301 0.97586995 1.581723
1.45376 0.98752898 1.5835581
1.43774 0.99470496 1.5812201
1.42407 1.0041001 1.5783761
1.4093 0.90961802 1.549126
1.46663 0.97137904 1.5757941
1.4679201 0.98487198 1.5792971
1.45604 0.99327904 1.5764121
1.43688 0.99877602 1.57269
1.4261 1.008 1.571311
1.4056599 0.90501601 1.539904
1.4722301 0.97179604 1.5677761
1.46921 0.984945 1.5700711
1.4600301 0.99601001 1.569153
1.4437 1.00056 1.566385
1.4298301 1.00676 1.564656
1.4791499 0.96397901 1.560768
1.47746 0.97411698 1.5619071
1.46944 0.98370498 1.560141
1.46167 0.99528903 1.561568
1.45081 1.0035501 1.5610141
1.4868699 0.96894097 1.5565519
1.47938 0.97575897 1.554384
1.4661599 0.98214996 1.550359
1.4670501 0.99768096 1.555383
1.4806 0.96640402 1.546165
1.47481 0.97439498 1.544915
1.4692501 0.98490697 1.5433381
1.4613401 0.99601501 1.5450531
1.47575 0.976201 1.536846
1.4687899 0.98537695 1.535373
1.4650301 0.996593 1.537966
1.48298 0.98151296 1.530972
1.4705901 0.98591501 1.5278909
1.46473 0.99757403 1.5301441
1.4650999 0.97256696 1.5168049
1.4672099 0.98616797 1.5185831
1.45722 0.98087698 1.5083209
1.43521 1.00301 1.4454181
1.43241 0.99915999 1.437381
1.43513 1.00111 1.4310859
1.4397099 1.00553 1.4173551
1.44683 1.00464 1.396862
1.4018899 0.90673798 1.589982
1.39703 0.91573799 1.588356
1.3934101 0.90256 1.576785
1.38871 0.91108203 1.5771741
1.40185 0.93034697 1.585385
1.40397 0.89784503 1.571664
1.38608 0.907637 1.5682611
1.41801 0.94525498 1.5862551
1.39485 0.91081703 1.562737
1.4378101 0.95789301 1.5867529
1.43341 0.98033202 1.5884809
1.42319 0.99000502 1.586429
1.4144599 1.0142701 1.5879761
1.3994501 0.912871 1.558251
1.45388 0.966205 1.5849771
1.4535401 0.97656995 1.58459
1.4450901 0.984541 1.5849631
1.4278799 0.99078906 1.580065
1.4258701 1.0053 1.5836129
1.40325 0.91486394 1.554837
1.45532 0.96722299 1.5770739
1.46319 0.98200202 1.5801041
1.4473599 0.98785895 1.5776089
1.42845 0.99340498 1.5721881
1.42273 1.00371 1.573929
1.46706 0.973198 1.572948
1.46674 0.98315901 1.574165
1.4549299 0.99019301 1.5712351
1.4388601 0.99769801 1.56848
1.4236901 1.00534 1.5657541
1.4707 0.97451103 1.56647
1.46612 0.982566 1.56634
1.45576 0.99115503 1.5626969
1.44964 1.00271 1.564346
1.42494 1.00331 1.55792
1.47475 0.97701401 1.560455
1.4646801 0.98296303 1.557148
1.4572099 0.99235499 1.555056
1.4502499 1.00222 1.556504
1.47575 0.97817802 1.551937
1.4628799 0.98245794 1.5487939
1.45707 0.99112201 1.5471801
1.4821601 0.98064697 1.5459861
1.4650999 0.98239899 1.5413339
1.45742 0.99294698 1.5397869
1.4803901 0.98016703 1.5378439
1.4667 0.98447901 1.532922
1.4619 0.99758303 1.5336599
1.4816099 0.98105597 1.5299671
1.4670199 0.98259497 1.5242889
1.46263 0.99370003 1.5250039
1.4811599 0.98058701 1.5216501
1.46942 0.98517197 1.5177161
1.475 0.97820097 1.51114
1.47431 0.98918605 1.510865
1.4809599 0.981278 1.504028
1.46743 0.98398697 1.500478
1.4807 0.98107398 1.4959869
1.47087 0.98637801 1.4939129
1.4753 0.97926301 1.486977
1.4730201 0.98770404 1.486842
1.46961 0.988626 1.478452
1.46464 0.98744905 1.467507
1.4250799 0.97403997 1.3896811
1.4689599 0.97530198 1.392825
1.45623 0.98038596 1.3917121
1.4442 0.98746598 1.391438
1.4003199 0.90924299 1.588658
1.3932 0.91884303 1.586835
1.4051499 0.902695 1.581965
1.38433 0.90359002 1.5741279
1.38222 0.91394699 1.5742379
1.39446 0.93137199 1.5819641
1.40662 0.95139396 1.5892129
1.3838201 0.90447402 1.5671401
1.38402 0.91579002 1.5686851
1.4043 0.93748003 1.579424
1.42355 0.96043998 1.5878509
1.4149801 0.96835899 1.588069
1.3842599 0.90318197 1.560027
1.40004 0.92109597 1.5686231
1.44918 0.96008795 1.5884311
1.44424 0.96962196 1.5882142
1.43064 0.97793502 1.587042
1.4245 0.98963797 1.58716
1.42316 1.00158 1.587029
1.38713 0.902237 1.552876
1.4297 0.93811303 1.5709399
1.4499201 0.95864898 1.581642
1.4525 0.97166902 1.584029
1.4492799 0.98481101 1.585246
1.42787 0.99104398 1.580458
1.4259501 1.0029 1.581338
1.4191099 1.01229 1.5806781
1.4087501 0.91392303 1.553851
1.43872 0.94067597 1.567735
1.45573 0.960787 1.576375
1.46469 0.978845 1.5818781
1.4599 0.991018 1.5811
1.43936 0.99533302 1.5764591
1.4247301 1.00248 1.5741709
1.4263099 0.925578 1.554986
1.45021 0.94619298 1.56547
1.4703 0.96871698 1.5744231
1.4696499 0.98347503 1.5761441
1.46666 0.99524695 1.576578
1.4469299 0.99845803 1.571233
1.4278901 1.0045201 1.5668991
1.45419 0.93835199 1.560621
1.4555 0.94882202 1.562072
1.4878501 0.97855401 1.573535
1.47156 0.98238403 1.568277
1.4669099 0.99417299 1.569293
1.4576 1.00225 1.568198
1.4692501 0.97146696 1.5583071
1.47101 0.98290604 1.55981
1.4707 0.99535501 1.5625141
1.46263 1.00626 1.5624231
1.48227 0.976753 1.5555481
1.4738001 0.982678 1.553413
1.4659801 0.99238098 1.55196
1.4757401 0.97488099 1.5452369
1.47203 0.98409796 1.5453501
1.46351 0.99236196 1.543692
1.46623 0.97181803 1.534099
1.47358 0.98380899 1.538675
1.4655499 0.99281502 1.5370489
1.4715401 0.98492795 1.5300241
1.46931 0.99695098 1.530443
1.47149 0.98555493 1.5214239
1.46855 0.99419403 1.5218511
1.4742999 0.98803496 1.51459
1.47874 0.99021894 1.508083
1.47489 0.98860002 1.49851
1.4802099 0.98005301 1.473151
1.4545101 0.99261999 1.4252591
1.4330299 0.98409599 1.3937731
1.44608 0.99935997 1.398315
1.46755 0.98679399 1.392617
1.44542 0.98808801 1.389962
1.4483 1.00193 1.3926001
1.44741 0.99894798 1.38535
1.3916299 0.92147398 1.588109
1.3898599 0.93354201 1.589295
1.3900501 0.91128701 1.578799
1.38659 0.92017305 1.5777709
1.38862 0.931449 1.5816721
1.3998599 0.94735903 1.587832
1.38956 0.91114998 1.5715311
1.38394 0.91802102 1.5694361
1.3948801 0.934017 1.5773461
1.41076 0.95547897 1.585779
1.41704 0.96967298 1.5887311
1.38875 0.90855795 1.5635071
1.39991 0.92299104 1.5692981
1.4428799 0.95194799 1.585457
1.4314599 0.97394598 1.5873719
1.42162 0.98169196 1.5855141
1.42816 0.99704599 1.589447
1.4065199 0.91467005 1.56348
1.43673 0.93751001 1.5766439
1.44898 0.95459801 1.5823649
1.4563699 0.96995199 1.587043
1.4414001 0.97705299 1.58333
1.4292301 0.98604894 1.5813049
1.43125 0.99891096 1.5834911
1.4242901 1.00861 1.582576
1.43279 0.92711997 1.567704
1.45593 0.94487399 1.576884
1.45232 0.95469701 1.576951
1.45862 0.96812302 1.581037
1.45382 0.98001599 1.58022
1.4487399 0.992293 1.581059
1.42839 0.99822599 1.575681
1.4519401 0.93319899 1.567587
1.4633701 0.945306 1.5717751
1.46498 0.95899695 1.5749099
1.46312 0.97204 1.576261
1.47367 0.98724294 1.5807949
1.4558501 0.994066 1.5750891
1.4369299 1.00135 1.57099
1.4123501 0.90050906 1.539891
1.46087 0.93318498 1.562596
1.4682201 0.94678706 1.567525
1.48926 0.96749395 1.5784841
1.47952 0.97856796 1.576246
1.4698399 0.98818099 1.5728729
1.46614 0.99856901 1.570876
1.4402901 1.0032901 1.5635251
1.41638 0.89419097 1.535141
1.47504 0.99101698 1.567917
1.46838 0.99928802 1.564149
1.4731799 0.99285299 1.5581329
1.47296 1.00326 1.559119
1.47409 0.99264902 1.54977
1.47083 1.0008301 1.551007
1.46898 0.99088305 1.540477
1.4733599 1.0017099 1.5438299
1.4796699 0.99567199 1.53688
1.47495 0.99379802 1.5261261
1.4740801 0.99331802 1.51776
1.47978 0.99498498 1.5122091
1.4757 0.99327105 1.503206
1.45248 0.98699206 1.4135389
1.43144 0.97820395 1.39583
1.4291099 0.97736603 1.389948
1.44476 0.992531 1.39697
1.43844 0.98031306 1.3861851
1.4357201 0.98865098 1.3872751
1.4586301 0.98765099 1.384711
1.43476 0.98739505 1.3801891
1.4454601 1.0032099 1.3836621
1.45696 0.99694002 1.3793069
1.4421099 1.00256 1.3760431
1.4474699 1.01557 1.3783389
1.45252 1.0068901 1.372721
1.39571 0.91292602 1.586836
1.38597 0.922539 1.58233
1.39358 0.93617702 1.586223
1.38942 0.94582701 1.586337
1.39133 0.90396005 1.5774111
1.38363 0.91115999 1.573416
1.38291 0.92095202 1.5741141
1.38337 0.93108803 1.575245
