# .PCD v0.7 - Point Cloud Data file format
VERSION 0.7
FIELDS x y z
SIZE 4 4 4
TYPE F F F
COUNT 1 1 1
WIDTH 162
HEIGHT 1
VIEWPOINT 0 0 0 1 0 0 0
POINTS 162
DATA ascii
1.4788001 1.1572 2.1142011
1.46139 1.15844 2.094131
1.48063 1.16457 2.108381
1.46242 1.18907 2.090281
1.4608001 1.19793 2.088371
1.42436 1.14853 2.0596011
1.4418401 1.15756 2.071511
1.46543 1.1655899 2.0898709
1.4618801 1.17758 2.085001
1.4633701 1.18938 2.083931
1.46412 1.1974601 2.0845809
1.43645 1.13998 2.063921
1.44199 1.1487401 2.0659509
1.44875 1.1593499 2.068471
1.44985 1.16873 2.0691612
1.4567399 1.17974 2.071811
1.45899 1.1888601 2.0715411
1.46064 1.1969301 2.0736911
1.45567 1.1710601 2.0645211
1.46436 1.18002 2.068871
1.4720199 1.1870999 2.0735509
1.47586 1.17864 2.070631
1.4620199 1.1996399 2.0991709
1.46612 1.20582 2.101671
1.4641401 1.1973701 2.0926211
1.46347 1.2056199 2.0924811
1.44633 1.15221 2.0805809
1.479 1.1560501 2.101651
1.4867301 1.1656899 2.105011
1.4732699 1.18259 2.093081
1.46601 1.19549 2.086751
1.46753 1.20316 2.0873511
1.4334199 1.15495 2.0633912
1.46615 1.15799 2.085361
1.48289 1.1661 2.095551
1.4831799 1.17764 2.0938611
1.4666901 1.19443 2.0806909
1.4816499 1.1989 2.090971
1.4296899 1.14604 2.056211
1.44188 1.15303 2.0626211
1.45785 1.15861 2.072541
1.48491 1.16224 2.0910211
1.49283 1.17088 2.094831
1.41036 1.1673 2.063081
1.42642 1.17623 2.0689309
1.44541 1.18022 2.079931
1.4172301 1.16777 2.0588911
1.43388 1.17419 2.066581
1.43539 1.18442 2.0653009
1.45235 1.1865699 2.0761611
1.40925 1.15763 2.0488911
1.4354601 1.17187 2.060241
1.4428799 1.1807801 2.061811
1.4484 1.1876301 2.0652609
1.42015 1.1523 2.0497611
1.41581 1.16768 2.042341
1.4440601 1.17093 2.0579209
1.4437399 1.18127 2.054141
1.4542799 1.18507 2.0608511
1.4600999 1.1746601 2.0603609
1.3970101 1.16807 2.0566709
1.4413099 1.2085099 2.1070111
1.4297099 1.19911 2.116601
1.4305201 1.2158899 2.1056108
1.44472 1.20999 2.0968609
1.4236301 1.1989601 2.1136811
1.4372799 1.21655 2.094681
1.43855 1.20927 2.0940108
1.4277 1.19936 2.1012712
1.42356 1.2053701 2.096601
1.43273 1.19722 2.0880411
1.41896 1.18783 2.098681
1.4202 1.20207 2.0887508
1.43678 1.1957099 2.076391
1.4319299 1.1874501 2.0809209
1.4363 1.1948 2.0681908
1.43543 1.18613 2.0696609
1.4242101 1.17614 2.078151
1.41225 1.1907099 2.073751
1.42685 1.1837699 2.0661612
1.42993 1.17549 2.065021
1.38543 1.1968399 2.0804811
1.40377 1.18004 2.072171
1.41836 1.17275 2.0643911
1.41664 1.16365 2.0645709
1.41371 1.1711 2.0587111
1.4559399 1.20832 2.0952311
1.4522301 1.20147 2.0980411
1.4559399 1.20749 2.088721
1.45464 1.20113 2.089541
1.45064 1.20667 2.0835509
1.45372 1.1998401 2.080981
1.4447701 1.2053601 2.0775008
1.4473801 1.19856 2.076941
1.4306101 1.19038 2.0887311
1.42873 1.204 2.0796709
1.44134 1.19748 2.0718811
1.4322901 1.18985 2.079361
1.42875 1.19525 2.0708911
1.4266 1.18751 2.072711
1.3936099 1.1919999 2.083921
1.41694 1.18551 2.0701711
1.47737 1.206 2.113061
1.4656301 1.2076499 2.108211
1.4694901 1.21364 2.1085711
1.4667799 1.19823 2.1016111
1.4640601 1.20676 2.1028008
1.47086 1.2120401 2.1033812
1.47763 1.19472 2.0970111
1.46399 1.20525 2.0972309
1.47007 1.21191 2.097111
1.4691 1.18528 2.0894408
1.4663 1.1947399 2.090811
1.46183 1.20502 2.0916109
1.4742301 1.21149 2.0924909
1.46047 1.18543 2.0840108
1.45577 1.19468 2.084311
1.46907 1.1733999 2.0773911
1.4612399 1.18373 2.078021
1.4731599 1.1887699 2.0777111
1.44241 1.16874 2.070751
1.46157 1.17422 2.0722611
1.4632499 1.18293 2.0728409
1.4765401 1.1870301 2.072751
1.4158901 1.1693901 2.0652511
1.4400001 1.17495 2.0666709
1.46044 1.18142 2.0682311
1.43153 1.1655101 2.0613909
1.4702499 1.18097 2.0790009
1.4452001 1.15837 2.0726511
1.4511501 1.16824 2.0736811
1.4611099 1.17531 2.0745912
1.4593101 1.18445 2.0747809
1.4195199 1.16798 2.0678711
1.43214 1.17371 2.068681
1.4475501 1.17839 2.0698111
1.45869 1.1829699 2.0703509
1.4171699 1.16641 2.0627608
1.4261999 1.17346 2.0630012
1.4399699 1.1789299 2.0643311
1.41289 1.16759 2.057081
1.44036 1.16737 2.057811
1.4294299 1.16093 2.0524609
1.39117 1.22489 2.125701
1.38756 1.2255599 2.122211
1.3979 1.21401 2.1121709
1.39457 1.223 2.1102011
1.4077201 1.2101101 2.0975909
1.41322 1.19841 2.090461
1.4009801 1.21957 2.097131
1.4129 1.20621 2.0854111
1.4187601 1.19293 2.0773308
1.40134 1.19014 2.088341
1.42075 1.21145 2.0757511
1.4254601 1.199 2.0680208
1.42037 1.1896601 2.067291
1.4055001 1.18497 2.075901
1.41562 1.1903399 2.0628409
1.4016299 1.18385 2.0690711
1.39082 1.18735 2.066781
1.38916 1.17425 2.0559111
1.39239 1.16968 2.0426011
