# .PCD v0.7 - Point Cloud Data file format
VERSION 0.7
FIELDS x y z
SIZE 4 4 4
TYPE F F F
COUNT 1 1 1
WIDTH 625
HEIGHT 1
VIEWPOINT 0 0 0 1 0 0 0
POINTS 625
DATA ascii
1.3075399 1.37761 2.279181
1.31787 1.3610201 2.280081
1.3022799 1.37009 2.2657809
1.2959399 1.37757 2.2598209
1.32651 1.35051 2.2801011
1.3075399 1.36104 2.2617211
1.3013 1.37095 2.2557809
1.30735 1.37825 2.2629311
1.32973 1.34021 2.2747211
1.3183 1.3510499 2.262171
1.31081 1.3619901 2.2537811
1.3040199 1.37115 2.2474511
1.30362 1.37806 2.249531
1.32849 1.34034 2.2617309
1.31813 1.35226 2.2516711
1.31476 1.3613601 2.2480412
1.31647 1.3703101 2.2492309
1.31159 1.37774 2.2464912
1.33753 1.3403701 2.262001
1.3342301 1.34995 2.2592309
1.32043 1.3612399 2.2457011
1.3216901 1.37129 2.2457311
1.3195 1.37806 2.2443411
1.31829 1.47377 2.3073411
1.32403 1.4663901 2.304451
1.31317 1.4728301 2.3015311
1.31822 1.4653599 2.2987311
1.31681 1.45635 2.303031
1.31468 1.4730499 2.289381
1.3148199 1.4644001 2.290751
1.3164101 1.4562199 2.2914109
1.31315 1.47271 2.280071
1.3115401 1.46307 2.282371
1.3092101 1.45302 2.285841
1.3059399 1.4707299 2.2749109
1.3111399 1.4623599 2.270071
1.30645 1.4505401 2.276351
1.3057201 1.47021 2.2632411
1.3096001 1.46207 2.2617712
1.31064 1.4506799 2.261991
1.30476 1.43607 2.2680612
1.29855 1.46864 2.256691
1.3036301 1.46026 2.256901
1.3025501 1.44795 2.2567911
1.3050301 1.4348301 2.2579911
1.2991999 1.41873 2.2636211
1.29557 1.4030099 2.2669311
1.28871 1.46584 2.252651
1.29614 1.4584 2.251251
1.29361 1.44607 2.252831
1.2987801 1.4342999 2.251931
1.30542 1.4214101 2.249181
1.30799 1.40713 2.2501211
1.2999899 1.39022 2.2574711
1.2992301 1.3736999 2.260061
1.28338 1.46356 2.247051
1.28877 1.4550999 2.2454612
1.28965 1.4415801 2.2465711
1.30037 1.43151 2.241781
1.3059399 1.4209599 2.238081
1.30654 1.4074 2.2403212
1.3139501 1.3960299 2.239001
1.3098199 1.3797799 2.243171
1.3119701 1.36552 2.245471
1.26425 1.44795 2.2527812
1.27636 1.43916 2.245151
1.2947999 1.42974 2.2352509
1.30311 1.41751 2.231051
1.3018899 1.4045399 2.2337711
1.3021001 1.3911301 2.2360611
1.30521 1.37672 2.2362711
1.3084301 1.36572 2.2384009
1.3071001 1.35153 2.2418311
1.31533 1.3402699 2.2353311
1.2662001 1.4360001 2.241251
1.27482 1.42619 2.2379711
1.2983201 1.41896 2.225791
1.29817 1.4039501 2.2268109
1.3049001 1.39186 2.2241809
1.30575 1.37806 2.2255509
1.30413 1.36287 2.2315011
1.3133399 1.3506501 2.2255709
1.32142 1.34017 2.221911
1.32173 1.3271401 2.2227609
1.2490799 1.43097 2.2411311
1.25975 1.42344 2.237721
1.26333 1.41062 2.2382009
1.27616 1.39809 2.233531
1.2855099 1.38577 2.2299609
1.28819 1.3701199 2.2289109
1.29979 1.36002 2.223511
1.31425 1.35129 2.2151511
1.3128999 1.3370301 2.2183809
1.31599 1.3241701 2.218981
1.3273599 1.3143201 2.212481
1.2452101 1.4296001 2.235451
1.24868 1.4213201 2.235441
1.2843201 1.35381 2.2255609
1.30128 1.3469 2.215651
1.3096001 1.3351899 2.209831
1.31644 1.32381 2.2094212
1.29855 1.34412 2.2090609
1.29355 1.32819 2.212131
1.3103 1.32048 2.202821
1.3069201 1.31873 2.1963511
1.3067999 1.30511 2.1977608
1.2950599 1.3112199 2.196141
1.30004 1.30045 2.1923709
1.2923501 1.28478 2.1891711
1.3093899 1.45495 2.3024812
1.29536 1.45377 2.2959311
1.29105 1.45961 2.294801
1.2859501 1.45241 2.289001
1.27984 1.45918 2.2880411
1.30257 1.4673899 2.292841
1.28433 1.44296 2.282501
1.2817 1.45073 2.2833211
1.2840101 1.45869 2.2840011
1.2749 1.46522 2.282351
1.29843 1.42321 2.277961
1.28704 1.43199 2.277271
1.27639 1.4403701 2.275681
1.28067 1.45033 2.2782111
1.27309 1.45862 2.2762411
1.2696099 1.46526 2.2758911
1.3037399 1.4145799 2.2738612
1.2888401 1.4231399 2.2726312
1.2736499 1.4311 2.270761
1.27463 1.43901 2.2702911
1.27247 1.4492199 2.2705009
1.27123 1.4583299 2.270601
1.2727101 1.4655 2.270771
1.31938 1.3940401 2.2701211
1.30202 1.4034899 2.267911
1.31196 1.4132299 2.270751
1.28707 1.4204201 2.2669909
1.2808299 1.43032 2.2666709
1.2761799 1.43979 2.2656109
1.27091 1.4484801 2.2647212
1.27562 1.4584801 2.266351
1.27946 1.4672301 2.266331
1.3127699 1.36404 2.262831
1.29887 1.3736099 2.2610209
1.3087399 1.38422 2.264071
1.3067 1.39302 2.264071
1.3008 1.40165 2.262821
1.30787 1.41259 2.264641
1.28696 1.4222301 2.261961
1.27854 1.43128 2.2612209
1.27793 1.44007 2.2613511
1.28602 1.45181 2.2636909
1.28991 1.4620399 2.2644911
1.29811 1.47007 2.2657111
1.2965699 1.47598 2.2654009
1.29397 1.36444 2.2557809
1.29976 1.37402 2.2569311
1.30398 1.3832201 2.259011
1.30004 1.3924401 2.257951
1.31199 1.40302 2.2594309
1.32819 1.4136 2.2620411
1.30462 1.4214 2.2599511
1.2993201 1.43036 2.260071
1.28905 1.36147 2.2502611
1.29015 1.3719701 2.2500908
1.29608 1.38255 2.2523911
1.30136 1.39272 2.2524612
1.32603 1.40391 2.2557211
1.35209 1.4130299 2.2602911
1.31076 1.42187 2.2571812
1.2891099 1.3524699 2.2446411
1.28827 1.3629899 2.2448912
1.28771 1.3713601 2.244031
1.2933099 1.3816099 2.245831
1.31415 1.3934801 2.248831
1.33632 1.4036701 2.251971
1.34631 1.4113901 2.254621
1.2891901 1.34258 2.239341
1.2958901 1.35189 2.239671
1.2915 1.3622099 2.2399511
1.2999201 1.3727001 2.2413511
1.3033501 1.3830099 2.2425811
1.32498 1.39496 2.246181
1.33735 1.4036701 2.248301
1.33077 1.40991 2.2478011
1.3008901 1.34295 2.2357709
1.3071001 1.3531799 2.237201
1.3205 1.36444 2.2401111
1.31445 1.37369 2.2397211
1.2904601 1.33243 2.2294409
1.3161399 1.34313 2.2339911
1.30248 1.4511399 2.295161
1.29756 1.4573399 2.2945511
1.3107201 1.41079 2.290741
1.3017399 1.45038 2.2903709
1.30586 1.4576199 2.2919309
1.3008 1.41144 2.2850709
1.2938499 1.4181501 2.2833109
1.31181 1.4336301 2.2871609
1.3032601 1.44127 2.2859712
1.2990299 1.4487399 2.2846911
1.303 1.45824 2.286341
1.32156 1.4658999 2.289741
1.31538 1.47372 2.2870209
1.2769799 1.41179 2.275841
1.2676001 1.41996 2.274411
1.26937 1.42769 2.274471
1.28714 1.43919 2.2780311
1.2933 1.44801 2.278501
1.30042 1.4577699 2.280021
1.31179 1.4670399 2.2829909
1.3050301 1.4745799 2.280401
1.30422 1.3922501 2.274081
1.2905 1.40114 2.272361
1.27649 1.41026 2.270381
1.2719001 1.41977 2.2703109
1.27463 1.42967 2.270421
1.29375 1.4395399 2.2736111
1.30067 1.44933 2.2753708
1.2996899 1.4576801 2.2749209
1.30989 1.46717 2.277401
1.29168 1.47506 2.274081
1.2863801 1.39236 2.2662311
1.27163 1.40291 2.2645609
1.2702301 1.41188 2.2650111
1.2721701 1.42057 2.2648611
1.2784801 1.4296499 2.2656012
1.30116 1.4375 2.269861
1.30042 1.44865 2.2711611
1.31972 1.45787 2.274821
1.3085899 1.4749899 2.273531
1.3141099 1.36869 2.2643909
1.29082 1.3809301 2.261421
1.2849699 1.3901601 2.260741
1.27818 1.40047 2.259891
1.2734101 1.41105 2.260421
1.27619 1.41995 2.2601111
1.28845 1.4277099 2.262351
1.2901601 1.36045 2.2564111
1.29124 1.37203 2.2566111
1.2839199 1.38263 2.2558711
1.2804101 1.39177 2.255491
1.28742 1.4001601 2.2555511
1.2815199 1.41 2.2561011
1.29484 1.4176199 2.2575309
1.28666 1.3608 2.250901
1.2907001 1.36982 2.2510309
1.28833 1.3808 2.2510409
1.28385 1.3911 2.250891
1.29514 1.3996201 2.2511311
1.2963699 1.4087199 2.2526009
1.3208901 1.41448 2.255101
1.2902299 1.35039 2.2453909
1.29015 1.3607299 2.246181
1.28476 1.37049 2.244951
1.29322 1.37916 2.2456908
1.29479 1.39034 2.246701
1.29931 1.39934 2.247021
1.30261 1.40763 2.247561
1.33056 1.41338 2.2506411
1.29431 1.34866 2.2406411
1.2970799 1.35795 2.2413409
1.29219 1.36921 2.2411511
1.29995 1.37912 2.2417011
1.2976401 1.3895199 2.2417011
1.3018899 1.39917 2.2429309
1.31153 1.4074401 2.2436309
1.3389599 1.4129201 2.2473311
1.30485 1.3482201 2.237191
1.3079201 1.3579601 2.238461
1.31946 1.3674201 2.2408309
1.31662 1.38809 2.2404211
1.30811 1.39877 2.239491
1.3211999 1.40683 2.2411208
1.2983501 1.33943 2.2313612
1.3242199 1.3456799 2.2354009
1.3225101 1.3362601 2.230711
1.30593 1.4015499 2.299691
1.32964 1.4493899 2.306601
1.31479 1.45767 2.3018808
1.30215 1.4027901 2.294831
1.3049201 1.45336 2.2958109
1.2894901 1.46146 2.2912209
1.3004401 1.4661701 2.293551
1.27722 1.40802 2.284981
1.3006301 1.40979 2.2898011
1.2884599 1.45377 2.286411
1.28377 1.46163 2.2848711
1.28091 1.4689101 2.284481
1.2748799 1.4073399 2.278981
1.27246 1.4155201 2.2789211
1.27307 1.4247 2.278501
1.2875199 1.43268 2.280431
1.2775 1.44447 2.278681
1.2771 1.45443 2.2787311
1.2764601 1.4634399 2.278441
1.27616 1.4706199 2.2777209
1.28959 1.3954201 2.2759211
1.28927 1.4025999 2.276041
1.2632099 1.41567 2.2717509
1.2710099 1.42457 2.272891
1.2726101 1.43488 2.2736709
1.2729599 1.44548 2.2725708
1.27446 1.4559801 2.2729211
1.2712899 1.4650799 2.272001
1.26905 1.4717799 2.2713311
1.2977901 1.39368 2.2731109
1.2760501 1.4051801 2.2685511
1.26494 1.41748 2.266721
1.2673 1.4258599 2.2670209
1.27228 1.43424 2.2678611
1.28011 1.4432499 2.267791
1.27702 1.45301 2.268291
1.2768199 1.4622 2.2680311
1.27291 1.47067 2.267261
1.30933 1.38072 2.2681811
1.2854899 1.3937 2.2650309
1.28144 1.40247 2.263731
1.27536 1.41328 2.2628911
1.27064 1.42496 2.262341
1.2811301 1.43371 2.263371
1.28649 1.44182 2.263581
1.2828599 1.45196 2.2642012
1.28114 1.4625599 2.2646511
1.28897 1.4689 2.2659011
1.3167 1.3540199 2.2641211
1.2935201 1.37006 2.2598312
1.28565 1.3834399 2.2596509
1.2862899 1.39274 2.2598209
1.27662 1.4043201 2.2577009
1.27473 1.41531 2.256901
1.27844 1.42562 2.257751
1.30258 1.43136 2.261781
1.31582 1.4371699 2.2632911
1.33189 1.4406799 2.264581
1.29354 1.3610899 2.2555811
1.28742 1.37378 2.254761
1.28668 1.38392 2.2550809
1.27947 1.3944701 2.253191
1.28149 1.40461 2.252701
1.26615 1.41623 2.250421
1.27791 1.4228799 2.252161
1.30662 1.42887 2.256851
1.33666 1.43248 2.261261
1.29124 1.36051 2.249891
1.2903 1.37041 2.2497709
1.28628 1.3828999 2.248981
1.2786499 1.39531 2.2478011
1.2875199 1.40257 2.2478011
1.2815801 1.41338 2.2480111
1.29079 1.4215 2.2486908
1.31815 1.42588 2.2526112
1.2983501 1.34964 2.2460711
1.28795 1.36248 2.2447212
1.28908 1.3718201 2.2441211
1.2885499 1.3824 2.242991
1.2870799 1.39257 2.2438009
1.2907201 1.40084 2.243011
1.2873801 1.4117999 2.2428312
1.29479 1.42047 2.2434411
1.3195 1.4236701 2.246891
1.30393 1.3480901 2.241081
1.29153 1.3611901 2.2402909
1.2933099 1.37106 2.2398911
1.30498 1.3805701 2.240911
1.29198 1.39191 2.2392912
1.28914 1.4024 2.238121
1.2949001 1.41149 2.2385111
1.31022 1.41699 2.240551
1.30916 1.34638 2.2378111
1.3192799 1.3540699 2.2397711
1.30338 1.39143 2.236721
1.31364 1.39979 2.2374811
1.3157001 1.4085001 2.237371
1.3088601 1.41673 2.2362411
1.33093 1.4467701 2.3058212
1.32575 1.45367 2.3042212
1.3020799 1.40148 2.2936509
1.30538 1.45287 2.294951
1.31172 1.45713 2.2954512
1.28067 1.4077901 2.2857111
1.29697 1.40982 2.288321
1.30198 1.4522001 2.288491
1.2920799 1.46153 2.285871
1.28948 1.4684399 2.2854209
1.27087 1.4111199 2.2789509
1.27074 1.4174299 2.2794611
1.2740899 1.4261301 2.278291
1.2907001 1.4344901 2.2801712
1.29263 1.4450901 2.2813711
1.2854401 1.45566 2.279891
1.2824299 1.46433 2.2787511
1.27538 1.4086599 2.2739511
1.26527 1.4201199 2.272871
1.2635701 1.4296601 2.2717509
1.2838401 1.43397 2.2741909
1.2911099 1.44452 2.2757211
1.28149 1.45784 2.273371
1.27968 1.4662199 2.272011
1.2936901 1.3923301 2.270951
1.2778801 1.40528 2.268621
1.26948 1.41699 2.267801
1.27189 1.4267501 2.2680809
1.27808 1.43493 2.267591
1.28923 1.4425 2.2691412
1.2908701 1.4535099 2.269721
1.28273 1.4650501 2.2680008
1.2791101 1.4726601 2.267051
1.3002299 1.3806701 2.2670109
1.2830499 1.3943801 2.2643311
1.27036 1.4084599 2.262661
1.27082 1.4183501 2.2629609
1.27556 1.42645 2.262691
1.28773 1.4333299 2.2638311
1.29707 1.43988 2.264811
1.29418 1.44995 2.265121
1.29899 1.45946 2.266691
1.2988499 1.46759 2.2666509
1.28642 1.38351 2.2600012
1.28819 1.3907499 2.259871
1.2757499 1.40446 2.257791
1.2713701 1.41722 2.257241
1.2823 1.42487 2.258101
1.3006799 1.4296899 2.260601
1.3214999 1.4329699 2.2643211
1.29668 1.3703301 2.2557909
1.28913 1.38226 2.255491
1.2846899 1.3934599 2.2536211
1.2792801 1.40627 2.2529111
1.2691101 1.41931 2.2514009
1.2946 1.42119 2.2545512
1.30942 1.4260401 2.2570109
1.3121201 1.35331 2.253701
1.3019 1.3658 2.251121
1.2913201 1.3808999 2.250051
1.28784 1.39262 2.2484312
1.28328 1.40373 2.247761
1.2748899 1.41655 2.2469411
1.29854 1.41828 2.2493711
1.30775 1.35246 2.248311
1.30976 1.3617799 2.2476809
1.31256 1.3714399 2.248421
1.2895199 1.3909 2.2445309
1.2900101 1.4007001 2.2440109
1.2841001 1.41267 2.2426112
1.30013 1.41636 2.243701
1.29494 1.35448 2.240871
1.32657 1.3588201 2.2468309
1.29026 1.4025501 2.240021
1.2878101 1.41278 2.238591
1.3060499 1.4148101 2.2404511
1.29967 1.3444501 2.2371812
1.3100901 1.34907 2.2387609
1.24236 1.36134 2.280431
1.23251 1.36588 2.2745309
1.23658 1.3600501 2.264221
1.24867 1.3531799 2.2611811
1.25462 1.3500999 2.2562511
1.2663701 1.3454601 2.2520111
1.2471399 1.3610699 2.2494509
1.27492 1.34253 2.2462811
1.25069 1.35985 2.2436912
1.26977 1.3516999 2.2400811
1.27625 1.3477901 2.2355509
1.25351 1.36577 2.2329409
1.2963699 1.3365101 2.2324209
1.3116001 1.4371001 2.263521
1.29261 1.4564999 2.2587409
1.3111999 1.43776 2.258621
1.3016701 1.4307001 2.2583611
1.29144 1.45893 2.2520111
1.29758 1.44412 2.2531309
1.29694 1.43082 2.2522411
1.3029 1.41644 2.2511709
1.2890601 1.4619401 2.245801
1.2888299 1.4507 2.2462509
1.29993 1.43116 2.245651
1.29624 1.41843 2.245271
1.3007201 1.40257 2.2436609
1.29554 1.4576401 2.240391
1.2918299 1.44469 2.239311
1.2990899 1.42651 2.2382212
1.30151 1.4120799 2.238101
1.2984101 1.40005 2.236681
1.29408 1.3896899 2.237021
1.2986901 1.37217 2.2355509
1.2907001 1.35961 2.235111
1.28354 1.3502201 2.2356811
1.29624 1.4266601 2.230531
1.2978901 1.41265 2.2307911
1.2899201 1.4027001 2.2305911
1.29956 1.38508 2.230401
1.29919 1.36938 2.229671
1.3052499 1.35355 2.229161
1.3037801 1.33959 2.2295411
1.2846299 1.42934 2.223181
1.3046601 1.4098599 2.2227209
1.30075 1.39711 2.223331
1.30774 1.37823 2.2229209
1.30802 1.3641901 2.223151
1.30881 1.35066 2.2225509
1.31329 1.33346 2.2216511
1.2999099 1.4099499 2.2160211
1.3027999 1.39662 2.215451
1.30416 1.3826801 2.215951
1.31159 1.3645101 2.2157409
1.32227 1.34358 2.2150412
1.32038 1.33087 2.2149711
1.3175999 1.3195 2.2148011
1.2965 1.39825 2.2095912
1.30907 1.3798801 2.2092609
1.31358 1.36385 2.209341
1.3211501 1.3280499 2.2092609
1.31172 1.3178101 2.2079809
1.32153 1.3631101 2.204051
1.3025 1.3220199 2.203141
1.3202001 1.38762 2.242991
1.30059 1.3843601 2.2441311
1.2899699 1.3755499 2.244031
1.30375 1.41888 2.2374711
1.3120599 1.4035699 2.2376711
1.3037 1.3946099 2.2387609
1.29368 1.3855499 2.2394009
1.29704 1.37126 2.2382309
1.2927901 1.35895 2.2378111
1.2967501 1.4118401 2.2322712
1.3011099 1.39826 2.2325411
1.2991999 1.38386 2.2324111
1.30259 1.36625 2.2312009
1.3061501 1.34777 2.2306311
1.30388 1.39395 2.224741
1.3156301 1.37325 2.2242112
1.31045 1.36041 2.2228611
1.3046401 1.3485 2.223501
1.30652 1.33293 2.223881
1.3119701 1.3878399 2.216671
1.3119701 1.37611 2.2167411
1.32184 1.35601 2.215291
1.31224 1.3439599 2.2162108
1.30927 1.32963 2.2161012
1.30322 1.3913499 2.2113211
1.3247399 1.3689799 2.2107511
1.30856 1.34539 2.2093511
1.31248 1.3284199 2.2085612
1.31468 1.33876 2.2032611
1.3078599 1.32953 2.2026811
1.3169099 1.31049 2.2014709
1.32199 1.34789 2.250001
1.3090199 1.35232 2.2441709
1.2866701 1.35278 2.229481
1.28203 1.36637 2.2327111
1.2818899 1.38192 2.2402811
1.27886 1.39397 2.2439709
1.27131 1.40192 2.2418711
1.27417 1.4162899 2.250041
1.3521401 1.33845 2.2545409
1.3401401 1.3463401 2.252351
1.3244001 1.3509899 2.2459409
1.29825 1.34786 2.2279809
1.28624 1.3522999 2.2208509
1.27732 1.35997 2.218641
1.27643 1.3747799 2.2253411
1.27659 1.39088 2.2330608
1.27467 1.40413 2.2362711
1.2746199 1.4185201 2.2426112
1.29041 1.45123 2.264591
1.344 1.32961 2.2380111
1.3528501 1.35035 2.253511
1.34293 1.35648 2.2515709
1.29564 1.34797 2.2171111
1.2861999 1.35507 2.2131312
1.2856799 1.3697 2.219161
1.28385 1.38293 2.224581
1.2898101 1.4013499 2.2355912
1.2876401 1.4161201 2.240211
1.28136 1.4274299 2.2419212
1.28097 1.4408901 2.2480309
1.2929 1.4644501 2.2644012
1.2914 1.47646 2.267091
1.35338 1.33552 2.240041
1.29459 1.34769 2.2079308
1.29219 1.3569299 2.210161
1.28513 1.3660899 2.208931
1.29081 1.3870599 2.2206011
1.29951 1.40848 2.2355509
1.30291 1.42645 2.246511
1.29758 1.43753 2.249011
1.28804 1.4473399 2.247731
1.2936301 1.4688901 2.2583511
1.28581 1.47317 2.2547109
1.3109 1.39245 2.227051
1.31329 1.40477 2.234231
1.30682 1.4810801 2.2644811
1.2522 1.3300101 2.2488711
1.2593399 1.3349299 2.247561
1.2686 1.34084 2.2476609
1.27764 1.3342 2.231441
1.28784 1.32647 2.2231011
1.28548 1.33778 2.2248309
1.29202 1.30617 2.2069409
1.29398 1.3189501 2.214011
1.2893201 1.3292799 2.214221
1.28294 1.3381701 2.2123411
1.2968601 1.35867 2.229171
1.32407 1.39503 2.2610509
1.2956599 1.2949201 2.193481
1.29879 1.30901 2.2035711
1.29584 1.31996 2.205261
1.28991 1.3302901 2.2059109
1.29468 1.3475101 2.2161911
1.31147 1.3711301 2.235121
1.31457 1.3858399 2.2433109
1.3246499 1.40479 2.2585111
1.32442 1.41377 2.2620211
1.2993 1.28144 2.1823709
1.2954401 1.2914701 2.1834509
1.3049001 1.31108 2.1989911
1.3133299 1.32881 2.212631
1.3277 1.37235 2.239521
1.33123 1.38378 2.246351
1.32249 1.3895199 2.242681
1.3179401 1.3989301 2.2445409
1.30716 1.28468 2.1805711
1.30445 1.29693 2.1845911
1.32207 1.3230799 2.208981
1.3333099 1.40686 2.2506309
