# .PCD v0.7 - Point Cloud Data file format
VERSION 0.7
FIELDS x y z
SIZE 4 4 4
TYPE F F F
COUNT 1 1 1
WIDTH 403
HEIGHT 1
VIEWPOINT 0 0 0 1 0 0 0
POINTS 403
DATA ascii
1.5103101 1.03871 0.98806882
1.5336701 1.04331 0.98776513
1.5395501 1.03703 0.98815978
1.51162 1.0398201 0.98022306
1.5339999 1.0428901 0.98120314
1.54019 1.03707 0.98136503
1.5081301 1.03863 0.97280824
1.52557 1.03915 0.97368324
1.5359199 1.03496 0.97400528
1.50949 1.0391999 0.9657234
1.53017 1.04098 0.96688956
1.5430901 1.0390201 0.9674772
1.50804 1.03901 0.95874655
1.5277901 1.04119 0.95980871
1.5368299 1.0364499 0.95976549
1.5104201 1.04004 0.95234138
1.52961 1.04133 0.95266032
1.5384899 1.03667 0.95206666
1.51425 1.04124 0.94463438
1.5321699 1.04155 0.94563234
1.5383099 1.0359401 0.94581717
1.5100501 1.0404201 0.93689036
1.5278 1.04066 0.93791723
1.5337199 1.03405 0.93929648
1.5103999 1.0513201 0.92914271
1.51289 1.04281 0.92984039
1.53263 1.04377 0.93102568
1.53179 1.03373 0.93184882
1.50708 1.0405101 0.92310858
1.5351 1.04671 0.92499769
1.53399 1.0352 0.92408311
1.5142999 1.0433201 0.91716689
1.5344599 1.04443 0.91731662
1.53466 1.03483 0.91717172
1.51648 1.043 0.90961128
1.53713 1.04619 0.9098565
1.53985 1.0383999 0.91103196
1.5172501 1.04363 0.90183288
1.54145 1.04901 0.90427637
1.5407001 1.03978 0.90360731
1.51802 1.04378 0.89425242
1.5397 1.04787 0.89792097
1.53616 1.0363899 0.89537382
1.51808 1.04318 0.88735384
1.5366901 1.04527 0.88993192
1.53125 1.03293 0.88817054
1.5396299 1.0466501 0.88291287
1.5271201 1.0307499 0.88128471
1.53448 1.04228 0.87465209
1.53301 1.0336 0.87403059
1.53162 1.0401 0.86702573
1.52729 1.02997 0.86609298
1.53405 1.04182 0.85958701
1.52956 1.03111 0.85959405
1.5443 1.0488 0.854316
1.54108 1.039 0.85353106
1.51229 1.0413899 0.84166408
1.53923 1.0475299 0.84625703
1.54614 1.04274 0.84748101
1.5446299 1.0422599 0.84044403
1.51694 1.0114499 0.98985863
1.52188 1.04594 0.98743713
1.53608 1.04259 0.98729247
1.5376101 1.03228 0.98780799
1.51713 1.01176 0.98547906
1.52047 1.0461299 0.98076648
1.538 1.0454201 0.98146731
1.53865 1.03407 0.98136663
1.5198801 1.0138201 0.98122078
1.52194 1.04623 0.97401804
1.53948 1.0447299 0.97491974
1.5480901 1.03952 0.97490579
1.5236501 1.01656 0.97654283
1.52183 1.04679 0.96669692
1.5372 1.0451699 0.96860391
1.54763 1.04054 0.96792078
1.5160099 1.04426 0.96013498
1.54153 1.0476899 0.96215701
1.5442599 1.03803 0.96053523
1.5315801 1.02154 0.95867163
1.5209199 1.0463201 0.95473343
1.5419201 1.0465 0.95508134
1.5427901 1.03548 0.95376951
1.5248599 1.01666 0.95200592
1.5345399 1.05217 0.94912833
1.5381399 1.0443699 0.94753891
1.54619 1.0382299 0.94800621
1.52168 1.01518 0.94509447
1.5321001 1.05125 0.94175673
1.53379 1.04333 0.94036049
1.5422599 1.03641 0.94125777
1.5227699 1.01583 0.93768525
1.5286099 1.0498 0.93412286
1.53842 1.0443599 0.93501282
1.5397501 1.0336699 0.9335196
1.5244 1.01613 0.93163872
1.5284599 1.0501699 0.92722893
1.5388 1.0453 0.9281314
1.54333 1.0363801 0.92659521
1.5292 1.01917 0.92593104
1.5292799 1.0502501 0.92056775
1.54039 1.0455101 0.92146975
1.54748 1.0389199 0.92067665
1.52979 1.02047 0.91868711
1.52491 1.0483201 0.91301709
1.5441201 1.04793 0.91491503
1.5413201 1.03537 0.9144491
1.5288299 1.0205799 0.9122107
1.5277699 1.0493599 0.90644014
1.5458599 1.0493599 0.9085151
1.54521 1.03931 0.90836465
1.53102 1.05123 0.89935029
1.54002 1.04667 0.90129071
1.5439301 1.03978 0.90107501
1.52536 1.04873 0.89196241
1.5434899 1.04968 0.89516813
1.54681 1.04255 0.89468646
1.52354 1.04687 0.8859356
1.5455499 1.0500599 0.88916063
1.5454201 1.04159 0.88695318
1.54618 1.04881 0.882415
1.5427499 1.03888 0.87938273
1.53655 1.0427101 0.8729471
1.5330299 1.03382 0.87182146
1.53898 1.04365 0.86573797
1.53519 1.03476 0.86614001
1.54291 1.04684 0.85918999
1.5424899 1.03908 0.86028403
1.5494701 1.0510601 0.85345399
1.55337 1.0455 0.854442
1.53311 1.05231 0.84490907
1.5513901 1.0527999 0.84840304
1.55435 1.0467501 0.84728402
1.5430599 1.0495601 0.84021699
1.5324299 1.0415599 0.98650271
1.54124 1.03657 0.98584145
1.52614 1.02226 0.98355937
1.53625 1.0424199 0.97939521
1.53894 1.03486 0.9791494
1.5196099 1.0192701 0.97752512
1.5348599 1.04294 0.97288567
1.54194 1.03791 0.97283983
1.52844 1.0239199 0.97258002
1.5377901 1.04416 0.96705025
1.5492901 1.04125 0.96694094
1.5269001 1.02485 0.96599221
1.54396 1.0461 0.96074128
1.5480701 1.04038 0.96146828
1.52168 1.02104 0.9546752
1.5383 1.04418 0.95383489
1.54198 1.03768 0.95329398
1.52711 1.02349 0.95077235
1.5423501 1.0462999 0.94813418
1.54261 1.0383899 0.94667768
1.52465 1.0226101 0.9449175
1.5219901 1.04951 0.93717873
1.5351 1.0443699 0.9399929
1.53554 1.03456 0.9398551
1.51991 1.0200599 0.93821245
1.5131199 1.04687 0.93065834
1.5359 1.04723 0.93403822
1.53756 1.03737 0.9334963
1.52309 1.022 0.93240434
1.50879 1.0460399 0.92398161
1.53099 1.04485 0.92716211
1.54239 1.0389299 0.92767853
1.5229499 1.0227101 0.92517257
1.50472 1.04502 0.91754377
1.5313201 1.04635 0.92040426
1.53939 1.0379901 0.92089331
1.5213499 1.02175 0.91828865
1.51143 1.04712 0.91193438
1.53063 1.0440201 0.91372347
1.5420799 1.0384201 0.91459471
1.52034 1.02143 0.91153884
1.50657 1.04564 0.90471083
1.5258 1.04407 0.90665603
1.5394901 1.03821 0.90778995
1.5212101 1.02165 0.90499997
1.5072501 1.0457 0.89812434
1.53148 1.045 0.90082085
1.5469501 1.04176 0.90241694
1.5219001 1.02253 0.89861983
1.5063001 1.04589 0.89136094
1.53021 1.04589 0.89415681
1.5432401 1.0404 0.89584178
1.5228701 1.0235701 0.89245003
1.5091799 1.0465699 0.88507563
1.5413499 1.04792 0.88935119
1.5463699 1.04108 0.89027405
1.51177 1.04618 0.87868845
1.53768 1.04813 0.882222
1.5451801 1.04257 0.88376099
1.5346401 1.04691 0.87509584
1.54442 1.0439299 0.87699664
1.53242 1.04497 0.86820793
1.54151 1.04204 0.86909014
1.5318401 1.0443901 0.86203498
1.5487601 1.04452 0.862876
1.5377901 1.0466 0.85603499
1.5469501 1.04373 0.85567999
1.54614 1.05066 0.84981501
1.55037 1.0447299 0.85031098
1.52368 1.05101 0.84015
1.5332201 1.04686 0.84100699
1.5469999 1.0422599 0.84319603
1.5201199 1.04003 0.9877041
1.5401199 1.03722 0.98976815
1.50739 1.04555 0.98033172
1.51653 1.04039 0.98149168
1.53922 1.038 0.98305678
1.54881 1.033 0.98493975
1.5156599 1.03974 0.97567821
1.55108 1.0395 0.97747374
1.5465 1.03163 0.97830832
1.51397 1.03888 0.9684481
1.54487 1.03927 0.97127229
1.55413 1.03386 0.97257364
1.51526 1.03925 0.96279609
1.5414599 1.0393699 0.96478099
1.5464301 1.03297 0.96495157
1.5223 1.0407 0.95781171
1.5446899 1.03923 0.95885581
1.5538499 1.0343599 0.95849448
1.52336 1.04015 0.95100045
1.5475999 1.0392801 0.95303935
1.5446601 1.03134 0.95138925
1.52212 1.04029 0.94425994
1.5441201 1.03883 0.94612968
1.5495 1.0330501 0.9461596
1.5261 1.04126 0.93834764
1.54905 1.0405101 0.94065183
1.5480299 1.03308 0.94007945
1.52748 1.04145 0.93146074
1.54739 1.03995 0.93480337
1.54861 1.0329 0.93338275
1.5269001 1.04194 0.9246785
1.5460299 1.03933 0.92781591
1.5485001 1.03246 0.9276374
1.52648 1.0424 0.91912895
1.5446401 1.04012 0.92073715
1.55022 1.03369 0.9222219
1.52439 1.04171 0.91317064
1.54978 1.0414701 0.9149819
1.54985 1.03421 0.91503829
1.5323199 1.04292 0.9072963
1.55176 1.0410501 0.90977728
1.55251 1.03398 0.9086054
1.53388 1.04381 0.90034872
1.55079 1.0407901 0.9033373
1.55088 1.0335801 0.90251601
1.5325999 1.04386 0.89378703
1.54961 1.0416 0.89715111
1.54994 1.0341001 0.89650154
1.53379 1.04371 0.88786471
1.5476601 1.0408599 0.89088494
1.5486599 1.03377 0.88927484
1.5284801 1.04124 0.88163286
1.54887 1.04041 0.88480467
1.53935 1.0301499 0.88159937
1.5482601 1.03927 0.87925702
1.52976 1.02694 0.87541854
1.5228701 1.02459 0.87052917
1.5225301 1.03853 0.98478019
1.53856 1.0354 0.98464072
1.5267999 1.03894 0.97829127
1.53813 1.0354 0.97903466
1.5281399 1.03965 0.97162348
1.53573 1.03496 0.97325343
1.5233901 1.03862 0.96534139
1.53898 1.03574 0.96679306
1.5303799 1.0403299 0.96000856
1.53745 1.0358 0.96050662
1.5327901 1.0404 0.9542861
1.53456 1.03501 0.9540506
1.53142 1.04044 0.94828933
1.54221 1.0363801 0.94803452
1.53216 1.0405101 0.94157249
1.5432401 1.03685 0.94230837
1.5292599 1.03994 0.93530756
1.5386 1.03593 0.93589902
1.5325799 1.04081 0.92979431
1.5416701 1.03644 0.92948049
1.53174 1.0405999 0.92289764
1.5449899 1.03734 0.92402023
1.53504 1.0409501 0.91706228
1.54336 1.03667 0.91789901
1.5379801 1.04182 0.91122508
1.5492301 1.0382299 0.91272241
1.53685 1.0418 0.90428317
1.5455201 1.0373501 0.90638709
1.53927 1.04223 0.8989718
1.5432601 1.0374 0.8993274
1.5374 1.0419899 0.8930763
1.54673 1.0376899 0.89300704
1.53951 1.0423 0.88655341
1.54605 1.03784 0.88704771
1.5360899 1.04145 0.87979716
1.53939 1.03625 0.88008833
1.53787 1.04241 0.8738308
1.54419 1.03781 0.87458968
1.51489 1.0379599 0.86421603
1.5398899 1.03677 0.86767668
1.5202299 1.03934 0.85926002
1.54296 1.03766 0.86136299
1.5283999 1.0403501 0.85406703
1.5488 1.03827 0.855869
1.54435 1.0434999 0.84987998
1.55507 1.03985 0.85123301
1.5394701 1.0424 0.84274507
1.5510899 1.03874 0.84455401
1.51143 0.99141294 0.98470926
1.48469 0.99180394 0.94897676
1.5273199 0.98980302 0.98264694
1.49809 0.998734 0.95282656
1.51013 0.99426699 0.96060669
1.5253799 0.98952299 0.96954536
1.49506 0.996916 0.94132513
1.50817 0.99436402 0.94941813
1.5239199 0.990484 0.95902115
1.53636 0.98469198 0.96632826
1.5096899 0.994142 0.9391855
1.52325 0.99029404 0.94775933
1.5084399 0.99262398 0.9252485
1.5193 0.988024 0.93271017
1.50608 0.99184501 0.91259414
1.5178 0.987746 0.9193415
1.51151 0.99463999 0.90569574
1.51989 0.988069 0.9097423
1.49812 0.99768603 0.88730806
1.5139799 0.99748701 0.89759499
1.5187 0.98949504 0.89860994
1.5062801 0.993922 0.88145369
1.5164399 0.98975599 0.88587117
1.51248 0.99511397 0.87361389
1.5247999 0.99174398 0.88128436
1.5287 0.985165 0.88160354
1.51332 0.99563104 0.86126
1.51828 0.98935503 0.86399603
1.5253301 0.98400801 0.86810857
1.51185 0.99504 0.84807503
1.51937 0.99092597 0.85430199
1.5245799 0.98473501 0.85542405
1.5196201 0.99031603 0.84249705
1.5197901 0.98851997 0.95772171
1.5176101 0.98797995 0.94617075
1.53527 0.98656499 0.9599359
1.51723 0.98817396 0.93374872
1.5303 0.98453695 0.94502538
1.51923 0.99068904 0.92416704
1.52988 0.98474097 0.93261421
1.51551 0.99058294 0.9102993
1.49756 0.99087995 0.88671821
1.51423 0.989236 0.89909226
1.51746 0.99043101 0.8779223
1.5163499 0.98968804 0.86537004
1.52 0.99111098 0.85732198
1.51676 0.98996103 0.84262902
1.4973199 1.0020601 0.98335111
1.49366 1.00892 0.98611832
1.48792 1.01543 0.98814172
1.48295 0.99741697 0.98474634
1.49011 1.00789 0.97843933
1.48911 1.0158 0.97844064
1.4837101 1.0060099 0.97516274
1.48532 1.01429 0.97252154
1.48195 1.01345 0.96793848
1.50003 1.0129 0.98528999
1.49426 1.01958 0.98811483
1.49954 1.01319 0.97615629
1.4902999 1.01845 0.98155665
1.49114 1.0265499 0.97915834
1.5002 1.01343 0.96492028
1.49663 1.02025 0.9682644
1.49524 1.02818 0.96521598
1.4980999 1.0126899 0.95613825
1.49528 1.0202 0.95890701
1.49523 1.0298899 0.9538787
1.5003301 1.01353 0.94416505
1.49384 1.0204799 0.94954813
1.4944999 1.03088 0.94463813
1.5078101 1.043 0.93393636
1.5012801 1.01379 0.93290067
1.4948 1.02139 0.93822026
1.4930701 1.03074 0.93750519
1.50029 1.04084 0.9313783
1.5011799 1.01322 0.92294192
1.4972301 1.0204101 0.92634416
1.49439 1.02939 0.92879748
1.50589 1.0142 0.90972793
1.4963001 1.01893 0.91778898
1.4937301 1.02644 0.9194417
1.50482 1.01343 0.90030891
1.49823 1.0188301 0.90722829
1.5173399 1.01616 0.88188589
1.5052699 1.0197101 0.89149559
1.50933 1.01368 0.88101685
1.5103999 1.02095 0.87946075
1.52194 1.00143 0.98673111
1.50351 1.00485 0.98439133
1.51729 1.00396 0.98012614
1.4986399 1.00718 0.97844487
1.52071 1.0021601 0.97546357
