# .PCD v0.7 - Point Cloud Data file format
VERSION 0.7
FIELDS x y z
SIZE 4 4 4
TYPE F F F
COUNT 1 1 1
WIDTH 578
HEIGHT 1
VIEWPOINT 0 0 0 1 0 0 0
POINTS 578
DATA ascii
1.51985 1.04594 0.83731496
1.5363001 1.04668 0.83836901
1.5222701 1.0473 0.830329
1.5421201 1.0501 0.83301705
1.54071 1.0403 0.83218902
1.52511 1.0500901 0.82304704
1.5383501 1.04798 0.82572603
1.54181 1.04066 0.82528996
1.52157 1.04906 0.81602007
1.5313801 1.0455899 0.81708407
1.54196 1.0417501 0.81796002
1.5201401 1.04763 0.80932599
1.53685 1.0475299 0.81068504
1.53733 1.03793 0.80893403
1.52289 1.04804 0.80169898
1.53817 1.04723 0.80358803
1.5357699 1.03663 0.80194998
1.5233799 1.04918 0.79379702
1.536 1.0474601 0.79688799
1.5383 1.0393699 0.79583204
1.52382 1.0490899 0.786277
1.5336099 1.0461 0.789325
1.54 1.04019 0.788225
1.52148 1.0483999 0.77833605
1.5362101 1.0469999 0.78192902
1.5403501 1.03991 0.78163302
1.5197099 1.04786 0.77133906
1.5315801 1.04548 0.77296996
1.54164 1.04163 0.77547598
1.52236 1.0491101 0.76492602
1.5324401 1.0458 0.76615405
1.54 1.0412101 0.76706296
1.52043 1.0478901 0.75723803
1.53624 1.04787 0.75982004
1.54011 1.04091 0.75967497
1.52513 1.05047 0.75099897
1.54027 1.0503399 0.75376505
1.54228 1.04256 0.75297201
1.5241799 1.04996 0.742818
1.5400701 1.05031 0.74724001
1.5355901 1.03871 0.74347603
1.5238099 1.0503399 0.73511606
1.5355201 1.04773 0.73852301
1.54125 1.0417299 0.73715901
1.5217301 1.04953 0.72810501
1.53685 1.04891 0.73069
1.53942 1.04065 0.72990698
1.52505 1.05143 0.72227007
1.5449201 1.0539299 0.72507101
1.5426601 1.04319 0.72356105
1.52817 1.0523 0.71491402
1.5466299 1.0539399 0.71897399
1.5432601 1.04276 0.71583205
1.52863 1.05318 0.70675707
1.54818 1.0549099 0.71202004
1.54319 1.04283 0.70892698
1.52834 1.0541 0.69939303
1.54628 1.05546 0.70449007
1.5458599 1.0456901 0.70273203
1.53004 1.05497 0.69312006
1.54627 1.05523 0.69688302
1.5433 1.04337 0.69356102
1.53116 1.05489 0.68609202
1.55038 1.0562 0.69015306
1.5430299 1.04258 0.68647003
1.5286701 1.0538601 0.67724502
1.54892 1.05668 0.68329
1.5460401 1.0455999 0.68058604
1.5318899 1.05565 0.670582
1.54597 1.05516 0.67536199
1.5463201 1.0461299 0.67253202
1.5262399 1.05302 0.66156906
1.5499099 1.05739 0.66890997
1.54321 1.0444599 0.66377199
1.5310899 1.05608 0.65612304
1.5474401 1.05625 0.66027904
1.5468299 1.04636 0.65721899
1.53119 1.05486 0.64895707
1.55295 1.0583301 0.65452498
1.54248 1.04304 0.64852202
1.53048 1.05402 0.64125109
1.5438299 1.05286 0.64426696
1.5432 1.04377 0.64199096
1.55199 1.0575399 0.64001298
1.54556 1.04519 0.63565004
1.54685 1.05337 0.63054705
1.54488 1.04407 0.62675601
1.54722 1.05259 0.62273502
1.5426401 1.04295 0.61849302
1.53918 1.0482399 0.61351103
1.53188 1.0362899 0.60921705
1.5449201 1.0519999 0.61030298
1.53145 1.0525399 0.83876097
1.5456901 1.0421801 0.83865005
1.53461 1.0539 0.83313006
1.5443801 1.04972 0.83287901
1.5446899 1.04137 0.832219
1.5309199 1.0513999 0.82465202
1.54972 1.05241 0.82744104
1.5428101 1.0406801 0.82547808
1.5350599 1.05462 0.81787705
1.5437601 1.04984 0.81987602
1.54673 1.04276 0.81951106
1.52702 1.05171 0.81025201
1.5493801 1.05414 0.81393504
1.54671 1.04365 0.81246704
1.53325 1.0541301 0.80534202
1.5496401 1.05325 0.80707502
1.5447999 1.04223 0.80431902
1.5383501 1.0552 0.79869002
1.54693 1.05085 0.79988205
1.54521 1.04184 0.79756004
1.5383501 1.05568 0.790622
1.54694 1.05101 0.79303199
1.54185 1.04022 0.79089797
1.53716 1.05643 0.78343999
1.54601 1.05188 0.78552401
1.54414 1.04195 0.785326
1.53297 1.05474 0.77640897
1.54995 1.0546399 0.77958208
1.5487199 1.04518 0.77862602
1.53785 1.05636 0.770868
1.5523 1.05457 0.773628
1.5433099 1.04163 0.76955003
1.53739 1.0560601 0.76365697
1.55102 1.0537601 0.765885
1.54758 1.04371 0.76425397
1.5340401 1.05432 0.75570405
1.55504 1.0559 0.75953102
1.545 1.0426201 0.75740504
1.5354899 1.05538 0.74861699
1.55382 1.05618 0.75340301
1.55085 1.0464 0.75143206
1.5323501 1.0542901 0.74083704
1.54839 1.0537 0.74546504
1.5449899 1.0436599 0.74213201
1.52996 1.05336 0.73378009
1.54751 1.05309 0.73761606
1.5430901 1.0418 0.73425502
1.54291 1.05888 0.73010606
1.5455 1.0510601 0.729756
1.54773 1.0436901 0.729038
1.53616 1.05628 0.72063398
1.55293 1.05588 0.72526097
1.5466701 1.04403 0.722256
1.5402299 1.05821 0.71504503
1.5498599 1.05451 0.71691102
1.5460299 1.04397 0.71492302
1.5389 1.05742 0.707901
1.5524499 1.0555999 0.71058106
1.5457801 1.0439399 0.70779997
1.5407801 1.05862 0.70165998
1.54875 1.05388 0.70261604
1.5459399 1.04387 0.70103896
1.5405201 1.05835 0.69478601
1.55248 1.0557901 0.69565505
1.5469999 1.0447 0.69457603
1.54027 1.0578901 0.68697202
1.5547 1.05695 0.69011903
1.54697 1.04522 0.68693101
1.54123 1.05887 0.67958903
1.5546499 1.05699 0.68392897
1.54405 1.0434201 0.67831606
1.54031 1.05873 0.67252803
1.5507699 1.0552 0.67475802
1.54548 1.04399 0.67187303
1.5409399 1.05848 0.66571307
1.5528599 1.0560601 0.66845
1.54705 1.0448899 0.66560102
1.54284 1.05972 0.65841901
1.5513 1.05527 0.661201
1.55013 1.04636 0.65943605
1.54048 1.0588 0.65071601
1.5525999 1.05695 0.654805
1.5487 1.04637 0.65203905
1.52573 1.0507901 0.63995701
1.55145 1.0557901 0.64776099
1.5487399 1.04614 0.64404905
1.5477901 1.05261 0.63945603
1.54633 1.04404 0.63562703
1.54875 1.0516 0.63224906
1.54097 1.04067 0.627446
1.5459599 1.0500901 0.62568498
1.5254899 1.0327801 0.61738604
1.51902 1.05027 0.833
1.5379201 1.04764 0.83597702
1.5455499 1.04019 0.83697897
1.5134599 1.0493 0.82579303
1.53705 1.0497 0.82934797
1.5450901 1.04164 0.83038801
1.52116 1.05181 0.82112199
1.5380299 1.04854 0.82219905
1.55233 1.0441201 0.82376307
1.52048 1.0508699 0.81415504
1.5433 1.05136 0.81604707
1.5477 1.04286 0.816746
1.5336701 1.02873 0.81351501
1.5272701 1.054 0.80875999
1.5387199 1.05073 0.80907798
1.54759 1.04413 0.81023401
1.5376401 1.03022 0.80776602
1.5277499 1.0541 0.802221
1.54459 1.05153 0.80399299
1.54862 1.04232 0.803545
1.53219 1.0271701 0.79985201
1.53056 1.0543699 0.79515302
1.54759 1.05099 0.79799604
1.54748 1.0416501 0.79728699
1.5357699 1.029 0.79401505
1.5319501 1.05583 0.78793305
1.54053 1.04992 0.79004401
1.5520799 1.04413 0.79246902
1.53107 1.0271801 0.78576905
1.5283 1.05469 0.78053004
1.5391999 1.05077 0.78359103
1.54891 1.04373 0.78452402
1.53645 1.0295 0.78076798
1.5272701 1.0538601 0.77347505
1.53961 1.05023 0.77728701
1.5511301 1.04514 0.77809602
1.5375999 1.0308599 0.77522904
1.52272 1.0527101 0.76554704
1.5432401 1.0508699 0.77082604
1.5527699 1.04487 0.772838
1.52362 1.02362 0.76111299
1.52203 1.05285 0.75924605
1.53951 1.05077 0.76249295
1.54222 1.04047 0.76270205
1.5240899 1.02422 0.75660795
1.5273499 1.0543901 0.75405401
1.53843 1.05059 0.75615305
1.5450701 1.04353 0.75680101
1.52694 1.02598 0.75146604
1.5239301 1.05321 0.74592
1.5432299 1.0517299 0.75123101
1.54339 1.04091 0.74907202
1.5280099 1.02593 0.74495608
1.52694 1.05462 0.74014503
1.5424 1.0513099 0.74326301
1.54299 1.0406899 0.74190301
1.53251 1.02777 0.73965907
1.5334599 1.05671 0.73525202
1.5463001 1.0535901 0.73794401
1.54556 1.04388 0.73665804
1.5351601 1.03002 0.73289704
1.53631 1.0578099 0.72861403
1.54528 1.05287 0.731785
1.54673 1.0434101 0.73024905
1.52951 1.02754 0.72365499
1.52833 1.05531 0.71950203
1.5447999 1.05252 0.72473407
1.54403 1.04178 0.72249103
1.52599 1.0257499 0.71576601
1.53262 1.05704 0.71429199
1.5426199 1.05138 0.71647501
1.54439 1.04116 0.71625501
1.5268101 1.0264 0.70961303
1.5342599 1.05732 0.70796907
1.55004 1.0543901 0.711299
1.54399 1.04221 0.70997602
1.52965 1.0288301 0.70449007
1.5369099 1.05865 0.701419
1.55022 1.05589 0.705616
1.54935 1.04651 0.70454806
1.53171 1.05662 0.692994
1.5545 1.05759 0.70040202
1.54198 1.04383 0.694574
1.53348 1.0576 0.68654996
1.54796 1.05446 0.69137901
1.5343 1.0384899 0.68470603
1.5309501 1.05678 0.67943799
1.5467999 1.05354 0.68339002
1.53596 1.03949 0.67957306
1.53707 1.05849 0.67421305
1.55188 1.0556901 0.67773801
1.54294 1.0435901 0.67599702
1.53813 1.05923 0.66726404
1.5547099 1.05796 0.67208701
1.54818 1.0471801 0.67025
1.536 1.05809 0.66073203
1.55591 1.0587699 0.66642499
1.5511301 1.04935 0.66372299
1.5530601 1.0563999 0.65923798
1.5506101 1.048 0.65557599
1.55502 1.05568 0.65225202
1.5449201 1.0452501 0.64643008
1.5426601 1.0510399 0.64102906
1.54968 1.04791 0.64107102
1.54989 1.05549 0.63593698
1.52843 1.0410399 0.62792104
1.53262 1.05715 0.624542
1.54478 1.05559 0.62751502
1.54203 1.06206 0.62136197
1.5424 1.05593 0.61906099
1.5396299 1.0615001 0.61342299
1.54176 1.05505 0.61103499
1.53957 1.06065 0.60593903
1.5493201 1.05665 0.60665303
1.53859 1.04571 0.60274601
1.54371 1.06183 0.59955502
1.55415 1.05813 0.60185903
1.5435001 1.04687 0.59823805
1.54545 1.06303 0.59274501
1.5532601 1.0585901 0.59584004
1.5501 1.04972 0.59332901
1.54521 1.0633301 0.58555102
1.5560601 1.05981 0.59010702
1.5499001 1.04978 0.58524305
1.5480299 1.06458 0.58004403
1.5564301 1.0598999 0.58261102
1.54984 1.0493901 0.57770103
1.54838 1.06401 0.57337803
1.5591999 1.06015 0.57672304
1.5480299 1.04854 0.57001501
1.54849 1.0639399 0.565247
1.5566701 1.0593699 0.56893802
1.54724 1.0481501 0.562693
1.55187 1.06573 0.55909204
1.55441 1.05872 0.56041104
1.54673 1.0479 0.555852
1.5518299 1.06601 0.55210298
1.5549099 1.05986 0.55385804
1.55085 1.0503399 0.55076903
1.5487801 1.0646399 0.54379404
1.5556301 1.05996 0.54728502
1.54591 1.04849 0.54076403
1.5486799 1.06493 0.53648603
1.5532299 1.05882 0.53881299
1.5452299 1.04791 0.53286004
1.5513099 1.0660399 0.530828
1.5537399 1.05911 0.53091002
1.5464901 1.0484201 0.5266
1.5530701 1.06636 0.52458602
1.5573801 1.06056 0.52550703
1.54838 1.0496399 0.52047998
1.55319 1.0662301 0.51654303
1.5597301 1.06138 0.51987803
1.546 1.04838 0.51154906
1.5555201 1.0676301 0.50993401
1.5549099 1.05946 0.50996602
1.54651 1.04838 0.50471205
1.5530499 1.06748 0.50190902
1.5588901 1.0620999 0.50465304
1.54751 1.04978 0.49819902
1.5562199 1.06856 0.49659002
1.55913 1.06212 0.49729702
1.5510401 1.0509601 0.49125701
1.5548199 1.06734 0.48895401
1.56224 1.06225 0.49137002
1.5483099 1.04962 0.482535
1.5539399 1.06713 0.48031804
1.56127 1.06221 0.48399103
1.5498199 1.05059 0.47590899
1.55769 1.06875 0.47435203
1.5579 1.0613099 0.47507203
1.5471001 1.04961 0.46722001
1.55379 1.06785 0.46529201
1.5583701 1.06172 0.467747
1.54785 1.05021 0.45989701
1.55209 1.06762 0.45800003
1.5616001 1.0633399 0.46126401
1.5461099 1.04915 0.45127702
1.5558901 1.06819 0.45309103
1.56472 1.06371 0.45454103
1.5490401 1.0503 0.44606102
1.56629 1.07128 0.45108101
1.56972 1.06591 0.45089203
1.5592901 1.0549099 0.44530001
1.5756 1.06841 0.44932503
1.5448101 1.04398 0.83743399
1.5544901 1.04002 0.83894503
1.5432601 1.04317 0.83085096
1.5494901 1.03854 0.831765
1.54914 1.04523 0.82554197
1.5506901 1.03941 0.82574403
1.5432 1.04531 0.81751996
1.55239 1.0404299 0.81950206
1.52149 1.0488501 0.80772805
1.54571 1.04627 0.812249
1.55295 1.04061 0.81287003
1.52679 1.04996 0.802562
1.54774 1.04612 0.80651504
1.5562601 1.04073 0.80802202
1.5134399 1.04857 0.79338205
1.5388299 1.04582 0.79814303
1.5520799 1.0407599 0.80157697
1.51309 1.04847 0.78689003
1.5390899 1.04594 0.792068
1.54855 1.0408 0.79393995
1.5128 1.04849 0.78069997
1.5377901 1.04577 0.78554606
1.5549099 1.04167 0.78890502
1.5133001 1.0488601 0.77490097
1.5389999 1.0465 0.77909601
1.5540299 1.04198 0.78212202
1.52039 1.04988 0.77077603
1.54741 1.0471801 0.77544403
1.5581501 1.04188 0.77616805
1.52272 1.05005 0.76676804
1.55839 1.04728 0.77154207
1.5608701 1.04158 0.77042204
1.55959 1.04671 0.76544404
1.5588499 1.04089 0.76359904
1.56021 1.04684 0.75864798
1.55748 1.04087 0.75771695
1.51794 1.0503 0.73902601
1.5590401 1.04763 0.75152802
1.56291 1.0417501 0.75345606
1.5203199 1.0503 0.73601204
1.54619 1.0472599 0.74198502
1.55392 1.04142 0.74500304
1.5245 1.05037 0.73279405
1.55441 1.0477901 0.738047
1.55284 1.0417 0.73839903
1.56591 1.0490299 0.73392898
1.55261 1.04093 0.73158002
1.56353 1.0480599 0.72763801
1.56444 1.0427899 0.72757602
1.56349 1.04828 0.722022
1.5635699 1.04264 0.72032601
1.5622001 1.04774 0.71523303
1.56042 1.04198 0.712834
1.5641201 1.04813 0.70932305
1.5588601 1.0417401 0.70593506
1.56692 1.04854 0.70345199
1.55547 1.04081 0.69846606
1.56102 1.0477999 0.69471502
1.55196 1.04057 0.69150901
1.5621699 1.04777 0.688546
1.5555 1.04089 0.68625402
1.56173 1.0483299 0.68194002
1.5583099 1.04204 0.68057799
1.56847 1.04918 0.67769504
1.56059 1.04223 0.67469805
1.5583501 1.0477901 0.66864204
1.55545 1.04159 0.66595602
1.5593201 1.04834 0.66217202
1.5447999 1.04047 0.65588897
1.5313001 1.05223 0.64501798
1.5580001 1.0496399 0.65438402
1.53396 1.03908 0.64637494
1.5417399 1.05415 0.64286202
1.5543699 1.04951 0.64682406
1.53723 1.05398 0.63501298
1.55998 1.05111 0.64166605
1.5372901 1.0402501 0.634148
1.54107 1.0543901 0.62963402
1.56362 1.05159 0.63685805
1.54951 1.04264 0.63155502
1.54721 1.0551 0.624313
1.56248 1.05111 0.63056397
1.55142 1.04214 0.62502402
1.54434 1.0550901 0.61630803
1.5613099 1.05081 0.62295103
1.55436 1.04249 0.619605
1.5419999 1.0553601 0.60897601
1.56259 1.05204 0.61692101
1.5557899 1.0436699 0.613702
1.54704 1.0561 0.60458398
1.55716 1.0509 0.60810804
1.5582601 1.04352 0.60689199
1.5467 1.05581 0.59786302
1.5614799 1.05067 0.60242003
1.55379 1.04221 0.59896201
1.54873 1.0568399 0.59201002
1.56173 1.05215 0.59606099
1.5559801 1.04365 0.59314001
1.55002 1.05678 0.58619905
1.56425 1.0520099 0.59014505
1.5510401 1.04255 0.58378702
1.55476 1.05677 0.58049303
1.56419 1.05127 0.58351004
1.5499001 1.04205 0.576487
1.54673 1.05589 0.57036901
1.56532 1.05198 0.57681006
1.54668 1.0417299 0.56903201
1.5508701 1.0569999 0.56505603
1.56269 1.05178 0.56903398
1.5524601 1.0430501 0.56461203
1.5269799 1.0629699 0.54723901
1.54837 1.05837 0.55686498
1.5604401 1.0519999 0.561414
1.55251 1.0431 0.55773103
1.52628 1.06319 0.54084301
1.54676 1.05838 0.54998899
1.56408 1.05278 0.55631602
1.54934 1.04277 0.54962599
1.52584 1.06401 0.53400302
1.54488 1.0587699 0.542108
1.5626199 1.0526999 0.549622
1.5478799 1.0421901 0.54152799
1.5218401 1.0637001 0.52639103
1.54425 1.05955 0.53444201
1.5561099 1.05147 0.53948003
1.53916 1.04039 0.53135103
1.5335201 1.0652 0.52457899
1.5477999 1.05954 0.52837902
1.55392 1.05229 0.53184003
1.54579 1.0423599 0.52745199
1.53984 1.0655 0.51915503
1.54825 1.05878 0.5219
1.5560601 1.05196 0.52596498
1.5439399 1.04208 0.51882201
1.53582 1.0655301 0.50988299
1.5455999 1.05927 0.51441103
1.5526401 1.05127 0.51753002
1.54538 1.04247 0.51194
1.5315499 1.0652601 0.50097704
1.54575 1.06038 0.50778604
1.54871 1.05136 0.508439
1.5470599 1.04257 0.50539804
1.52956 1.06478 0.49357402
1.5474899 1.05955 0.50104898
1.5504401 1.0503 0.50202298
1.54222 1.04154 0.49635202
1.53716 1.06547 0.48954803
1.5472701 1.0586901 0.49317801
1.55204 1.0509 0.495891
1.5419 1.0414 0.489187
1.5349201 1.06603 0.48084602
1.54893 1.06023 0.48703003
1.5522 1.05102 0.48828602
1.5442599 1.04177 0.48356801
1.53379 1.0662301 0.47372705
1.54576 1.06098 0.47858602
1.5540401 1.05303 0.48181701
1.54591 1.04274 0.47732002
1.53896 1.0664901 0.46889102
1.5528301 1.05988 0.47469699
1.55375 1.05107 0.47490102
1.5418299 1.04184 0.467518
1.53567 1.0662999 0.46038502
1.54893 1.06077 0.46536005
1.55516 1.05196 0.468615
1.5405201 1.0420099 0.45937201
1.53634 1.0668499 0.45370302
1.5517999 1.06192 0.45918202
1.54951 1.05191 0.45811203
1.5471001 1.04286 0.45482102
1.5422 1.06802 0.44812104
1.54942 1.05989 0.45175302
1.5476401 1.05003 0.44916204
1.53873 1.0409 0.444556
1.5468601 1.07751 0.44493201
1.53918 1.0688 0.440438
1.5479 1.05979 0.44386601
1.54818 1.05042 0.44223899
1.54478 1.0424299 0.441026
1.5594701 1.06319 0.44402301
1.55398 1.05231 0.44002801
1.55635 1.04495 0.44040501
1.5330701 1.0475299 0.42495102
1.53053 1.04722 0.49024001
1.55011 1.07225 0.48267901
1.54882 1.04914 0.47971901
1.53661 1.05214 0.48287103
1.55211 1.07385 0.47590202
1.5474899 1.04878 0.47217903
1.53696 1.05313 0.47558299
1.5479 1.0711399 0.47042301
1.5311199 1.0479901 0.46857601
1.53778 1.06379 0.46597603
1.5301 1.04691 0.46014899
1.52823 1.0563301 0.45920804
1.52864 1.04652 0.45169699
1.5291499 1.05826 0.448708
1.5303301 1.0486799 0.44184804
1.5293 1.05878 0.44048402
1.5303501 1.0488 0.43407002
1.5269099 1.05686 0.433128
1.53149 1.0505201 0.42614102
1.53379 1.06232 0.42110902
1.53451 1.0544699 0.41494602
1.5335801 1.0636901 0.41163903
1.5373199 1.0565799 0.40391502
1.5374 1.06598 0.402522
1.53681 1.0543699 0.39385003
1.53067 1.061 0.39679801
