# .PCD v0.7 - Point Cloud Data file format
VERSION 0.7
FIELDS x y z
SIZE 4 4 4
TYPE F F F
COUNT 1 1 1
WIDTH 1716
HEIGHT 1
VIEWPOINT 0 0 0 1 0 0 0
POINTS 1716
DATA ascii
1.3175999 1.0145401 1.8664269
1.30784 1.021 1.8675121
1.28591 0.99676496 1.8645309
1.3074299 1.0107399 1.862291
1.29541 1.00603 1.8594811
1.3299299 1.01126 1.786136
1.3155701 1.01447 1.7881061
1.34022 1.01412 1.7803022
1.33824 1.02112 1.7796469
1.33077 1.0270801 1.7806549
1.33942 1.01336 1.7751379
1.3418601 1.0220701 1.773206
1.33737 1.03037 1.773473
1.3172301 1.0305001 1.778614
1.3424499 1.01368 1.7674412
1.3422 1.0234799 1.7675351
1.34679 1.0348101 1.7646521
1.3519599 1.0459 1.7628711
1.32543 0.99931395 1.7653421
1.33754 1.01002 1.7620391
1.34277 1.02237 1.761008
1.3479401 1.0351 1.7584641
1.3517799 1.0465 1.757377
1.3490601 1.0547299 1.756635
1.33276 1.00095 1.758417
1.3442199 1.013 1.754517
1.3524001 1.02732 1.752443
1.35664 1.0404201 1.7509241
1.35892 1.05142 1.750049
1.37323 1.06609 1.7444949
1.3358001 1.00192 1.751533
1.34673 1.0128601 1.747164
1.34324 1.02167 1.7485361
1.34513 1.03336 1.7472892
1.3543401 1.0492901 1.744392
1.3782099 1.06936 1.736925
1.3569 1.0713 1.7406671
1.34463 1.00424 1.743058
1.3485401 1.01302 1.740706
1.34433 1.02189 1.7418691
1.3516999 1.03686 1.739161
1.3582699 1.05208 1.736248
1.37599 1.06908 1.7320871
1.36629 1.07505 1.733417
1.3644 1.08375 1.7320691
1.35226 1.0066301 1.734646
1.34744 1.01378 1.735628
1.3503599 1.02514 1.733806
1.35191 1.0379901 1.7321531
1.35875 1.0518399 1.7292942
1.37138 1.0674601 1.7275281
1.37098 1.0783401 1.7258201
1.3825301 1.09252 1.720948
1.36077 1.0083799 1.726058
1.3540199 1.0152 1.72755
1.35033 1.0258 1.7267239
1.35435 1.0398101 1.725188
1.35457 1.0501699 1.724588
1.36525 1.06485 1.721895
1.38263 1.0838799 1.716185
1.3968101 1.09904 1.711761
1.3602901 1.00773 1.719364
1.35278 1.01547 1.721435
1.3521 1.02464 1.719851
1.3494999 1.0352 1.719992
1.35517 1.05002 1.718441
1.36728 1.06779 1.71376
1.35969 0.99843597 1.713672
1.36567 1.0075099 1.7111779
1.34995 1.01359 1.715863
1.3575 1.02775 1.7120739
1.35638 1.04027 1.7119589
1.3563499 1.05255 1.7108859
1.3319401 1.17723 1.8785571
1.3292799 1.1866001 1.8727909
1.32953 1.1767299 1.871871
1.3386099 1.1833301 1.8669791
1.3423101 1.17264 1.867897
1.3407201 1.19239 1.8601739
1.33679 1.18332 1.8595511
1.3433099 1.1727101 1.861044
1.3364 1.19042 1.851915
1.34864 1.17904 1.8554379
1.35461 1.16807 1.8553021
1.3565899 1.17374 1.849136
1.36186 1.16282 1.8491281
1.3529899 1.17229 1.840816
1.36112 1.16124 1.8427581
1.35234 1.1536599 1.8403461
1.35978 1.1598001 1.835572
1.36066 1.14995 1.835988
1.34558 1.14362 1.832345
1.34835 1.16101 1.8263339
1.3655601 1.14793 1.8309799
1.3579201 1.13885 1.828564
1.35384 1.13055 1.8282911
1.36315 1.1459301 1.823598
1.3635499 1.13456 1.821991
1.3579601 1.12701 1.822153
1.36601 1.14253 1.815852
1.3686501 1.1322 1.816141
1.36821 1.12245 1.817384
1.364 1.1421399 1.80845
1.3754401 1.13111 1.811904
1.36781 1.12217 1.809828
1.3631901 1.1142501 1.810541
1.3730099 1.1293499 1.8041931
1.37806 1.11754 1.8048301
1.37406 1.10948 1.804993
1.45028 1.1855 1.8102719
1.4421699 1.17739 1.807706
1.3643299 1.12984 1.795094
1.38046 1.11736 1.799646
1.3809301 1.1070501 1.7991571
1.3872099 1.09679 1.8015399
1.4450799 1.18423 1.802527
1.4426401 1.17422 1.8009629
1.44635 1.1649801 1.802874
1.3847799 1.11429 1.7940109
1.3828399 1.1051899 1.7924351
1.3910401 1.095 1.7951721
1.45356 1.17077 1.797117
1.44526 1.1632199 1.7956961
1.43073 1.15918 1.7928009
1.4918699 1.1097 1.8083529
1.4839 1.10515 1.8067991
1.39292 1.10941 1.7878439
1.39405 1.10079 1.789006
1.3925101 1.09321 1.7880591
1.45216 1.17338 1.7883661
1.45473 1.16002 1.790598
1.44945 1.15167 1.790639
1.49579 1.10789 1.8049661
1.49345 1.10273 1.804467
1.39511 1.10928 1.7800769
1.39333 1.10097 1.7813971
1.4022099 1.09079 1.783782
1.4549 1.1697 1.7831931
1.4611 1.15636 1.785303
1.4569701 1.1478 1.7856561
1.4399201 1.14443 1.782186
1.49963 1.1073 1.8004401
1.48944 1.10388 1.7966781
1.4110899 1.1056501 1.7774789
1.3936501 1.1020401 1.773656
1.3972099 1.0922799 1.775418
1.44998 1.17261 1.7751061
1.4566799 1.1593 1.778195
1.4566499 1.14753 1.7782321
1.45623 1.13877 1.780045
1.4950999 1.10808 1.792372
1.48466 1.10497 1.788255
1.3888201 1.1102901 1.76438
1.39702 1.09953 1.7675949
1.40337 1.08999 1.7700549
1.47315 0.95506203 1.7923981
1.43844 0.94393098 1.7845089
1.4552699 0.93113196 1.7894831
1.4611 0.92227799 1.7915992
1.44426 1.17449 1.7674881
1.4538001 1.15855 1.770509
1.4663901 1.1424199 1.773748
1.45224 1.13699 1.7714889
1.4877 1.11081 1.7834411
1.4629899 1.1115299 1.775305
1.3822501 1.11288 1.7540342
1.39334 1.1006501 1.759007
1.40183 1.09008 1.7629901
1.4967301 1.00152 1.7895629
1.4798801 0.99585098 1.7857502
1.47931 0.985964 1.7867169
1.4746699 0.97600305 1.7864151
1.48826 0.96198601 1.7911692
1.4633701 0.95397204 1.7858161
1.4369299 0.94415301 1.779723
1.4510601 0.93175906 1.783691
1.45856 0.922086 1.785977
1.44844 1.1590199 1.7624761
1.4615401 1.14417 1.7662109
1.4617101 1.13263 1.7672061
1.4687899 1.11896 1.7710049
1.4481399 1.11515 1.764266
1.38411 1.11488 1.747622
1.38908 1.10245 1.7499781
1.3974401 1.08972 1.7535831
1.47744 1.00629 1.77897
1.47331 0.99714994 1.7787812
1.4782801 0.98498899 1.781678
1.47838 0.97339994 1.7829731
1.48842 0.96221298 1.786098
1.43806 0.93232805 1.7747
1.4612199 0.92035204 1.780863
1.4559801 0.91379797 1.779723
1.4566901 1.1438401 1.7580341
1.46582 1.132 1.761862
1.4569401 1.12169 1.759769
1.4236901 1.11742 1.751871
1.39046 1.11239 1.7443789
1.38588 1.1009101 1.742951
1.3972501 1.08769 1.7464881
1.47015 1.02003 1.7693859
1.4772999 1.00789 1.772584
1.47685 0.99821299 1.7740631
1.4736501 0.98747098 1.773218
1.4816 0.97348803 1.777102
1.49345 0.96260297 1.780561
1.4633 0.91826701 1.7745761
1.4627299 0.91173899 1.775178
1.4497099 1.14291 1.7488409
1.4635 1.1299701 1.754025
1.45873 1.11972 1.7525061
1.44171 1.11481 1.7489661
1.39311 1.08644 1.739301
1.4735 1.01108 1.765017
1.47718 0.99773598 1.7670341
1.4698 0.987845 1.7654151
1.4824899 0.97452903 1.769431
1.4924201 0.96296 1.7732691
1.4548199 0.91718203 1.765244
1.46793 0.90830594 1.7686911
1.4539701 1.13166 1.7438941
1.4661 1.11859 1.748111
1.4548 1.11103 1.745616
1.4383 1.10733 1.7417489
1.4754699 1.02017 1.7581791
1.48276 1.0064701 1.7611951
1.4790199 0.99673104 1.7607629
1.47825 0.98600096 1.7610571
1.48155 0.97344702 1.7623111
1.4888901 0.96323603 1.7658679
1.47259 0.95815104 1.7606339
1.45664 0.91540396 1.7598441
1.4745799 0.90543604 1.76442
1.47082 0.89718103 1.762225
1.4695899 0.88858902 1.761703
1.45275 1.12999 1.7367111
1.47015 1.11755 1.742951
1.4636501 1.10874 1.7408991
1.4536901 1.10254 1.7395471
1.47763 1.01057 1.7524819
1.47931 0.97542602 1.755278
1.4924201 0.96222603 1.760214
1.4718201 0.95773596 1.754241
1.48006 0.90284699 1.7602021
1.4912699 0.89276606 1.7617011
1.4788901 0.88701105 1.759129
1.4694901 1.11471 1.7360032
1.4683 1.1061599 1.735755
1.4660699 1.0978 1.735145
1.49937 0.96054399 1.755993
1.4589101 1.1151999 1.7257401
1.4696499 1.1045201 1.7300811
1.4662499 1.0956401 1.727792
1.46178 1.08936 1.727428
1.4679201 1.1025901 1.7220441
1.46007 1.09611 1.719768
1.4669701 1.0863401 1.7223281
1.46521 1.0934501 1.7146981
1.4628 1.08376 1.7138861
1.4134599 0.93862295 1.8188519
1.39209 0.93435305 1.814871
1.3952299 0.92281097 1.816246
1.39774 0.91165805 1.8171939
1.38956 0.90458399 1.8156301
1.44256 1.17873 1.8017942
1.43933 1.17205 1.802526
1.4099001 0.940157 1.8126221
1.41046 0.93166703 1.8144439
1.40003 0.92243797 1.8123181
1.40002 0.91093498 1.8130898
1.39226 0.90419298 1.811738
1.4411701 1.17717 1.7941329
1.4437699 1.16764 1.794911
1.42302 0.93726802 1.80904
1.40627 0.93252599 1.807413
1.4023199 0.92306197 1.8064489
1.3992101 0.91228402 1.8076581
1.3857601 0.90588701 1.8055029
1.45066 1.17203 1.7899771
1.44836 1.16354 1.7883991
1.45043 1.15345 1.7897321
1.43318 0.93654197 1.8038901
1.4126601 0.93165606 1.8019871
1.38799 0.92566401 1.79817
1.44735 1.17232 1.781673
1.45893 1.15806 1.7840869
1.44742 1.15325 1.783136
1.45839 1.13877 1.7861029
1.45242 0.93939102 1.802267
1.4377699 0.936589 1.7990119
1.4295399 0.931122 1.7976761
1.44876 1.17099 1.773988
1.4620301 1.15607 1.7781562
1.45972 1.14596 1.7795449
1.46538 1.1328701 1.7809681
1.48513 1.0174299 1.7944299
1.4822 1.00869 1.794821
1.47312 1.00019 1.793873
1.46803 0.99062598 1.793304
1.47429 0.977 1.7954901
1.49529 0.95943606 1.8020761
1.42522 0.94784498 1.786324
1.4388901 0.93638498 1.792616
1.4311399 0.93072402 1.7908859
1.43881 1.17619 1.7651181
1.45075 1.16154 1.7691671
1.45763 1.1474199 1.772333
1.4632001 1.13323 1.773818
1.4823899 1.1164299 1.7799029
1.4679899 1.01455 1.785562
1.4760499 1.0014601 1.789747
1.47157 0.99030602 1.789337
1.4694999 0.97851998 1.788548
1.48982 0.96209198 1.795843
1.4856501 0.95412201 1.795149
1.42105 0.94851702 1.779696
1.4283299 0.93945801 1.782832
1.43694 0.92755699 1.7849319
1.43119 1.17153 1.7588102
1.4660801 1.14184 1.7681259
1.46789 1.1300399 1.7679371
1.4659801 1.1209201 1.7680441
1.3988 1.09769 1.7535729
1.47001 1.0132099 1.7794571
1.47066 1.00156 1.7819641
1.4658799 0.99040604 1.781747
1.4652801 0.980111 1.78099
1.48385 0.96338099 1.7874191
1.47781 0.95600599 1.7866501
1.43484 0.935552 1.777894
1.4499899 0.92169499 1.781266
1.44575 0.912916 1.7803301
1.4344001 0.90633398 1.7774191
1.4675701 1.13726 1.7607181
1.4695599 1.12711 1.762219
1.46114 1.11997 1.7593521
1.4445399 1.11781 1.755849
1.39746 1.10724 1.747117
1.3938299 1.09963 1.7466159
1.4023801 1.08663 1.750392
1.46895 1.01485 1.7729241
1.4712399 1.0027699 1.7739841
1.4676499 0.99067903 1.7754321
1.4749899 0.97565299 1.777073
1.48562 0.96217597 1.7813971
1.4752201 0.956855 1.7790219
1.4333099 0.93403101 1.7707491
1.45447 0.92108202 1.77709
1.45655 0.91038495 1.777166
1.4482601 0.90340102 1.7761389
1.4615101 1.1388401 1.7517849
1.4661599 1.12762 1.7542881
1.46077 1.11927 1.752923
1.45327 1.1121601 1.75116
1.40192 1.0854499 1.7432311
1.47001 1.01355 1.7657989
1.4758501 1.00059 1.768546
1.4695599 0.989806 1.7677341
1.4773101 0.97426003 1.770658
1.48426 0.96242696 1.7747931
1.47597 0.95566905 1.7715521
1.46015 0.91779 1.77228
1.4725 0.90555495 1.7740381
1.4600999 0.900437 1.7725781
1.46304 1.12853 1.7467721
1.4613401 1.1181901 1.746246
1.45332 1.10953 1.7442801
1.4477299 1.10346 1.744115
1.39351 1.08555 1.7322321
1.46935 1.0133001 1.7581739
1.47291 1.0006 1.7609249
1.4690601 0.98932803 1.7600811
1.47461 0.97651899 1.763154
1.4860899 0.96103698 1.767733
1.47119 0.95492601 1.7628931
1.46619 0.91438103 1.766678
1.4783901 0.90352994 1.76916
1.47355 0.89607203 1.7680911
1.4590801 1.12709 1.738571
1.4685401 1.11438 1.741398
1.4595799 1.10753 1.7390491
1.4450901 1.10341 1.73664
1.39397 1.0854 1.723695
1.47809 1.02013 1.752525
1.47481 1.00262 1.7540469
1.4698199 0.97938102 1.755054
1.48868 0.96250504 1.7613101
1.4723599 0.95507205 1.7568179
1.44776 0.952914 1.7505749
1.4746801 0.91071701 1.7624661
1.4804699 0.90131301 1.763971
1.4830999 0.891518 1.7638462
1.45857 0.889889 1.757951
1.4623101 1.1144999 1.732927
1.4545701 1.1080999 1.7308021
1.45834 1.09626 1.7323641
1.39449 1.0866101 1.716113
1.48444 0.96117997 1.753479
1.47249 0.95478106 1.74994
1.4510601 0.95225602 1.7453439
1.4851601 0.89865094 1.7585001
1.48621 0.890001 1.758396
1.47351 0.88557702 1.7560501
1.4492 1.11729 1.721313
1.4619 1.10342 1.726336
1.45556 1.09364 1.7243412
1.4233 1.0933 1.715726
1.5001401 1.01236 1.7454779
1.4784501 0.97565699 1.7425979
1.48125 0.96275902 1.744974
1.46829 0.956155 1.742823
1.4592 1.1035399 1.717855
1.4577699 1.09365 1.718484
1.47895 0.98607999 1.7358611
1.45992 1.0936199 1.7124079
1.4563099 0.95621103 1.917554
1.4402901 0.95173895 1.915854
1.4202499 0.94790298 1.91345
1.49054 0.954216 1.916573
1.46372 0.95626402 1.9117371
1.4435699 0.95195699 1.909713
1.4189 0.949494 1.9055301
1.4811701 0.95848393 1.908911
1.46539 0.955356 1.9058701
1.43707 0.95397902 1.9009781
1.41186 0.95304298 1.895806
1.47021 0.962367 1.900246
1.45741 0.95777494 1.8973981
1.42879 0.95698798 1.8920221
1.41237 0.95332903 1.8884201
1.46538 0.96389002 1.8920981
1.45476 0.95833802 1.8898331
1.4205099 0.95959502 1.883363
1.4022501 0.956725 1.879202
1.45892 0.96613801 1.8830889
1.44699 0.96054399 1.8817871
1.4226601 0.95894206 1.8766642
1.39145 0.96034795 1.869729
1.4687899 0.96331102 1.87806
1.44415 0.96281195 1.8739151
1.4172599 0.96096498 1.868206
1.3902299 0.96072096 1.8621171
1.4607 0.96589106 1.86989
1.44182 0.96289396 1.8658332
1.4039999 0.964311 1.858283
1.3713601 0.96465403 1.85155
1.3119999 0.96921301 1.8368701
1.45856 0.965922 1.8615179
1.44464 0.96259803 1.859151
1.38164 0.967035 1.847863
1.34712 0.96818805 1.839974
1.3132401 0.96892899 1.831731
1.29651 0.96521002 1.828733
1.46786 0.963799 1.855679
1.4513299 0.962062 1.8538269
1.42715 0.96336001 1.8488071
1.3419701 0.96880502 1.832938
1.31065 0.96977597 1.8245599
1.30344 0.96259397 1.82347
1.4725701 0.96233004 1.8504111
1.45479 0.961438 1.8474679
1.41705 0.96501195 1.8353771
1.3223 0.97376603 1.820755
1.3044901 0.97001505 1.8161511
1.2987601 0.96209604 1.8145059
1.4726601 0.96223605 1.8442199
1.44585 0.96336198 1.8372
1.4160899 0.96529406 1.8300369
1.3137 0.97496301 1.8121701
1.30273 0.96926802 1.809423
1.2971201 0.96237803 1.808611
1.30267 0.95170897 1.81043
1.3894501 0.90679002 1.82555
1.47352 0.96259397 1.836313
1.4467 0.96260399 1.829765
1.3183701 0.96425796 1.8083011
1.38449 0.92990601 1.8173779
1.38392 0.91813397 1.818777
1.3805001 0.90862703 1.8184979
1.47558 0.96333504 1.829362
1.4413099 0.96417505 1.8206351
1.4103 0.96221 1.814674
1.39864 0.95247805 1.8123761
1.4006599 0.93747598 1.8140711
1.39485 0.92562503 1.815363
1.38992 0.91531998 1.814496
1.39302 0.90396899 1.8162271
1.39675 0.895253 1.8177081
1.48831 0.96795601 1.8258371
1.4801199 0.96270597 1.8234429
1.4322 0.965698 1.81129
1.4220599 0.95888299 1.8116159
1.4100101 0.94948995 1.809485
1.4113801 0.935027 1.8097119
1.39511 0.92703599 1.808748
1.39568 0.91563398 1.808688
1.3902299 0.90637803 1.809247
1.4776199 0.97219104 1.8157519
1.46632 0.966308 1.8122061
1.43978 0.96312898 1.806555
1.4194 0.95832902 1.8043289
1.4171699 0.94505799 1.8034869
1.41373 0.93399203 1.8039279
1.40347 0.925457 1.8032351
1.3910099 0.91685504 1.801756
1.38125 0.90955198 1.8012719
1.4698 1.0257599 1.7976111
1.47664 1.01464 1.800316
1.47515 0.975272 1.8062789
1.4754 0.964858 1.8078541
1.4505701 0.96216398 1.802695
1.42899 0.95474195 1.7984021
1.42557 0.94205803 1.7980679
1.4132 0.93383497 1.7972549
1.40169 0.92580599 1.796288
1.50465 1.10859 1.78965
1.4935499 1.1061599 1.787062
1.3953999 1.09983 1.766296
1.3968201 1.08978 1.767697
1.38395 1.0853701 1.765556
1.4629899 0.99527603 1.794126
1.46893 0.980524 1.7969171
1.4799299 0.96523595 1.8022101
1.4330701 0.96294802 1.79252
1.42125 0.95651102 1.7888391
1.4256101 0.94448 1.7917081
1.42799 0.93117106 1.7927361
1.41399 0.92506301 1.7915781
1.46595 1.13393 1.7722659
1.4818699 1.11886 1.7782211
1.4764999 1.1135501 1.7767441
1.38897 1.11534 1.7556671
1.3932 1.10286 1.7595841
1.3918099 1.0916001 1.761111
1.4672999 0.99218005 1.788336
1.47183 0.97786903 1.791652
1.4915401 0.96181196 1.798206
1.43182 0.96121103 1.786189
1.41258 0.95755798 1.780445
1.43397 0.94012702 1.787182
1.43332 0.92831498 1.7862921
1.4256101 0.92230105 1.7867441
1.4680499 1.12448 1.767656
1.4597 1.1197699 1.7649491
1.3872501 1.11612 1.7486191
1.39069 1.10412 1.752187
1.40241 1.08599 1.756875
1.4621899 1.00729 1.778412
1.46696 0.99197096 1.780822
1.4711701 0.97925001 1.784194
1.4857401 0.96469098 1.7900701
1.43849 0.93617898 1.7808349
1.44627 0.923464 1.782657
1.4422901 0.91647202 1.7836289
1.46578 1.12488 1.759685
1.4586999 1.11931 1.7583011
1.43935 1.1187 1.752916
1.3852699 1.1166201 1.7417661
1.39019 1.10507 1.744458
1.40254 1.0872101 1.749455
1.47109 1.00462 1.7738761
1.46522 0.994982 1.7731549
1.4702499 0.98065495 1.77645
1.4842 0.96616501 1.782413
1.4311399 0.93750703 1.7716391
1.45116 0.92252195 1.7775961
1.4516901 0.91378504 1.7782409
1.46539 1.12333 1.751853
1.4522901 1.11973 1.749245
1.4448301 1.11409 1.7480081
1.385 1.10569 1.7364389
1.40294 1.08776 1.7425489
1.4651401 1.00701 1.7652121
1.4633099 0.99549401 1.7659011
1.4661099 0.98325801 1.7678839
1.48453 0.96592498 1.7744049
1.4425101 0.93192202 1.7685379
1.45918 0.91833299 1.773478
1.4591099 0.910604 1.7725431
1.4657401 1.12305 1.7434201
1.46524 1.11334 1.7455411
1.45269 1.109 1.7432269
1.46696 0.99383003 1.759758
1.47883 0.97606695 1.764578
1.49287 0.96187401 1.769524
1.46419 0.91532499 1.7681891
1.47254 0.90516996 1.769037
1.46314 1.12444 1.7352191
1.46683 1.11342 1.738318
1.46055 1.1051 1.738018
1.4478301 1.10138 1.7353591
1.4669501 1.00727 1.751544
1.47572 0.97888201 1.756126
1.49202 0.96240306 1.762084
1.47103 0.91198999 1.761726
1.47651 0.903575 1.7637939
1.45876 1.1255001 1.7275259
1.4701101 1.1121399 1.732613
1.46604 1.10291 1.7323101
1.45362 1.0973201 1.72948
1.4963901 0.96023595 1.7565551
1.4664501 0.91240096 1.7525051
1.4756399 0.90313905 1.7571111
1.46446 1.1115201 1.723883
1.45733 1.1030899 1.722247
1.4498 1.09456 1.7201409
1.47386 0.98969704 1.7397901
1.46575 0.91181099 1.7458081
1.4778399 0.90105903 1.749946
1.4575101 1.11235 1.7141571
1.4650999 1.09998 1.7179589
1.4517101 1.0932701 1.713744
1.43768 0.998757 1.916748
1.44892 0.98439497 1.917995
1.43742 0.95004499 1.918064
1.4300599 0.94369298 1.917197
1.44091 0.997922 1.90977
1.45147 0.98270106 1.911638
1.46144 0.96441001 1.914384
1.4503599 0.95512903 1.9132611
1.4325999 0.95090699 1.911045
1.41304 0.95035601 1.908318
1.4435 0.99776804 1.9018521
1.45575 0.98007399 1.9048511
1.4623399 0.96255702 1.9068811
1.4416901 0.95787299 1.904727
1.42725 0.95336896 1.9037421
1.46141 0.99977303 1.897063
1.45275 0.99400103 1.8956259
1.45362 0.979518 1.8973621
1.4702901 0.95991099 1.901443
1.45336 0.95605797 1.899171
1.4267399 0.95606798 1.895318
1.45329 1.00436 1.8883951
1.4492199 0.99691498 1.8868701
1.4576 0.98077399 1.890972
1.4611 0.96422303 1.8926041
1.44561 0.95748001 1.89073
1.42585 0.95658201 1.887532
1.4547701 1.00374 1.880644
1.44629 0.99818802 1.87974
1.4591401 0.97939497 1.8835269
1.4679101 0.96066803 1.886142
1.44532 0.959162 1.883768
1.43458 0.95364302 1.881844
1.4534 1.00536 1.872208
1.45575 0.99312299 1.8748871
1.4593401 0.97941804 1.8764279
1.47039 0.96196502 1.8797369
1.4466499 0.95903605 1.876436
1.43274 0.95468301 1.8729531
1.45012 1.00783 1.8647879
1.45341 0.99639702 1.8663909
1.46135 0.97803998 1.8695489
1.46987 0.95934898 1.8735909
1.44541 0.95838797 1.868517
1.42787 0.95636004 1.86418
1.4537899 1.0050499 1.859012
1.46099 0.99059504 1.860312
1.46272 0.97665703 1.8619239
1.4690801 0.96030098 1.866323
1.44138 0.96035898 1.860139
1.4260299 0.95625705 1.856266
1.45886 1.00128 1.8520089
1.46254 0.99043405 1.853703
1.46067 0.98000503 1.8543341
1.4707299 0.96141404 1.8586991
1.4341201 0.96155196 1.8509799
1.4209801 0.95727098 1.847757
1.4549699 1.00491 1.8424661
1.4628 0.98960602 1.846737
1.4672999 0.97346705 1.8492639
1.46627 0.96011001 1.8510339
1.43381 0.96172994 1.8438269
1.4156599 0.958583 1.8395281
1.43338 0.94235498 1.8459179
1.45772 0.99519503 1.837097
1.46679 0.97644597 1.840745
1.4720799 0.96034503 1.8452951
1.4240601 0.96259803 1.835014
1.4039301 0.96290606 1.829765
1.3872501 0.96203905 1.8265631
1.4642799 1.0125099 1.829181
1.4616901 0.991247 1.8304739
1.47024 0.97374803 1.8336771
1.47252 0.96286005 1.8369031
1.4175999 0.96437401 1.826246
1.4022599 0.962475 1.8218189
1.3982899 0.933649 1.8203461
1.45649 1.00586 1.821808
1.46049 0.99286497 1.822742
1.4706501 0.97504097 1.8266931
1.4709101 0.96162903 1.827803
1.4169 0.96479899 1.817975
1.40149 0.96166903 1.814767
1.3978701 0.95098799 1.8138421
1.3957801 0.93674302 1.8145059
1.4148599 0.91899401 1.820027
1.46158 1.00324 1.815385
1.4634199 0.98839206 1.8168789
1.4739 0.96968806 1.8208261
1.46847 0.95929199 1.8200711
1.4332401 0.96190399 1.8137021
1.41278 0.95686305 1.811058
1.40789 0.94565696 1.809046
1.3996 0.93688697 1.809459
1.40288 0.92487603 1.8111441
1.4576499 1.0069699 1.8059961
1.46492 0.98995501 1.809798
1.47056 0.973162 1.8127091
1.47034 0.96037298 1.8143741
1.4439399 0.95888102 1.808235
1.4158 0.95628303 1.804101
1.4132401 0.94324303 1.802639
1.403 0.93445504 1.8030831
1.40522 0.92358804 1.8045321
1.3922099 1.09961 1.770527
1.46209 0.99346298 1.801887
1.46963 0.97643304 1.8048309
1.46855 0.96214598 1.8062811
1.44323 0.959234 1.800401
1.42488 0.95259202 1.79793
1.4201 0.94022202 1.7967331
1.40416 0.93533701 1.795935
1.3989999 0.92720598 1.796434
1.3778399 1.11683 1.7601418
1.3838401 1.1039 1.7629431
1.4625101 0.99224198 1.7945871
1.47535 0.97131598 1.7990601
1.47119 0.96092796 1.7989529
1.4253999 0.961492 1.790038
1.4176601 0.95325202 1.7878771
1.43081 0.93495101 1.7922711
1.41371 0.93161696 1.791214
1.46066 1.13624 1.763829
1.38866 1.11048 1.7563061
1.4005799 1.09238 1.761259
1.47033 0.98547 1.7896041
1.47551 0.97054899 1.7911081
1.4727401 0.96185404 1.791725
1.4189 0.96302599 1.7802719
1.4164 0.95489502 1.780412
1.4343699 0.935866 1.786225
1.43325 0.92423797 1.7868021
1.4534801 1.1391101 1.756873
1.44682 1.13401 1.7555841
1.38675 1.11208 1.7476761
1.4005799 1.09375 1.753327
1.4720501 0.98557198 1.7817731
1.47912 0.969657 1.7851551
1.47589 0.96163595 1.7851199
1.41199 0.96674699 1.771958
1.41802 0.95337099 1.774696
1.44005 0.930834 1.7814709
1.4435899 0.91889799 1.782196
1.4619501 0.903198 1.787886
1.4590199 1.13429 1.7520391
1.4579899 1.12485 1.752048
1.39293 1.1089 1.7435141
1.39616 1.09606 1.74543
1.46644 1.0007701 1.7711692
1.4724699 0.98427904 1.7740052
1.47726 0.970707 1.7779601
1.47206 0.96329397 1.776053
1.40827 0.968638 1.7658371
1.44469 0.92744499 1.7762671
1.44943 0.91575795 1.776832
1.45459 1.1346099 1.7435299
1.45781 1.12272 1.745564
1.4416001 1.11999 1.7415051
1.4190199 1.12134 1.7356861
1.4666001 1.00244 1.763559
1.46644 0.98915499 1.7656031
1.4772301 0.97046399 1.7696759
1.46298 0.96695298 1.766705
1.45656 0.91990095 1.77145
1.46106 0.909208 1.77125
1.46138 1.11917 1.7390441
1.4499 1.1147699 1.7375121
1.4393201 1.11016 1.736128
1.47141 0.98591697 1.759401
1.47752 0.96978998 1.7617581
1.4728799 0.96244794 1.762754
1.4647099 0.91538 1.7650861
1.4661099 0.90613002 1.7658319
1.4784 0.89333296 1.770648
1.4605 1.11774 1.7301182
1.45498 1.11084 1.731077
1.4435 1.10719 1.7302301
1.47921 0.97114599 1.7549429
1.47658 0.96123099 1.75545
1.46457 0.91541296 1.7581069
1.47088 0.90410501 1.7603979
1.4667101 0.89772797 1.761273
1.4593401 1.11781 1.722128
1.45577 1.10972 1.7232032
1.45281 1.09975 1.724107
1.4768 0.96027201 1.7483151
1.4710699 0.91149801 1.7531481
1.48453 0.89686304 1.757009
1.4747901 0.89352798 1.756291
1.45658 1.1182801 1.7146759
1.4572501 1.10886 1.7166589
1.4517599 1.09857 1.7156061
1.43856 1.09329 1.7127099
1.47923 0.98258001 1.7388809
1.48049 0.95882004 1.742236
1.4608099 1.1035299 1.7101409
1.46153 0.966775 1.917937
1.4643101 0.95565104 1.9190539
1.4485401 0.95288497 1.9149179
1.46226 0.96670198 1.9110739
1.46427 0.954844 1.9111569
1.44458 0.95361 1.907442
1.44249 0.944125 1.9074249
1.46761 0.96569502 1.903358
1.45972 0.95685601 1.9027389
1.44224 0.95302099 1.900504
1.4230599 0.95274198 1.8968811
1.44684 0.99467105 1.8897879
1.4663299 0.96679395 1.894926
1.4541701 0.95768404 1.894787
1.43689 0.95418 1.8928219
1.42176 0.95257401 1.8894
1.4513 0.989959 1.883358
1.4694 0.96619695 1.888018
1.4617599 0.95727098 1.889032
1.4392999 0.95479798 1.886394
1.41787 0.95463598 1.8829541
1.44412 0.99807602 1.874711
1.4621 0.97329694 1.880229
1.4653 0.95696402 1.8835089
1.4233299 0.95170099 1.8792981
1.44361 0.99991798 1.867187
1.47508 0.96274 1.879089
1.44967 1.0075901 1.8505081
1.4550101 0.99004698 1.8515351
1.47255 0.96554703 1.8554291
1.4565401 1.00103 1.8445309
1.46044 0.98557901 1.8461521
1.4640801 0.97047997 1.8482791
1.45035 0.96596801 1.845521
1.45392 1.00464 1.83613
1.4525399 0.99245101 1.837865
1.4652499 0.97156197 1.841767
1.4540401 0.963902 1.8403189
1.4426601 0.95873499 1.83763
1.4526401 0.99186301 1.8298309
1.4643899 0.96896899 1.834993
1.4461399 0.96612298 1.831105
1.43121 0.96271598 1.82733
1.45338 1.0045301 1.8212371
1.45822 0.98950106 1.822657
1.45987 0.97276902 1.825677
1.44159 0.96691 1.8221331
1.42318 0.96390098 1.817619
1.45722 1.00301 1.81419
1.4577099 0.98806 1.815233
1.4688801 0.96651 1.8192239
1.4311399 0.96822 1.812579
1.42194 0.962699 1.8113381
1.4309599 0.949121 1.813504
1.44347 1.17225 1.7785851
1.44877 1.15774 1.7816629
1.4583501 1.0004901 1.8057261
1.4645 0.98138499 1.809664
1.46806 0.96660399 1.8120471
1.4453 0.96506697 1.8075391
1.42732 0.96006799 1.805986
1.4291999 0.94880795 1.8058059
1.43328 1.1799999 1.770776
1.4371001 1.1648999 1.772652
1.45974 1.00078 1.7976691
1.45699 0.98784798 1.7997061
1.46341 0.96950102 1.804165
1.44361 0.96649396 1.799014
1.4371001 0.95509499 1.7995681
1.42671 0.94951403 1.797989
1.44619 1.15625 1.76908
1.4511701 1.1418099 1.770179
1.45653 0.99098897 1.791226
1.46127 0.97095704 1.7947659
1.4377 0.96676803 1.7906109
1.42379 0.96159202 1.788655
1.42522 0.95121002 1.790087
1.4571401 1.14491 1.7641979
1.45464 1.1368099 1.763056
1.4609101 0.98536199 1.7845181
1.46035 0.97137398 1.7866461
1.4450999 0.96633601 1.784566
1.4215801 0.96442103 1.7806602
1.4335001 0.94807196 1.7846811
1.46073 1.13994 1.7565922
1.45489 1.13546 1.7557601
1.4003799 1.0947499 1.750829
1.4616901 1.0003099 1.77542
1.46179 0.98578 1.7767692
1.45836 0.97251803 1.778473
1.43628 0.96915799 1.775597
1.41757 0.96766603 1.772215
1.4520301 1.1437 1.7461309
1.4579101 1.1300701 1.749095
1.3997501 1.09534 1.746278
1.46549 0.99545699 1.769201
1.46957 0.97916394 1.772717
1.4617101 0.97128099 1.7712829
1.4389999 0.97070199 1.767653
1.45898 1.12628 1.741828
1.4525 1.11892 1.7403979
1.4431599 1.11222 1.737885
1.4627 0.99995798 1.7599591
1.4682499 0.98031801 1.764662
1.4596801 0.97118402 1.764075
1.43822 0.97306001 1.75778
1.4526801 1.12713 1.7327069
1.45444 1.11607 1.734864
1.4536799 1.10419 1.734708
1.46636 1.00085 1.752827
1.46683 0.98515296 1.7553329
1.4619099 0.97197306 1.7563061
1.4385201 0.97382301 1.7494659
1.4592799 1.10921 1.7287271
1.45095 1.10313 1.7269291
1.4500999 1.0933 1.727254
1.46717 0.99773496 1.745795
1.4697701 0.98059404 1.7486889
1.4635 0.97056502 1.748764
1.4391 0.97408402 1.7427181
1.46149 1.10576 1.721046
1.4548399 1.0994201 1.7203079
1.4516701 1.09112 1.7205771
1.4702801 0.99393797 1.738867
1.47491 0.97638601 1.74362
1.46127 0.97317702 1.741411
1.4588699 1.10636 1.7120111
1.4628999 1.09373 1.7151071
1.44909 1.09203 1.711951
1.47513 0.97952598 1.735759
1.36659 0.96385902 1.9176182
1.3690699 0.96557897 1.910661
1.37472 0.96713096 1.904906
1.3644 0.976533 1.9023199
1.37317 0.96968001 1.895892
1.36292 0.97894698 1.891232
1.3367701 0.99981099 1.8860211
1.37466 0.97469902 1.8864279
1.36195 0.97793198 1.880842
1.3339 1.00113 1.874711
1.37209 0.972377 1.874078
1.34595 0.996782 1.871017
1.32623 0.99865896 1.8620081
1.31247 0.99919099 1.856405
1.37195 0.97220701 1.8654431
1.36575 0.97949404 1.865074
1.3572501 0.99001002 1.8651181
1.3426601 0.994712 1.8584861
1.33582 1.00415 1.8602
1.32586 1.01063 1.8569821
1.3339 1.02993 1.863414
1.3704201 0.97137201 1.8560361
1.3610699 0.97626996 1.851819
1.3571899 0.98916495 1.8546671
1.34473 0.99585605 1.851434
1.3378501 1.00582 1.8523059
1.3395101 1.0231199 1.857124
1.37019 0.97211504 1.845829
1.36001 0.97767097 1.8432389
1.34953 0.98383695 1.8408509
1.34986 0.998779 1.8459591
1.34586 1.01368 1.8483529
1.37579 0.97511804 1.838791
1.3703101 0.98244905 1.8404001
1.3612601 0.99114996 1.8392872
1.41362 0.91989797 1.827379
1.4158299 0.93072999 1.8306301
1.37916 0.97686994 1.831671
1.4174899 0.92301595 1.8233969
1.4188 0.93418998 1.825572
1.42659 0.948313 1.833174
1.33834 1.1959 1.8692211
1.43636 0.93485701 1.8256439
1.4291701 0.94191706 1.823428
1.4138 0.94441903 1.8184329
1.34438 1.15416 1.8505609
1.35138 1.1730599 1.859454
1.3544 1.19393 1.8677899
1.4477401 0.94071901 1.8232449
1.4355299 0.94398201 1.818472
1.41783 0.94777703 1.81146
1.4092 0.96084195 1.8122061
1.3836701 1.17077 1.8615531
1.35877 1.16484 1.852407
1.3647799 1.18462 1.8613839
1.4435099 0.93874002 1.8125091
1.42808 0.94122297 1.8050641
1.4133 0.94555902 1.8004531
1.40737 0.95608497 1.8010299
1.4066499 0.97483903 1.8059571
1.3774 0.988711 1.7985021
1.3933501 1.1765599 1.859025
1.37151 1.17231 1.8508621
1.37616 1.1937799 1.860666
1.43162 0.93177903 1.7960972
1.42888 0.94050199 1.7957159
1.42951 0.95548302 1.801136
1.42479 0.970034 1.8032681
1.38476 1.16703 1.8436731
1.36975 1.1685901 1.8390139
1.4418401 0.93646103 1.790401
1.4358701 0.94639504 1.7923181
1.43613 0.95960599 1.7954531
1.4019099 1.16451 1.838369
1.3815199 1.16193 1.8306022
1.36465 1.16106 1.825123
1.4688001 0.93619502 1.79076
1.44647 0.93577403 1.7818451
1.4426601 0.94928598 1.7861332
1.4556301 0.96914399 1.796127
1.4022501 1.15036 1.8259109
1.38888 1.15178 1.821141
1.3750501 1.1535 1.816254
1.37604 1.16763 1.8225751
1.48111 0.927145 1.7842761
1.4609801 0.92924601 1.777905
1.44987 0.93606597 1.774776
1.44763 0.949453 1.7780221
1.4597701 0.971147 1.7885801
1.3863499 1.13626 1.807511
1.3730999 1.13735 1.802243
1.3671001 1.1455799 1.8036129
1.51015 0.91461998 1.782109
1.48463 0.91281599 1.773031
1.4775101 0.92411101 1.7741851
1.4577099 0.928496 1.768739
1.45978 0.94517499 1.7724161
1.45599 0.95885801 1.7745371
1.4583099 0.97411102 1.778209
1.3759599 1.12476 1.79002
1.3681901 1.13116 1.790517
1.51103 0.91422701 1.7752991
1.4885299 0.914168 1.768175
1.47788 0.92080098 1.7656729
1.46869 0.93509597 1.7664582
1.46987 0.95213401 1.7695801
1.4588499 0.95900595 1.767464
1.45687 0.97346604 1.76916
1.45613 0.988199 1.7724471
1.3718699 1.01089 1.7460089
1.3956599 1.12372 1.7851061
1.3846099 1.1290799 1.7857251
1.50773 0.92134202 1.770005
1.48414 0.96030504 1.771171
1.46343 0.96356601 1.7630271
1.4562801 0.97428805 1.7617999
1.4495101 0.98650801 1.7620261
1.37648 1.0033001 1.737864
1.37246 1.01196 1.738371
1.3887601 1.1002899 1.766066
1.38196 1.1097 1.7681979
1.39723 1.13852 1.782776
1.4519099 0.97193998 1.754184
1.4085001 1.09645 1.7635731
1.3878101 1.0947 1.756008
1.3886501 1.1109999 1.762439
1.4182601 1.16057 1.78659
1.3970101 1.08596 1.7490829
1.3932401 1.0993 1.751235
1.40043 1.1208999 1.758505
1.42033 1.1564801 1.774736
1.3959199 1.0863401 1.7409301
1.4063001 1.1104699 1.7499789
1.4205 1.1388201 1.761566
1.4227 1.15609 1.766468
1.4257801 1.17415 1.7745861
1.3981799 1.08427 1.7327091
1.4292101 1.13289 1.755336
1.43416 1.14996 1.760694
1.4399899 1.1696299 1.7689971
1.44113 1.14249 1.7539231
1.4416901 1.15491 1.757334
1.43652 1.13852 1.744877
1.37304 0.96007895 1.919852
1.36237 0.96826899 1.915717
1.38035 0.96118104 1.914574
1.36961 0.96958506 1.9112149
1.37683 0.962672 1.904462
1.36904 0.971883 1.9023911
1.33298 0.98686403 1.8893009
1.3936701 0.96232599 1.9030811
1.38105 0.96623099 1.898296
1.36783 0.97234595 1.8930191
1.38713 0.969634 1.8930941
1.37228 0.97363001 1.88636
1.33894 1.00591 1.8767239
1.38481 0.97080004 1.882113
1.32661 1.00368 1.860262
1.30317 1.0032099 1.8475931
1.38862 0.97360098 1.875375
1.35155 0.99078596 1.861783
1.33767 0.99730301 1.8566589
1.3264799 1.00361 1.8523641
1.3239701 1.0156701 1.8543991
1.37309 0.97643697 1.86028
1.3625301 0.98303396 1.8558251
1.34905 0.99024498 1.850726
1.33507 0.99679399 1.847263
1.33158 1.00783 1.847822
1.34086 1.0273 1.8565869
1.33207 1.03197 1.8562452
1.36879 0.97415102 1.847927
1.35528 0.97903705 1.8420019
1.3492799 0.98837304 1.841041
1.34663 1.00172 1.8448551
1.34498 1.01627 1.847291
1.32476 1.16188 1.8791031
1.33184 1.17662 1.8868899
1.36757 0.97477603 1.837697
1.35809 0.98199701 1.835905
1.35298 0.99200302 1.8358099
1.3524801 1.0062699 1.8394791
1.32699 1.16346 1.873794
1.31924 1.16852 1.8714582
1.41337 0.91427499 1.8303521
1.39928 0.91659796 1.823735
1.3789799 0.97899801 1.834745
1.3664 0.98628998 1.8320309
1.35868 0.99663496 1.8314861
1.35232 1.16803 1.876178
1.33035 1.16407 1.866218
1.3259 1.17581 1.868022
1.3274001 1.19195 1.873953
1.4053 0.91102302 1.8199761
1.40256 0.91981399 1.8199029
1.4096899 0.93400103 1.825914
1.34582 1.16293 1.864572
1.33216 1.16395 1.857895
1.3239599 1.1727901 1.857411
1.32353 1.1877201 1.8637061
1.41197 0.91449797 1.8183091
1.4011199 0.91938102 1.81293
1.4069999 0.93458003 1.8178531
1.41 0.94910204 1.8218341
1.34561 1.16225 1.854592
1.33332 1.16676 1.850593
1.3276801 1.17627 1.8510032
1.3205299 1.18425 1.853121
1.43865 0.94179296 1.822428
1.41373 0.93871599 1.8128461
1.40851 0.94997901 1.8134429
1.40263 0.96279901 1.814335
1.39968 0.97635806 1.817413
1.3581101 1.15391 1.844566
1.3478 1.1594599 1.843713
1.3402499 1.16827 1.845816
1.33123 1.1755 1.8443232
1.32584 1.18471 1.846173
1.45024 0.94742697 1.82231
1.43058 0.94659799 1.8134249
1.40871 0.94859904 1.80362
1.40407 0.96248597 1.8060031
1.39972 0.97550797 1.808599
1.37293 1.14999 1.841586
1.3486999 1.14491 1.8307511
1.3434801 1.1543499 1.832968
1.3411 1.1672 1.8378531
1.33522 1.17858 1.840634
1.43504 0.93902498 1.805954
1.42197 0.94322997 1.799962
1.40808 0.94895601 1.7943399
1.40493 0.96191704 1.7963281
1.39553 0.973526 1.796262
1.38695 0.98367602 1.794049
1.3599601 1.1400599 1.8259619
1.3605499 1.1506801 1.8289059
1.35127 1.15748 1.829563
1.45225 0.93474406 1.799606
1.43092 0.93546206 1.7923529
1.4202499 0.94371104 1.790674
1.40961 0.95177901 1.788494
1.4099801 0.96561599 1.7909989
1.3987801 0.97433501 1.7887081
1.3727601 1.1463701 1.823616
1.37418 1.16022 1.8298191
1.38395 1.1767299 1.8377051
1.44056 0.92657697 1.7849991
1.4335201 0.93440402 1.7849801
1.43005 0.94468099 1.786333
1.42387 0.95594102 1.7877921
1.38337 1.13809 1.8154401
1.3700999 1.13727 1.809207
1.38331 1.16582 1.8283139
1.4736 0.92805201 1.79048
1.4585201 0.93182802 1.785388
1.4557899 0.94491303 1.78871
1.4545701 0.95892602 1.790876
1.4686 0.97769302 1.798408
1.39788 1.137 1.8145339
1.3852299 1.13578 1.807343
1.37185 1.1353099 1.801808
1.4692501 0.91251504 1.776389
1.4631701 0.92092299 1.776705
1.4658999 0.93688303 1.782753
1.4769599 0.95851403 1.7930899
1.4785299 0.97311205 1.7964981
1.47609 0.98214996 1.7970481
1.3783299 1.11651 1.7892112
1.38302 1.13087 1.7970331
1.4721401 0.90178299 1.7671301
1.46347 0.90750003 1.764686
1.46113 0.918576 1.7677679
1.4824201 0.94925499 1.7871441
1.4947 0.97959298 1.799203
1.4694501 0.97942597 1.788519
1.38358 1.1060901 1.779109
1.3861301 1.1187301 1.7857981
1.4866201 0.89336896 1.760499
1.46793 0.89661103 1.755038
1.45963 0.90355301 1.7540759
1.4587101 0.91306901 1.75606
1.4541299 0.97805297 1.7636621
1.3919799 1.09814 1.7712719
1.38063 1.1009899 1.769509
1.47276 0.89738405 1.748885
1.4666001 0.90602899 1.749976
1.4753101 0.91937101 1.755829
1.4718801 0.97748804 1.7649209
1.4519501 0.97688901 1.756736
1.4529401 0.98900199 1.760222
1.3862 1.09211 1.7591369
1.39256 1.1054901 1.7651129
1.4526601 1.1702501 1.800934
1.45263 0.97747302 1.751637
1.44412 0.98600501 1.749545
1.37778 1.00658 1.7262812
1.42995 1.0899299 1.7622521
1.39623 1.09623 1.7551911
1.40602 1.115 1.7623981
1.4495 1.16638 1.792699
1.43836 1.17321 1.790305
1.4607401 0.98240197 1.750249
1.4112101 1.09078 1.7498441
1.4080901 1.10405 1.7534381
1.4217 1.12693 1.763262
1.4314599 1.15037 1.773921
1.42515 1.1627899 1.7734281
1.4228599 1.1760299 1.7781022
1.4079 1.08793 1.738667
1.41531 1.1072299 1.748134
1.44291 1.14608 1.768658
1.43199 1.15342 1.7665451
1.43372 1.16875 1.7700421
1.42301 1.17588 1.7697681
1.40297 1.08556 1.7275602
1.4160299 1.10733 1.738935
1.42782 1.13043 1.750851
1.4465699 1.16178 1.766987
1.4433399 1.17468 1.769037
1.43405 1.18241 1.7683442
1.40259 1.08399 1.7191941
1.4083099 1.10197 1.7259469
1.42311 1.12334 1.738071
1.4027699 1.09798 1.714101
1.41373 1.1166301 1.7240289
1.37983 0.96248597 1.9125561
1.3990401 0.962659 1.9041361
1.38857 0.96755999 1.8996711
1.44481 0.96081805 1.9196899
1.43655 0.96635699 1.9164529
1.4138401 0.96701503 1.904176
1.39169 0.96966004 1.891709
1.45623 0.96640801 1.9167459
1.4376401 0.96718198 1.9090741
1.4094501 0.966914 1.892482
1.39108 0.97165799 1.882061
1.37049 0.97307199 1.871302
1.467 0.97133499 1.91497
1.44004 0.96893603 1.900954
1.40974 0.96921402 1.8841571
1.3905001 0.972633 1.874514
1.37323 0.97536302 1.8659201
1.36148 0.98404294 1.860231
1.3325701 0.98601699 1.8452249
1.31675 0.98909795 1.837687
1.3287801 1.00389 1.8471789
1.4499401 0.97177398 1.8980371
1.4430901 0.97807401 1.8959259
1.38589 0.97331703 1.864419
1.36914 0.97687501 1.856156
1.3568201 0.98293197 1.849224
1.3494201 0.99249494 1.848793
1.33341 0.99721801 1.8425701
1.3433599 1.01138 1.8494381
1.3405 1.16303 1.888887
1.33565 1.17092 1.8890641
1.32836 1.1768299 1.8879489
1.33222 1.18936 1.8939929
1.46433 0.97752601 1.896156
1.3692501 0.97789198 1.847581
1.35748 0.983374 1.8422061
1.35405 0.99337602 1.8429711
1.3468601 1.00358 1.8424491
1.34701 1.0143399 1.843527
1.33786 1.16143 1.880283
1.3293201 1.1669 1.877805
1.3257201 1.1764801 1.879841
1.403 0.91397303 1.836889
1.40177 0.92163301 1.8375549
1.4581399 0.96608806 1.879557
1.46496 0.97668505 1.8866282
1.37523 0.97971201 1.8408139
1.3632801 0.98689795 1.8377301
1.3477401 1.16667 1.877635
1.33167 1.1667299 1.871298
1.32775 1.1779 1.872025
1.4007699 0.91399002 1.8291861
1.3995 0.92234397 1.829725
1.43633 0.95554197 1.856837
1.45392 0.97130698 1.871056
1.3485401 1.16706 1.8697821
1.33732 1.17066 1.865556
1.3319299 1.1811 1.8661551
1.40838 0.91803199 1.8266259
1.40011 0.92378998 1.8227609
1.41879 0.94460505 1.837079
1.43071 0.96184504 1.847628
1.34743 1.1660299 1.8604721
1.33866 1.17074 1.856495
1.3340199 1.18168 1.8586332
1.4032201 0.91706496 1.815829
1.40179 0.92587501 1.8156079
1.40881 0.93974 1.8223281
1.4114101 0.95428103 1.8273621
1.42673 0.975142 1.8405591
1.34474 1.1634899 1.8478671
1.3410201 1.17388 1.8505881
1.3347099 1.1834999 1.850058
1.40737 0.92895699 1.812196
1.40444 0.93721396 1.8119171
1.40605 0.95093805 1.8144721
1.40622 0.96570504 1.8196881
1.40005 0.97678 1.8177741
1.35306 1.15569 1.8403201
1.34592 1.16107 1.838318
1.34513 1.1753399 1.8432541
1.33407 1.184 1.841736
1.41268 0.942895 1.8082559
1.4017501 0.94954002 1.80287
1.40451 0.96527803 1.808486
1.39726 0.97682405 1.808147
1.36088 1.1447001 1.829626
1.3517101 1.15154 1.8293829
1.3502901 1.16413 1.833823
1.3486 1.17551 1.836042
1.34393 1.1871901 1.8391949
1.4178799 0.93753099 1.8002789
1.4156101 0.946145 1.8008801
1.40446 0.95311093 1.7972901
1.40957 0.96742994 1.801241
1.4012399 0.97785497 1.8012069
1.3699001 1.13545 1.8224789
1.3531799 1.1372399 1.8166909
1.34376 1.14394 1.8160241
1.35401 1.16401 1.8279001
1.35092 1.17734 1.831766
1.4178101 0.945216 1.7926559
1.4165801 0.95726699 1.794731
1.408 0.96615195 1.7922651
1.3661 1.13142 1.8124729
1.3579299 1.13629 1.810419
1.35409 1.14704 1.8140689
1.4347701 0.94033098 1.7892849
1.4250599 0.94829202 1.788638
1.42931 0.96136004 1.792323
1.42539 0.97420901 1.7938049
1.3818899 1.12898 1.810434
1.37265 1.13308 1.8077271
1.37219 1.14375 1.8118601
1.4574001 0.93567002 1.790115
1.4421699 0.94023806 1.7844959
1.43744 0.95192498 1.786221
1.4433 0.96838999 1.792254
1.4471899 0.98274696 1.797457
1.38211 1.1264 1.8005279
1.3744701 1.13246 1.8008209
1.4945599 0.91170305 1.793324
1.48132 0.916219 1.787843
1.45242 0.91859198 1.7759421
1.44726 0.92987704 1.777088
1.44479 0.94243205 1.779588
1.45755 0.96232396 1.7904041
1.4550301 0.97308195 1.7918891
1.40211 1.1264701 1.8006561
1.37871 1.12124 1.788039
1.3805299 1.1326001 1.7939481
1.4830201 0.907884 1.78119
1.46474 0.91088301 1.7722589
1.4569701 0.92152494 1.7713449
1.4471201 0.92941397 1.7693992
1.4676199 0.95582002 1.787505
1.46249 0.97454399 1.7895081
1.3937399 1.11999 1.787117
1.3794099 1.1206 1.779781
1.3736501 1.1269001 1.77949
1.4728799 0.90318298 1.7677209
1.46753 0.90957296 1.7646341
1.46052 0.91897601 1.7635682
1.4556301 0.93041605 1.763309
1.4692501 0.977157 1.773935
1.37063 1.01555 1.7424741
1.3763299 1.10817 1.7667999
1.3802099 1.12176 1.7729541
1.38383 1.13413 1.776377
1.4900999 0.89749801 1.7626221
1.47315 0.90096605 1.757504
1.4684 0.910501 1.757247
1.4639599 0.92146301 1.7571179
1.46346 0.93361396 1.759104
1.4616901 0.94910896 1.761727
1.46729 0.96649396 1.766273
1.4631799 0.97462797 1.764679
1.37541 1.00749 1.7357961
1.40929 1.1001899 1.76854
1.3860699 1.09842 1.7587341
1.37922 1.1071299 1.7594769
1.3830299 1.12243 1.76563
1.4059199 1.15101 1.7812101
1.47427 0.90177804 1.7507941
1.47618 0.91400301 1.7530609
1.47368 0.92406601 1.7533789
1.4692301 0.96836197 1.7612491
1.46295 0.975299 1.7577181
1.4750301 0.98878598 1.765535
1.40126 1.09488 1.7571921
1.3889799 1.09771 1.752081
1.38643 1.10981 1.755164
1.39754 1.13162 1.7647901
1.4198101 1.15991 1.780829
1.43384 1.18214 1.792172
1.49292 0.92891997 1.7544501
1.4692501 0.97066599 1.752798
1.4659599 0.97701401 1.7513119
1.39759 1.09017 1.7458029
1.3916299 1.1 1.746842
1.40408 1.1206601 1.756402
1.4211999 1.1457701 1.768953
1.4344701 1.16819 1.77987
1.47017 0.97101897 1.743274
1.46083 0.97457296 1.7396021
1.39272 1.08391 1.733777
1.39869 1.10063 1.74203
1.43318 1.1397001 1.7634909
1.43946 1.15591 1.770105
1.45085 1.1771801 1.780612
1.46758 0.97008795 1.73295
1.46593 0.97791803 1.7330139
1.39214 1.08377 1.726488
1.4295501 1.12692 1.7516321
1.44604 1.1464801 1.763069
1.4488699 1.16041 1.7680451
1.38966 1.08143 1.715263
1.43682 1.13046 1.7495151
1.45907 1.15464 1.76459
1.4063801 1.10058 1.7173221
1.3073399 1.0221701 1.9050751
1.3133 1.01726 1.9015399
1.31733 1.0260199 1.9058341
1.32661 1.02232 1.9037399
1.32844 1.03081 1.905821
1.3281599 1.0320801 1.8979551
1.3529899 0.97096705 1.8769931
1.3527901 0.98125297 1.8787631
1.3386999 1.0163701 1.8813931
1.3915499 0.96538401 1.8896271
1.37384 0.969235 1.88209
1.3472301 0.99257398 1.8719729
1.33099 1.00035 1.8656061
1.3384801 1.01372 1.87237
1.4024299 0.96811205 1.889426
1.38543 0.97089696 1.8813421
1.37105 0.97790903 1.8757019
1.33443 1.00019 1.86024
1.47241 0.974675 1.917845
1.41321 0.97251403 1.88923
1.3922701 0.97235703 1.8779792
1.35321 0.99413103 1.859043
1.34384 1.00362 1.856385
1.34911 1.18005 1.900336
1.33839 1.18346 1.8946301
1.4688801 0.97387803 1.909256
1.4733901 0.98272103 1.9142941
1.3610801 0.98755205 1.854059
1.3507 0.99527603 1.850356
1.34803 1.00437 1.8497949
1.34638 1.01553 1.8517331
1.3336099 1.17258 1.8836551
1.3275101 1.17864 1.8806
1.3328 1.19183 1.88675
1.4671201 0.96469998 1.898194
1.46401 0.97105199 1.899611
1.33318 1.17252 1.875083
1.32927 1.1796 1.87455
1.32655 1.1896601 1.875392
1.4280601 0.93719399 1.85989
1.4563099 0.958619 1.881804
1.4604 0.969998 1.8876181
1.3577901 0.99686503 1.8370011
1.3337899 1.17249 1.8665241
1.33199 1.18108 1.8681951
1.32903 1.19252 1.868273
1.41716 0.92385399 1.8450079
1.40117 0.92565298 1.835299
1.44726 0.95574301 1.869071
1.4540601 0.96760905 1.875623
1.44293 0.97679901 1.8704571
1.33781 1.17407 1.8601041
1.3377099 1.1853299 1.8633881
1.40439 0.91983396 1.8306869
1.3962899 0.92445701 1.8258231
1.4019799 0.93552399 1.829236
1.4438901 0.96686697 1.8609461
1.4313201 0.97539705 1.854874
1.3587199 1.1709 1.857659
1.34491 1.1744699 1.853266
1.33778 1.1836901 1.853812
1.4013901 0.92865896 1.821779
1.40211 0.937985 1.8228549
1.41763 0.95508599 1.8341091
1.43299 0.97291899 1.8473182
1.3471899 1.16423 1.8426309
1.3424201 1.17427 1.844484
1.33735 1.18451 1.8452201
1.33524 1.1944699 1.8453951
1.4006701 0.93029195 1.8131329
1.40674 0.94133103 1.8180969
1.41758 0.95713598 1.825567
1.4201199 0.96907204 1.8311551
1.34914 1.15221 1.831277
1.34549 1.16074 1.8331039
1.34263 1.1705999 1.834769
1.3443401 1.18608 1.840305
1.41088 0.94295996 1.8124121
1.40882 0.95262003 1.811568
1.4087 0.96623904 1.815159
1.363 1.1473401 1.829217
1.34914 1.14897 1.8223779
1.34646 1.16004 1.825348
1.35086 1.17598 1.831973
1.3519599 1.19057 1.83742
1.41752 0.94701403 1.8070871
1.4048101 0.95141298 1.801041
1.4095399 0.96358705 1.805701
1.405 0.97696704 1.80581
1.35412 1.1406701 1.8149741
1.3565401 1.15277 1.8190219
1.35304 1.16466 1.8221179
1.35815 1.1784999 1.8286431
1.4183099 0.94689798 1.7988181
1.41644 0.95536596 1.7996609
1.4129601 0.96754897 1.7986691
1.3731799 1.13967 1.815639
1.3604801 1.14254 1.8100121
1.3562 1.15038 1.809669
1.3552099 1.16208 1.814386
1.4236701 0.94703203 1.792688
1.41985 0.95679301 1.7922751
1.4275501 0.97195899 1.797462
1.40827 0.97786105 1.790168
1.3649499 1.1349701 1.803033
1.35918 1.14131 1.8020489
1.35429 1.1483999 1.802166
1.44964 0.94333702 1.795634
1.4343899 0.94927496 1.7898111
1.4369 0.96245104 1.7930111
1.4402499 0.97616303 1.796267
1.36782 1.13534 1.7983551
1.36342 1.14226 1.798347
1.45486 0.92194504 1.7840109
1.4483701 0.930906 1.7844101
1.4418401 0.93925399 1.783434
1.44278 0.952003 1.786078
1.4527299 0.96777898 1.7934921
1.45145 0.97904801 1.7952411
1.39052 1.12529 1.789536
1.4616001 0.92181998 1.780105
1.4522001 0.92986798 1.7782291
1.4442 0.940597 1.777137
1.45715 0.95697099 1.785128
1.4771899 0.975299 1.7995089
1.38774 1.11598 1.780542
1.38809 1.12334 1.781697
1.4649 0.91280699 1.7722659
1.46504 0.92247099 1.7755082
1.4550101 0.92921203 1.7709531
1.45416 0.94172597 1.773461
1.46461 0.95733595 1.7799881
1.46689 0.96892303 1.784415
1.38767 1.1146901 1.772655
1.3971601 1.12701 1.7790229
1.48804 0.90467298 1.7722712
1.4706399 0.91045797 1.765511
1.46276 0.92089897 1.765777
1.46443 0.93324995 1.769156
1.4641401 0.94374496 1.7707721
1.46789 0.96977305 1.774997
1.4038901 1.11055 1.770267
1.39187 1.11528 1.765752
1.4011799 1.12933 1.773415
1.50132 0.89556295 1.7694889
1.48002 0.90033895 1.76069
1.47644 0.910707 1.7602161
1.46899 0.91981202 1.7601449
1.4667101 0.93055606 1.761364
1.4728199 0.965792 1.767833
1.46667 0.97216696 1.7646592
1.48615 0.99326795 1.7746758
1.4050599 1.0996499 1.7607781
1.38843 1.10137 1.753419
1.38788 1.11176 1.7546359
1.4092101 1.13388 1.7689841
1.4414001 1.1715699 1.7896271
1.4860699 0.90179706 1.755713
1.47351 0.90982598 1.7514402
1.4743401 0.92083299 1.754346
1.47991 0.93209803 1.7583859
1.47237 0.96709603 1.759551
1.46813 0.97380501 1.7584149
1.46696 0.98504204 1.7587311
1.4736301 0.998182 1.764055
1.4007601 1.09456 1.749763
1.39756 1.10432 1.749969
1.4010899 1.11866 1.754265
1.4157201 1.13801 1.764223
1.4296001 1.15922 1.7747711
1.4846801 0.92318296 1.750343
1.49046 0.97353303 1.7612162
1.47381 0.97696 1.7539802
1.45789 0.98327696 1.7463031
1.40095 1.09304 1.741254
1.40836 1.1096901 1.7478451
1.4274899 1.13186 1.7605851
1.43582 1.14943 1.767601
1.4376301 1.1631 1.7709781
1.4389999 1.1766 1.775328
1.4731599 0.97647005 1.7459439
1.46849 0.98475099 1.743943
1.40553 1.09604 1.736207
1.42602 1.11991 1.749856
1.4393699 1.13896 1.758262
1.4402699 1.15351 1.7623111
1.44371 1.16825 1.7677929
1.4429899 1.18074 1.7702881
1.4714 0.97781098 1.7369239
1.46175 0.98453301 1.7322241
1.39767 1.08987 1.722393
1.43774 1.1266999 1.7472281
1.4398599 1.1378601 1.7500571
1.44168 1.1498101 1.75372
1.4467 1.16757 1.761457
1.4467399 1.1827201 1.7661231
1.39446 1.08841 1.7121469
1.41591 1.1112599 1.7268271
1.43687 1.13506 1.741165
1.44936 1.15387 1.751434
1.4109 1.1068699 1.7150251
1.4549299 1.1464801 1.7461051
1.3105 1.0107 1.9190741
1.3042901 1.01687 1.916519
1.3335299 0.99386299 1.918927
1.32621 1.01211 1.919495
1.31398 1.01913 1.914991
1.3175101 1.02765 1.916494
1.3354201 0.98705101 1.9126071
1.32613 1.0222499 1.91445
1.32319 1.0303501 1.911543
1.37163 0.95449901 1.9077551
1.30415 0.97092301 1.8674451
1.37084 0.96349299 1.902385
1.31319 0.96683198 1.8672329
1.30213 0.97086799 1.860393
1.3383 0.99509501 1.887876
1.37603 0.96615899 1.8988141
1.3599601 0.969908 1.8892529
1.30135 0.97218698 1.854302
1.32412 0.98810095 1.8697641
1.3399 1.00343 1.8835181
1.38353 0.96894598 1.895328
1.36643 0.97401398 1.8855231
1.3216799 0.97882897 1.858725
1.32133 0.98850602 1.859377
1.33883 1.00438 1.874176
1.4330499 0.96950996 1.915455
1.38572 0.97062105 1.888371
1.37237 0.97658402 1.881744
1.3457899 0.98131502 1.865
1.3246001 0.98735601 1.8538741
1.3403 1.00346 1.865252
1.43562 0.97068 1.908995
1.39799 0.97269601 1.887619
1.3712399 0.97756499 1.8728659
1.34878 0.98256403 1.8581131
1.33705 0.99108201 1.852757
1.3387899 1.00378 1.8555231
1.46404 0.97571898 1.917624
1.42011 0.976192 1.89566
1.36912 0.97853106 1.862226
1.3444901 0.98365402 1.847657
1.33258 0.99012494 1.8416541
1.33613 1.00105 1.845697
1.4675701 0.96915001 1.909794
1.4727299 0.97678703 1.914324
1.3616201 0.985448 1.849539
1.34663 0.99416494 1.842314
1.3423599 1.00534 1.842604
1.45699 0.96680802 1.8932431
1.46817 0.97603202 1.903107
1.3591499 0.98704696 1.840314
