# .PCD v0.7 - Point Cloud Data file format
VERSION 0.7
FIELDS x y z
SIZE 4 4 4
TYPE F F F
COUNT 1 1 1
WIDTH 1746
HEIGHT 1
VIEWPOINT 0 0 0 1 0 0 0
POINTS 1746
DATA ascii
1.45893 1.13254 1.610005
1.5541099 1.13736 1.6378571
1.4536799 1.1206 1.600139
1.416 0.918706 1.6194699
1.43062 0.98614198 1.607991
1.49129 1.11487 1.604696
1.4055901 0.915483 1.6118289
1.40821 0.92567098 1.6086819
1.42173 0.992302 1.598507
1.42591 1.00113 1.59755
1.4020599 0.91971499 1.601841
1.40552 0.929142 1.5994571
1.42676 0.98998904 1.593312
1.43081 0.99935502 1.592696
1.4155999 0.89787298 1.602773
1.4024299 0.92020202 1.594225
1.4185801 0.91926199 1.5990139
1.4207001 0.92921603 1.5979919
1.44645 0.975317 1.593665
1.4198899 0.90408999 1.59527
1.4717799 0.95783997 1.598465
1.46852 0.96950698 1.595551
1.4760201 0.95400202 1.5952491
1.49615 1.1240699 1.7067161
1.4917301 1.1223999 1.701453
1.48244 1.10763 1.7059439
1.48594 1.11983 1.6954581
1.48541 1.11173 1.696597
1.4736199 1.1125599 1.692804
1.49289 1.1141 1.6860241
1.49842 1.11485 1.675907
1.4759599 1.09009 1.6874969
1.5007499 1.11456 1.6671319
1.4896001 1.09771 1.6730231
1.49896 1.11278 1.659947
1.48982 1.0971 1.664776
1.4843601 1.08127 1.6697869
1.5078101 1.11859 1.648322
1.4914999 1.0999 1.656456
1.48414 1.08287 1.661756
1.48935 1.18108 1.6338519
1.50191 1.14332 1.634516
1.5019299 1.1161599 1.6421241
1.4884501 1.0952101 1.6505319
1.50648 1.1199501 1.63201
1.49789 1.10158 1.6383771
1.49842 1.10313 1.6299969
1.50291 1.11909 1.617762
1.50737 1.1084501 1.618659
1.4823101 1.11892 1.617138
1.49403 1.1148601 1.614242
1.49815 1.10488 1.6149429
1.50202 1.09234 1.6145461
1.4571899 1.14385 1.611012
1.4969001 1.1037899 1.607661
1.4984699 1.0905 1.607657
1.4519099 1.15203 1.605399
1.44645 1.1354901 1.607865
1.4401801 1.11808 1.612818
1.4938999 1.09957 1.6014512
1.43946 1.15486 1.60267
1.44516 1.14644 1.6013161
1.4419 1.1328601 1.602041
1.45022 1.123 1.60221
1.43425 1.1402301 1.5985
1.4373399 1.1299 1.5967599
1.4444299 1.1211699 1.596804
1.4485099 0.94878 1.6160159
1.43064 0.92787004 1.62481
1.4322799 1.13779 1.5926809
1.43155 1.12607 1.593417
1.4522799 0.95180899 1.607661
1.4391999 0.93368697 1.615576
1.46657 0.97215104 1.5942121
1.4555299 0.95548898 1.598543
1.4558799 0.94334394 1.6012601
1.4580901 0.95830703 1.590022
1.4563299 0.94315302 1.592496
1.4772501 1.09961 1.70147
1.47448 1.07724 1.7062341
1.4860201 1.07198 1.703063
1.5127001 1.12694 1.674467
1.4876699 1.10585 1.6884259
1.4757899 1.08865 1.697142
1.47692 1.0768 1.6980721
1.5086399 1.1268901 1.6698101
1.5036099 1.11487 1.674129
1.4873101 1.09532 1.68384
1.47377 1.07722 1.692284
1.49852 1.1229399 1.667899
1.50946 1.11871 1.664516
1.49769 1.10093 1.6709509
1.48858 1.08401 1.678174
1.50086 1.07932 1.672718
1.49248 1.1188099 1.663852
1.51017 1.1159101 1.657267
1.49483 1.09823 1.6649491
1.49446 1.08605 1.6668921
1.5112399 1.08366 1.6613449
1.51482 1.11763 1.6476409
1.49474 1.09716 1.657836
1.49194 1.08386 1.659943
1.5082201 1.0822899 1.655881
1.4766201 0.98380303 1.681783
1.5017101 1.10198 1.6466571
1.49001 1.08409 1.6533679
1.50297 1.0804499 1.650226
1.4894099 1.0007399 1.664336
1.4769701 0.98407996 1.6732601
1.46495 1.17062 1.640076
1.5146899 1.14665 1.625448
1.5158501 1.1119 1.632437
1.4901299 1.0745 1.647037
1.49115 1.00133 1.655515
1.4876699 0.98961401 1.660477
1.4843299 1.17612 1.626875
1.49343 1.16764 1.624449
1.51311 1.10803 1.626164
1.4864999 1.02061 1.6488611
1.4910899 1.0123301 1.6468829
1.49437 1.00271 1.6473831
1.48864 0.99015599 1.6515201
1.4869901 1.1736799 1.619516
1.5094399 1.10571 1.6207401
1.4940699 1.0858101 1.6293911
1.48997 1.0227101 1.638723
1.49468 1.01526 1.638083
1.4943299 1.00324 1.639908
1.48717 0.98900706 1.64466
1.5073301 1.11677 1.6112311
1.5016299 1.07995 1.618837
1.49402 1.0253299 1.629259
1.49334 1.01499 1.6312441
1.4924899 1.00226 1.6318871
1.4884399 0.98982102 1.6368359
1.49906 1.14389 1.606119
1.4877901 1.11613 1.6103901
1.49698 1.11087 1.607991
1.50477 1.10269 1.60814
1.5003999 1.0799 1.612022
1.4924001 1.02422 1.622255
1.48791 1.01108 1.6256011
1.49035 1.00124 1.6246459
1.48912 0.99075401 1.628324
1.45636 1.13583 1.610943
1.44539 1.1181099 1.614614
1.50291 1.0903701 1.6035271
1.48866 1.0228 1.6159281
1.48823 1.01183 1.61722
1.49449 1.00315 1.616362
1.48708 0.98954803 1.6207831
1.45577 1.1512101 1.6028011
1.4500901 1.1363701 1.605763
1.45441 1.12343 1.605054
1.5054401 1.09114 1.594484
1.4858201 1.01124 1.6092819
1.4890699 1.0005699 1.611176
1.48325 0.98730105 1.6145831
1.41348 1.13982 1.607586
1.4375999 1.14133 1.601846
1.44886 1.13334 1.599213
1.44629 1.11981 1.5998809
1.4904201 1.01396 1.600659
1.4888201 1.00218 1.6030141
1.48269 0.98694199 1.606818
1.42194 1.1336399 1.600072
1.43767 1.12851 1.5957119
1.4867301 1.0112799 1.595307
1.4858299 0.99811 1.5973471
1.47606 0.98073798 1.6001531
1.4532001 0.95721102 1.608719
1.42714 1.1241001 1.5928241
1.46664 0.97576797 1.596519
1.4566901 0.95692599 1.601362
1.4202499 0.91362703 1.6172141
1.4477299 0.96083802 1.5973899
1.4505701 0.95035201 1.596223
1.44296 0.931844 1.601653
1.4351401 0.91320604 1.6063761
1.43161 0.950746 1.596459
1.4307201 0.93903506 1.596689
1.42284 0.94631499 1.593821
1.47483 0.97644502 1.6822369
1.48792 1.16394 1.6437399
1.4744501 0.97636199 1.674574
1.49494 1.1748101 1.634738
1.4904699 1.1647899 1.6376821
1.49948 1.0724601 1.6445181
1.48708 1.00682 1.658717
1.4915199 0.99644202 1.6566291
1.47912 0.97784698 1.664796
1.50155 1.07358 1.636369
1.48706 1.00848 1.6507901
1.4958 0.99851304 1.6473629
1.48735 0.981978 1.6535851
1.50308 1.15628 1.6197971
1.5075901 1.1427101 1.618353
1.50377 1.0742099 1.628226
1.4816 1.01748 1.6437371
1.4874201 1.0067 1.6433319
1.49562 0.99837095 1.6399649
1.4888 0.98403198 1.645615
1.4825101 0.96848899 1.649752
1.49472 1.1506801 1.616377
1.51245 1.1438401 1.611352
1.5136399 1.13341 1.612444
1.50675 1.07532 1.6203619
1.48724 1.00772 1.6351531
1.49336 0.99728698 1.634338
1.4885401 0.98262495 1.6380899
1.48015 0.96400905 1.6438589
1.5055701 1.14065 1.608593
1.51622 1.07926 1.6114911
1.48326 1.01947 1.6271991
1.48782 1.00736 1.626875
1.4888999 0.99515402 1.6293411
1.4863 0.98238897 1.631642
1.48201 0.96884 1.6356469
1.48153 0.953601 1.6392041
1.4434199 1.14808 1.6192391
1.4992 1.1258 1.605
1.50181 1.1183699 1.6033701
1.48812 1.00948 1.618963
1.49357 0.99927694 1.6200939
1.4875 0.98527396 1.6238449
1.44055 1.1569101 1.61384
1.4413699 1.14605 1.6129669
1.44147 1.13502 1.613115
1.44209 1.1223 1.612793
1.49122 1.00924 1.610471
1.49099 0.99788594 1.6137179
1.48386 0.98446 1.615805
1.4303999 1.1419799 1.6112812
1.4428301 1.13609 1.607088
1.44549 1.12441 1.6059151
1.4866201 1.0100499 1.6047821
1.49143 0.997311 1.604684
1.4763401 0.97834295 1.610692
1.44438 1.1333799 1.599213
1.4531101 1.12463 1.596175
1.4893299 1.00872 1.5964459
1.48648 0.99451399 1.598561
1.4805 0.97962999 1.602531
1.45763 0.95773298 1.6115661
1.4449699 0.94209802 1.6168702
1.4324499 1.1280999 1.595369
1.4436001 1.12196 1.592514
1.48709 1.00849 1.5905471
1.4773101 0.98046899 1.5960879
1.47093 0.96357805 1.5996389
1.46442 0.95037198 1.6040759
1.41627 1.12301 1.595318
1.4640499 0.97147697 1.593094
1.46613 0.958947 1.59377
1.47331 0.952371 1.5932831
1.4358799 1.00564 1.5918621
1.44789 0.96472502 1.590987
1.4769701 1.11843 1.7097172
1.46552 1.17329 1.6995709
1.46715 1.1073 1.707433
1.4668201 1.1729 1.693405
1.4791901 1.10724 1.6940451
1.4533401 1.09168 1.707481
1.4688201 1.08435 1.6998709
1.45883 1.17108 1.689845
1.5188 1.1271 1.6653259
1.4809899 1.10747 1.685607
1.4678199 1.09526 1.693486
1.46916 1.08443 1.6918789
1.4616901 1.17072 1.6817929
1.5197001 1.1271 1.6600009
1.49766 1.11374 1.6709671
1.4783599 1.09788 1.6812481
1.48385 1.0883499 1.679108
1.47904 1.17377 1.667468
1.52736 1.1295099 1.6522659
1.50646 1.1165 1.661427
1.47774 1.0997 1.6745081
1.48002 1.0880001 1.673948
1.48838 1.07718 1.6695441
1.48313 1.17474 1.658667
1.4875901 1.16756 1.657333
1.4766901 1.09702 1.6682299
1.4807601 1.08647 1.665224
1.4887199 1.0768 1.6623681
1.4713299 0.98535597 1.6791071
1.47912 1.17334 1.653874
1.48123 1.08741 1.657364
1.47614 1.00017 1.666602
1.4745899 0.98724198 1.669785
1.48689 1.17549 1.6433051
1.4807299 1.09469 1.650085
1.48151 1.00124 1.6573681
1.48046 0.98901397 1.6596351
1.4853901 1.09612 1.639856
1.47147 0.99907601 1.6553659
1.4843899 0.99144697 1.6503189
1.48103 0.97753197 1.6534311
1.48105 0.96609396 1.654043
1.48884 1.0971299 1.630964
1.4667701 0.99487704 1.6505311
1.49189 0.99314696 1.64074
1.4846201 0.98021799 1.64446
1.48009 0.96435702 1.647229
1.4965301 1.09896 1.6207501
1.4604 0.991831 1.6472101
1.4835601 0.98918897 1.6386529
1.48078 0.975559 1.639837
1.47867 0.96238196 1.6410401
1.5074401 1.10153 1.609446
1.4942399 1.0900199 1.6164929
1.4855901 0.9874 1.6327538
1.4608799 0.95776701 1.64291
1.4747901 0.95085096 1.6385071
1.5108099 1.10244 1.601447
1.49824 1.09122 1.607692
1.4811 0.99283302 1.6171521
1.4542 1.14429 1.6108551
1.4659599 1.13859 1.607157
1.50883 1.09399 1.597239
1.46829 0.99786299 1.61646
1.48594 0.99251294 1.610236
1.4500901 1.1429499 1.6063972
1.44636 1.1331 1.607897
1.4854801 1.00273 1.6039751
1.47401 0.98657602 1.609006
1.46383 0.97196698 1.6134149
1.4549899 0.95782995 1.616702
1.4433299 1.15043 1.604048
1.44576 1.1389099 1.6019909
1.4341999 1.12739 1.6049891
1.48295 1.01598 1.5978131
1.48847 1.00503 1.595217
1.48364 0.991108 1.5988801
1.47023 0.97432899 1.604967
1.4669701 0.96173799 1.6071041
1.4629401 0.951603 1.609376
1.41619 1.12246 1.6062911
1.4417399 1.12043 1.597263
1.47886 1.01308 1.592081
1.48455 0.993554 1.591257
1.4731799 0.97764397 1.5965451
1.46733 0.96239096 1.599393
1.46763 0.95270401 1.601595
1.4295501 1.11761 1.597074
1.46518 0.97312301 1.591979
1.4628799 0.95958799 1.5927091
1.46606 0.94954598 1.594003
1.42722 0.91693199 1.608277
1.44803 0.96674502 1.5905371
1.4453399 0.953435 1.591442
1.4333099 0.910914 1.601149
1.4254601 0.95856905 1.5915281
1.4243201 0.94703203 1.591452
1.40446 0.94016504 1.5911599
1.37454 0.93716002 1.591725
1.5453501 1.15567 1.69749
1.54672 1.1693599 1.689183
1.55866 1.15609 1.685171
1.5588299 1.16188 1.676548
1.54793 1.1689 1.676705
1.55338 1.16113 1.673432
1.48189 1.1720999 1.692518
1.4664501 1.1646 1.699495
1.4905499 1.16056 1.6896701
1.4762601 1.11672 1.699227
1.4679101 1.1644599 1.693282
1.47589 1.15905 1.690654
1.5499899 1.14785 1.6593939
1.54994 1.14211 1.660515
1.484 1.11724 1.6904111
1.45847 1.10537 1.7005661
1.45789 1.0949501 1.702583
1.4676801 1.16337 1.686766
1.46946 1.15694 1.6856771
1.5355499 1.14512 1.659008
1.5494701 1.1404901 1.653739
1.53679 1.13292 1.6595501
1.45013 1.10244 1.6955441
1.4617 1.09491 1.693009
1.47229 1.08437 1.6872549
1.4666499 1.1619101 1.680629
1.4653101 1.15497 1.680468
1.47953 1.14956 1.6739389
1.54562 1.1391101 1.6485211
1.5419099 1.1328501 1.6509781
1.4409801 1.10085 1.692415
1.4805299 1.08628 1.676958
1.4790699 1.07526 1.677609
1.4985299 1.1630599 1.658354
1.4866201 1.15562 1.664798
1.49503 1.1498101 1.660977
1.54735 1.1381301 1.640668
1.5466599 1.13221 1.6413541
1.4822099 1.07556 1.6698849
1.48483 1.15456 1.658379
1.48722 1.14666 1.656778
1.47597 0.99356496 1.669426
1.4648499 0.97880203 1.6750571
1.48727 1.15327 1.650391
1.49183 1.14498 1.648129
1.4752699 1.00352 1.662062
1.4796001 0.99147499 1.6602899
1.4916701 1.1533999 1.643544
1.48261 1.14486 1.6471311
1.4956 1.13653 1.641812
1.50614 1.11792 1.636333
1.47644 1.00261 1.6537869
1.48734 0.99400705 1.650215
1.47277 0.978921 1.6566172
1.4828999 1.00506 1.644361
1.4772201 0.99432701 1.6473011
1.4789101 1.00536 1.6389011
1.46383 0.992697 1.6440219
1.45384 0.95977896 1.6523199
1.47706 1.00334 1.631747
1.4603101 0.99164701 1.638636
1.46123 0.95157897 1.6446151
1.47769 1.00546 1.6237561
1.4600999 0.99229699 1.6323239
1.4838201 1.1280301 1.6074811
1.50688 1.1235601 1.6006799
1.4799299 1.00552 1.615073
1.4623801 0.99359 1.623999
1.4807899 1.11955 1.6035839
1.51454 1.09242 1.592036
1.47864 1.00489 1.608086
1.46746 0.99404901 1.614462
1.47965 1.00486 1.6002679
1.4797701 0.994412 1.602057
1.44301 0.96870798 1.613471
1.43028 0.95682096 1.6183541
1.48405 1.0056701 1.5915641
1.48075 0.99374199 1.594478
1.4647701 0.97747701 1.600859
1.4533099 0.96258903 1.6051761
1.44468 0.95016599 1.608285
1.4146 0.92190802 1.619369
1.4071201 0.91091901 1.622692
1.4656799 0.97980398 1.593539
1.4563099 0.96423894 1.5972431
1.4524499 0.95125502 1.5996201
1.4521401 0.93858397 1.599889
1.4185899 0.91607803 1.613113
1.43888 0.96874803 1.5955662
1.44056 0.95866501 1.5953461
1.4603599 0.94077498 1.590168
1.43985 0.923181 1.5984861
1.41457 0.90461701 1.6100149
1.4124401 0.96246696 1.598273
1.4204401 0.95570999 1.595121
1.41118 0.96156305 1.5929511
1.41263 0.95198601 1.591254
1.3734599 0.93825305 1.5952201
1.47658 1.12736 1.709908
1.45386 1.12121 1.7097189
1.4848599 1.12755 1.701539
1.4994099 1.1359401 1.699082
1.51925 1.14687 1.6945041
1.53819 1.1563201 1.690029
1.5484101 1.1665 1.6899021
1.51993 1.17997 1.694556
1.43853 1.11269 1.706835
1.47054 1.11876 1.6991462
1.4854 1.1272 1.6957279
1.50111 1.13679 1.693065
1.52503 1.14614 1.6868119
1.5339501 1.1560299 1.6843591
1.53116 1.16833 1.686506
1.50932 1.1832 1.691606
1.44946 0.99523103 1.6927639
1.3990101 1.0970501 1.7094071
1.42664 1.10346 1.702828
1.4478199 1.11094 1.698186
1.4804801 1.11719 1.691184
1.4901199 1.1287999 1.6901931
1.5111301 1.13828 1.68455
1.52821 1.14706 1.678997
1.53097 1.15868 1.6792639
1.51125 1.17312 1.6849761
1.497 1.18674 1.689162
1.43571 1.10144 1.694245
1.4576601 1.1078 1.689957
1.54176 1.13629 1.6693161
1.5373801 1.1457 1.669129
1.53327 1.1558 1.672137
1.5170399 1.16852 1.677314
1.5120701 1.18182 1.680081
1.53768 1.13667 1.6624471
1.541 1.14527 1.6615319
1.53929 1.15504 1.663363
1.52082 1.1035299 1.6559961
1.51595 1.1126599 1.658299
1.5218401 1.12155 1.6571029
1.52882 1.13403 1.656521
1.5415601 1.1433101 1.6552969
1.54216 1.15379 1.6551559
1.5296 1.16696 1.6579731
1.52536 1.1800901 1.6580842
1.45992 0.99679202 1.660771
1.51762 1.10209 1.6509259
1.5243 1.1111599 1.6512589
1.5267999 1.12274 1.650244
1.52906 1.14556 1.651322
1.5260401 1.1589 1.6525979
1.5244401 1.17118 1.653025
1.51957 1.18371 1.6547409
1.5000399 0.97802103 1.641253
1.4789 0.99138701 1.6486081
1.4902201 1.09745 1.6532291
1.51562 1.10123 1.646084
1.5221801 1.1111 1.645002
1.52565 1.14701 1.64494
1.5283999 1.15662 1.6456771
1.5283 1.16775 1.645594
1.52314 1.1805201 1.6471781
1.48286 0.99044198 1.6411151
1.48534 1.0977 1.65037
1.5244099 1.10307 1.637807
1.52545 1.15764 1.639886
1.48431 0.99015802 1.6335361
1.4681 1.00245 1.639523
1.4838699 0.98962194 1.627036
1.47226 1.00035 1.631351
1.47658 0.96810097 1.618217
1.47734 0.97798204 1.619574
1.4626499 0.99282998 1.6262081
1.4638001 1.0036 1.6275601
1.51352 1.14663 1.621537
1.4998801 1.16125 1.6252249
1.48352 1.17485 1.6304791
1.4664999 0.95656306 1.6132361
1.45858 0.96962303 1.617883
1.46586 0.97923696 1.6177249
1.459 0.99195802 1.6201019
1.51214 1.1124901 1.6122
1.50646 1.1242299 1.6153101
1.45912 1.1574 1.6287249
1.4629899 1.1675 1.6298801
1.4385699 0.91331595 1.6133
1.4269099 0.92956299 1.6164621
1.4225999 0.94436598 1.618127
1.44538 0.95210403 1.6132269
1.4544799 0.96111506 1.612558
1.45664 0.97123098 1.6139059
1.45146 0.98338401 1.615562
1.4526 0.99556297 1.6153421
1.4975901 1.10642 1.610751
1.4903599 1.11606 1.6124701
1.4787199 1.12902 1.61628
1.4450101 1.14633 1.62589
1.4413 1.15748 1.6273941
1.4479699 1.16798 1.627738
1.4274899 0.91923797 1.6113391
1.42524 0.93262202 1.6121961
1.4089999 0.94824201 1.616933
1.41591 0.95776004 1.6164939
1.42988 0.965931 1.6137711
1.44189 0.97460294 1.6118931
1.44321 0.98660302 1.6108099
1.45123 0.99551499 1.609261
1.4542 1.12167 1.6166861
1.44055 1.13559 1.6206421
1.43922 1.14721 1.6222391
1.44327 1.1557701 1.6206039
1.4105999 0.93747103 1.6111912
1.39713 0.95114404 1.614053
1.40412 0.96033597 1.61369
1.4122901 0.96901101 1.612923
1.41773 0.980299 1.611547
1.4155 0.99374199 1.612462
1.4343699 1.00041 1.608201
1.4358901 1.1243399 1.6154809
1.4319501 1.13508 1.616334
1.43786 1.14569 1.616078
1.44655 1.1561199 1.614084
1.39051 0.94310898 1.6095331
1.3912399 0.95167297 1.609422
1.3953799 0.96133906 1.609516
1.4044701 0.97226799 1.6080481
1.40266 0.98425698 1.6096029
1.41429 0.99234396 1.606082
1.4204299 1.0026799 1.605635
1.42855 1.1252301 1.611119
1.43371 1.13565 1.6103189
1.4511399 1.14455 1.6064019
1.40483 0.92843598 1.596434
1.3875799 0.942779 1.603645
1.3997799 0.95017999 1.600727
1.40725 0.96053004 1.5993229
1.41107 0.97142303 1.5991501
1.40847 0.98357201 1.60153
1.41338 0.99411201 1.5997471
1.41843 1.00318 1.599447
1.4240299 1.11386 1.60598
1.4296401 1.1249601 1.605155
1.44584 1.1341799 1.601797
1.39736 0.92909205 1.5926801
1.38831 0.94215894 1.59698
1.4668201 1.12012 1.7058841
1.4852 1.1293399 1.7004721
1.49388 1.1395 1.6991709
1.50334 1.14862 1.69768
1.53668 1.15437 1.691676
1.55274 1.1626101 1.68978
1.42818 1.1080101 1.707444
1.4416001 1.11595 1.705811
1.47367 1.12033 1.6977991
1.48885 1.12834 1.6942129
1.4957299 1.13923 1.693542
1.50808 1.15014 1.6917169
1.5405099 1.15484 1.685305
1.52994 1.16755 1.6878351
1.5064399 1.18572 1.692518
1.4153199 1.1007299 1.704113
1.4267 1.10917 1.702028
1.4521099 1.11454 1.6963409
1.4810899 1.11965 1.689541
1.4906501 1.12955 1.688748
1.4913499 1.1395 1.688611
1.5049001 1.14776 1.6858521
1.52957 1.15546 1.680681
1.5239999 1.16951 1.682126
1.49966 1.1875 1.688665
1.43786 1.10667 1.6926669
1.46138 1.11198 1.6870041
1.4939599 1.11444 1.679665
1.47929 1.1316301 1.686318
1.5053301 1.13798 1.680083
1.53131 1.14406 1.672261
1.5309501 1.15598 1.672809
1.51834 1.1711 1.6773942
1.4987301 1.1870999 1.68409
1.4470199 1.10383 1.683653
1.47653 1.1078399 1.6755741
1.54879 1.13175 1.659936
1.53627 1.1439099 1.663191
1.5454401 1.15353 1.6618359
1.44853 1.10192 1.677196
1.5047001 1.1024899 1.66028
1.51434 1.11045 1.6587781
1.52456 1.12166 1.656448
1.5382899 1.13195 1.655383
1.53102 1.14346 1.65692
1.5389501 1.15283 1.656606
1.52702 1.16737 1.65897
1.5353501 1.1787601 1.6565381
1.5255499 1.19356 1.659263
1.48718 1.0987899 1.6583859
1.5080701 1.10107 1.6527539
1.51108 1.1099401 1.653881
1.52212 1.1191001 1.6513981
1.53108 1.15468 1.651709
1.5264 1.16749 1.652673
1.5248899 1.1803299 1.6539371
1.4862801 1.09803 1.652457
1.5091799 1.10067 1.646647
1.51439 1.11062 1.646084
1.5226899 1.12173 1.6450479
1.5247799 1.1455101 1.645866
1.5217199 1.15879 1.647686
1.5115601 1.1007299 1.6401252
1.52274 1.10954 1.6363291
1.52382 1.15739 1.6392581
1.48648 0.98386902 1.6190381
1.47695 0.99487299 1.6221859
1.49412 0.96294701 1.6068649
1.46609 0.98945099 1.6198709
1.47177 0.996732 1.61875
1.51162 1.14663 1.620921
1.4158 0.91914701 1.619467
1.4201199 0.93120003 1.6182159
1.4250799 0.94081998 1.61722
1.4834199 0.95775902 1.6041721
1.4689 0.97478896 1.610937
1.46864 0.98841006 1.612583
1.4632499 1.00182 1.6162021
1.4898599 1.10891 1.6153659
1.5082 1.11461 1.6129421
1.5014999 1.12585 1.6151651
1.49265 1.13977 1.6184
1.4775701 1.15547 1.6238339
1.46876 1.1697201 1.626673
1.41053 0.923069 1.6151581
1.40967 0.93406302 1.616604
1.4159 0.94358802 1.6154941
1.4355299 0.94856799 1.6101779
1.46319 0.95303595 1.603622
1.46267 0.96532601 1.604946
1.46738 0.97647697 1.605665
1.4536 0.99256402 1.6096261
1.4583 1.00405 1.610764
1.4783901 1.12024 1.6151171
1.4698199 1.1336 1.617746
1.4589599 1.14855 1.621618
1.4494001 1.1626999 1.6254129
1.4061799 0.92690903 1.608973
1.4110299 0.93376601 1.6096289
1.4081799 0.94521695 1.612446
1.41267 0.95528394 1.6115161
1.43459 0.96130401 1.605865
1.4330499 0.975407 1.6066451
1.4449201 0.98337305 1.6057781
1.4429899 0.99590403 1.605859
1.45599 1.0023999 1.604059
1.4590801 1.12366 1.613609
1.4425 1.14112 1.618591
1.44452 1.15332 1.619426
1.4503101 1.1631501 1.618795
1.40751 0.926036 1.601474
1.4077001 0.93512499 1.6035091
1.4110401 0.945189 1.6049631
1.41914 0.95545405 1.6023771
1.4222701 0.96853203 1.602773
1.4131199 0.98355001 1.606463
1.4233299 0.99143499 1.605351
1.4238901 1.00283 1.605805
1.43647 1.13109 1.6130261
1.43252 1.14266 1.6153131
1.4428101 1.15028 1.6130301
1.4433999 1.16257 1.614395
1.4083 0.92461503 1.5948269
1.4095 0.93268096 1.595628
1.41338 0.94328797 1.5964751
1.4269501 0.95007205 1.592942
1.4195 0.96754205 1.5976801
1.4145501 0.98194396 1.600278
1.4130901 0.99358803 1.6021
1.4263699 1.00207 1.598421
1.43958 1.11795 1.605428
1.4367501 1.1295201 1.6058201
1.44038 1.14036 1.6072839
1.4523599 1.14878 1.6048269
1.43084 0.97579497 1.5900351
1.4244 0.99117303 1.59254
1.4223801 1.0046901 1.5928149
1.45829 1.1222 1.5925779
1.4554 1.13525 1.596725
1.52653 1.1618299 1.698999
1.4585099 1.11984 1.708215
1.48072 1.1240699 1.702153
1.4875101 1.13279 1.701714
1.49375 1.14358 1.700168
1.49944 1.15446 1.6994721
1.5283099 1.15853 1.69361
1.5293601 1.16991 1.694119
1.5236701 1.18478 1.6956711
1.4358299 1.1019 1.7045801
1.4421699 1.11344 1.7058622
1.47183 1.1148601 1.6980661
1.4864999 1.12196 1.6945652
1.4912 1.13359 1.694787
1.49664 1.14512 1.694717
1.5055001 1.15405 1.6930209
1.5309 1.1586499 1.6874601
1.5171601 1.1758699 1.6915991
1.43683 1.10124 1.697229
1.4511 1.1087101 1.695846
1.4804201 1.1119599 1.6896139
1.4913499 1.1238201 1.688186
1.49288 1.13424 1.688275
1.50029 1.1433799 1.6873871
1.5206101 1.15012 1.682494
1.53183 1.1597 1.6802139
1.51407 1.17812 1.686435
1.45753 1.10601 1.6865741
1.5137801 1.12942 1.6771311
1.52552 1.13756 1.673815
1.53754 1.1455101 1.671471
1.53441 1.15641 1.672073
1.51531 1.17547 1.67952
1.4742999 1.10043 1.673463
1.53759 1.1322399 1.6638931
1.5335699 1.14495 1.6651269
1.53527 1.1556801 1.665123
1.50963 1.09196 1.65741
1.5128 1.10041 1.657655
1.51843 1.11062 1.656448
1.52265 1.12137 1.6560471
1.5331799 1.13283 1.6558151
1.5361301 1.1455101 1.6568232
1.5423399 1.15325 1.6559601
1.5121499 1.1766601 1.6620591
1.51333 1.18819 1.6624829
1.51851 1.0898 1.6493591
1.5112 1.10078 1.652788
1.5188099 1.11032 1.651457
1.5260299 1.12199 1.649942
1.53418 1.14319 1.6495581
1.5329499 1.1574 1.651347
1.51487 1.17645 1.656564
1.51591 1.18888 1.6567529
1.52136 1.08907 1.6437011
1.51466 1.1010801 1.646715
1.5203199 1.11385 1.6451379
1.52669 1.1483899 1.6444321
1.5242101 1.16248 1.647294
1.5160401 1.1644599 1.6418719
1.47146 0.99693704 1.625941
1.4669701 0.98882002 1.6206781
1.52219 1.16017 1.627731
1.4214301 0.925358 1.618522
1.4274499 0.936791 1.616879
1.46972 0.95892698 1.6090021
1.46873 0.97326797 1.6118751
1.4666499 0.98713994 1.6142551
1.46632 0.99956399 1.617151
1.50082 1.1106501 1.617558
1.5114599 1.11652 1.6171069
1.5069299 1.13942 1.621323
1.46755 1.16668 1.6301911
1.43055 0.91112798 1.6101511
1.4118401 0.932212 1.616431
1.41211 0.944152 1.616626
1.4260299 0.95189798 1.613979
1.45418 0.95366096 1.6072921
1.4513099 0.96814001 1.609411
1.45983 0.97832197 1.6091471
1.4655 0.98696297 1.6088541
1.46461 0.99834502 1.6111041
1.4925599 1.1128 1.6142801
1.49506 1.12087 1.615582
1.4734801 1.1390799 1.6224539
1.4542799 1.1585 1.6277969
1.40617 0.93695098 1.612599
1.4054201 0.94862998 1.6117231
1.41046 0.95911795 1.6126029
1.4287601 0.96441805 1.609503
1.4287801 0.97705901 1.609131
1.4438499 0.98301399 1.606662
1.45629 0.98958701 1.6055651
1.45082 1.12014 1.619395
1.4627 1.13053 1.6179541
1.44967 1.14793 1.622489
1.44558 1.16135 1.624521
1.40328 0.939381 1.605782
1.4046201 0.94788498 1.6049771
1.40967 0.95859396 1.6053891
1.4147501 0.971246 1.6066689
1.41599 0.98274499 1.607156
1.42179 0.99095899 1.6063401
1.4363 0.99729896 1.6027969
1.4476401 1.12384 1.614024
1.4450999 1.13861 1.6163721
1.43922 1.1525 1.6196522
1.4434301 1.1619899 1.61886
1.40504 0.93513298 1.596616
1.4102499 0.94511598 1.5975101
1.4183501 0.95501602 1.5971881
1.41435 0.97092402 1.6005341
1.41585 0.98316705 1.6017691
1.42808 0.99044096 1.598076
1.44446 0.99671799 1.5928371
1.44733 1.12193 1.606115
1.4453701 1.1350701 1.609508
1.44679 1.1476101 1.6109961
1.42828 0.97933298 1.59238
1.4622 1.1273301 1.5970809
1.48067 1.12126 1.705966
1.46584 1.14485 1.7091101
1.55362 1.15216 1.692881
1.4443201 0.98891997 1.694627
1.43235 1.10466 1.709424
1.4476199 1.11151 1.7066259
1.46293 1.11796 1.703378
1.48026 1.12322 1.699409
1.4880099 1.1321 1.6992871
1.49084 1.1432199 1.698638
1.4968899 1.1546199 1.6975521
1.53106 1.1568 1.691066
1.5488601 1.1626899 1.6901309
1.52556 1.1835901 1.694271
1.44692 0.98698997 1.688318
1.40833 1.10312 1.707046
1.4377699 1.10268 1.700816
1.45358 1.109 1.6979849
1.4777901 1.1121399 1.692971
1.48147 1.12307 1.693493
1.4828999 1.13464 1.6948551
1.4910699 1.1457701 1.6932181
1.50757 1.15284 1.689701
1.5296201 1.1568199 1.6846521
1.53394 1.16828 1.686596
1.3835499 1.0889701 1.705496
1.43976 1.1016201 1.693241
1.45976 1.1058201 1.690038
1.48738 1.10707 1.6852859
1.4798199 1.12411 1.689247
1.49435 1.13304 1.686745
1.5050101 1.14325 1.68384
1.52154 1.1484101 1.6797949
1.5393801 1.15206 1.674698
1.5335699 1.1667401 1.679386
1.5382299 1.14036 1.6673871
1.54342 1.15001 1.6672589
1.54958 1.15698 1.666748
1.49106 1.08997 1.6638479
1.51806 1.09182 1.6571679
1.5128399 1.1097599 1.6605661
1.54136 1.1104 1.655072
1.5404201 1.1249601 1.657644
1.54282 1.1374099 1.657804
1.54488 1.14894 1.660619
1.4834399 1.0844101 1.6605121
1.50414 1.08576 1.6548229
1.5158 1.09233 1.652072
1.51851 1.10443 1.653322
1.5239199 1.11702 1.6539819
1.53223 1.12824 1.6526849
1.5355901 1.14021 1.652117
1.5444701 1.14926 1.652833
1.5265801 1.1694 1.6559979
1.51877 1.18756 1.6585251
1.4901199 1.08337 1.652621
1.5109199 1.08377 1.646463
1.51627 1.09525 1.646484
1.51617 1.10887 1.6484091
1.52623 1.1182801 1.645946
1.5344299 1.15343 1.647442
1.5244701 1.1720901 1.650615
1.51451 1.18957 1.6539019
1.49143 1.08306 1.64626
1.5196401 1.07891 1.6386191
1.5141799 1.09357 1.641242
1.5218401 1.1065201 1.639962
1.5210899 1.16131 1.6445639
1.48335 0.97689402 1.613937
1.51535 1.1609401 1.629987
1.42816 0.90628195 1.6144811
1.42957 0.91877604 1.6144791
1.4260299 0.93662906 1.615746
1.47504 0.96053398 1.608163
1.47358 0.97219199 1.610347
1.4657201 0.98953402 1.6153312
1.4914 1.1586699 1.62879
1.4857299 1.17468 1.631495
1.4214599 0.91378403 1.610217
1.42033 0.92770499 1.611006
1.41636 0.94539398 1.6131901
1.41196 0.96058798 1.61669
1.4299099 0.96730596 1.61237
1.4517399 0.97225195 1.609167
1.46211 0.98035002 1.6087171
1.46501 0.990435 1.609872
1.47026 1.1133 1.6200939
1.49414 1.11871 1.6171781
1.4817101 1.13598 1.621804
1.45983 1.15891 1.628758
1.46253 1.17154 1.629622
1.4266901 0.899185 1.5990781
1.4224299 0.91300005 1.6021961
1.41131 0.93461901 1.6064551
1.41394 0.94797701 1.6074569
1.4166901 0.96080297 1.6093539
1.42241 0.97230202 1.608725
1.43735 0.97709799 1.60615
1.44247 0.98894799 1.6071479
1.4597099 0.99188799 1.6047059
1.4473701 1.1227 1.620735
1.45898 1.1317 1.619814
1.46276 1.1443599 1.620037
1.4554801 1.1606801 1.623444
1.41085 0.909181 1.5972
1.4067799 0.92342001 1.5990649
1.40319 0.93822801 1.6023179
1.4146 0.943955 1.6006399
1.41901 0.95654899 1.601878
1.42308 0.97008497 1.602666
1.4211999 0.98487002 1.604975
1.4290299 0.99491996 1.603228
1.44526 1.12533 1.615271
1.4564999 1.13455 1.612957
1.44655 1.1527101 1.6187841
1.44862 1.1634101 1.618829
1.4028701 0.91242999 1.5908501
1.40657 0.92167699 1.591853
1.40927 0.93299204 1.5941631
1.4246001 0.93873703 1.5923351
1.43875 0.95714998 1.5921409
1.41959 0.98880094 1.5991321
1.42801 0.99749899 1.595594
1.45082 1.12295 1.606111
1.4595101 1.13178 1.6040671
1.4526199 1.1485701 1.610209
1.47177 1.13798 1.597592
1.47867 1.07997 1.7067981
1.45899 1.09518 1.7058191
1.4545799 1.11097 1.707796
1.4600501 1.1195201 1.707119
1.47964 1.12366 1.702332
1.4875 1.13437 1.701166
1.4893899 1.1480401 1.7021341
1.5001401 1.15617 1.7001981
1.5499899 1.15307 1.693233
1.44881 1.09928 1.7010131
1.4617701 1.1071299 1.700195
1.4774201 1.1134501 1.69742
1.4799299 1.12676 1.697042
1.4855599 1.13946 1.6972299
1.48873 1.15101 1.6978481
1.5036999 1.1550701 1.6942929
1.53069 1.15686 1.689119
1.5393201 1.1672599 1.690434
1.5362899 1.17997 1.690559
1.43888 0.98941594 1.684716
1.44013 1.10192 1.6963511
1.4538001 1.1076599 1.695025
1.4744 1.1141601 1.6925892
1.48066 1.12558 1.691736
1.48911 1.13627 1.690426
1.4922 1.14886 1.691185
1.5104201 1.15307 1.686275
1.53519 1.1545 1.6799231
1.5336099 1.17066 1.6837469
1.43677 1.10304 1.6905529
1.51094 1.1404901 1.6794729
1.53219 1.1427 1.673162
1.5377001 1.15254 1.67184
1.5390601 1.16495 1.673912
1.53069 1.1332 1.6660891
1.5340199 1.14285 1.664631
1.54338 1.15158 1.6637911
1.5485001 1.15975 1.6636959
1.52826 1.1350701 1.658071
1.5316401 1.14274 1.6581509
1.5356101 1.15241 1.65819
1.53627 1.16615 1.658896
1.52692 1.14545 1.6527981
1.53596 1.15416 1.650775
1.52222 1.1761 1.6552349
1.5152401 1.16705 1.6489481
1.49392 0.96089 1.609544
1.47718 0.98352301 1.616941
1.5200599 1.1464499 1.6303101
1.5193 1.16162 1.632583
1.42935 0.94120401 1.61263
1.47006 0.96481401 1.6094879
1.47727 0.97234297 1.6101331
1.4764501 0.98281306 1.611848
1.49914 1.14493 1.6275421
1.4935299 1.1613899 1.630329
1.4057201 0.93087095 1.610726
1.40413 0.94445604 1.6135049
1.4133501 0.95259905 1.612497
1.42294 0.96200299 1.612157
1.44418 0.96649694 1.608871
1.4566799 0.97146797 1.6074451
1.46638 0.97716695 1.6066751
1.47544 1.14358 1.6239901
1.47518 1.15698 1.626405
1.4020799 0.932006 1.605386
1.40247 0.94583899 1.60857
1.4214901 0.945943 1.6032089
1.42567 0.95930201 1.60528
1.4282899 0.97290498 1.607363
1.44198 0.97951299 1.6049451
1.4377201 0.99740499 1.606342
1.47386 1.1137201 1.612728
1.4631799 1.1348799 1.6183732
1.4683599 1.14657 1.6193591
1.4535401 1.16861 1.6253619
1.40091 0.91722101 1.59495
1.3995199 0.93067902 1.5988141
1.4088 0.93801397 1.5986749
1.4284199 0.93828499 1.594142
1.42935 0.95488298 1.597782
1.42934 0.97421503 1.6004989
1.42629 0.99338603 1.602162
1.46495 1.11948 1.6097
1.45656 1.14018 1.614635
1.45024 1.15694 1.6187061
1.4522099 1.16707 1.618971
1.42724 0.993325 1.5946131
1.4252601 1.0064701 1.597066
1.46249 1.11792 1.602563
1.4712501 1.12817 1.602021
1.4432499 1.1095099 1.705199
1.4444001 1.09946 1.703566
1.44144 1.10883 1.697265
1.45284 1.1051899 1.698357
1.45365 1.09321 1.6968921
1.4675101 0.98592794 1.6830051
1.45781 1.11647 1.6941571
1.45696 1.1056401 1.692836
1.46135 0.99282801 1.6764411
1.4570301 0.979011 1.673825
1.4761599 1.1264399 1.6916571
1.46243 1.10883 1.687155
1.47138 1.10177 1.6867261
1.49148 1.1348001 1.6908051
1.4703599 1.11291 1.6815219
1.4675701 1.09806 1.678547
1.48909 1.13367 1.685222
1.45732 1.10323 1.667388
1.46707 1.0976501 1.671007
1.48877 1.13449 1.6539041
1.4808 1.17081 1.6520112
1.48404 1.16144 1.651018
1.48561 1.14903 1.649642
1.48895 1.13693 1.64897
1.47228 1.1149 1.641915
1.4894 1.17585 1.6511151
1.49008 1.16661 1.649718
1.48248 1.1492 1.6438971
1.49237 1.14125 1.645196
1.4813901 1.1220601 1.638183
1.4730999 1.10453 1.634053
1.4825599 1.133 1.6336701
1.48306 1.1216999 1.6313211
1.4772999 1.10613 1.6274881
1.48906 1.1230301 1.625968
1.49045 1.12454 1.6172991
1.49394 1.13685 1.61186
1.49543 1.1281199 1.611761
1.49295 1.1153901 1.6092441
1.50201 1.14496 1.607885
1.49675 1.12915 1.6045531
1.5008099 1.14529 1.6008661
1.44908 1.10368 1.7086191
1.45198 1.0922899 1.707164
1.44663 1.12672 1.7053009
1.44552 1.11385 1.701411
1.45024 1.10227 1.7011099
1.4459 1.12328 1.696241
1.4502001 1.11543 1.6951419
1.4513299 1.1056401 1.695083
1.4572001 1.09444 1.694185
1.45822 0.98721397 1.6789031
1.4522001 1.11544 1.688573
1.4552499 1.10657 1.6890991
1.4636999 1.09716 1.6879581
1.46139 0.98947799 1.673876
1.4441099 1.11095 1.6767999
1.4590801 1.1067901 1.682014
1.4647099 1.0973101 1.6816369
1.4503 1.1037201 1.6707431
1.46474 1.09673 1.674855
1.4704601 1.0099601 1.6541721
1.4558501 1.11488 1.651655
1.4891299 1.13088 1.651341
1.49184 1.1325099 1.6470059
1.46769 1.1119 1.6383029
1.4439701 0.98934501 1.6078
1.51008 1.14907 1.6495709
1.4957401 1.1350499 1.6424842
1.47576 1.11624 1.6342871
1.4572999 0.99879897 1.608964
1.44678 0.98044604 1.6017489
1.4810801 1.1185501 1.628405
1.46649 1.00379 1.6054071
1.4532001 0.98331904 1.5980431
1.4862601 1.12984 1.6243119
1.4891601 1.1206 1.623307
1.4695799 1.00565 1.598909
1.46258 0.98906898 1.594875
1.48013 1.12781 1.614158
1.49149 1.1231099 1.6168991
1.4779899 1.0123301 1.5950921
1.4926699 1.13432 1.611264
1.4955901 1.12511 1.6113901
1.5004201 1.15039 1.6083081
1.50073 1.13966 1.607838
1.49777 1.12696 1.60526
1.50309 1.14227 1.601989
1.4364799 1.1352201 1.708336
1.44701 1.1056501 1.7083319
1.4487 1.0934401 1.707229
1.44182 1.12757 1.701755
1.4512 1.12001 1.704592
1.4527699 1.10798 1.701588
1.45407 1.09487 1.7018939
1.44209 1.13683 1.693117
1.44188 1.1284 1.693924
1.45189 1.12007 1.696353
1.45625 1.1092 1.6960831
1.4599899 1.0985 1.695745
1.46866 1.1444 1.6966339
1.44871 1.13034 1.6899301
1.4569299 1.12166 1.6896789
1.45749 1.1087999 1.6896789
1.4604499 1.09811 1.6890069
1.46538 1.0882499 1.688882
1.4594799 0.98757201 1.6752679
1.4499201 1.12968 1.6839261
1.4457 1.1173201 1.678553
1.45739 1.1096901 1.6818811
1.46319 1.0984 1.6830961
1.4618801 1.13236 1.6823339
1.4265699 1.10875 1.663475
1.4478 1.10648 1.671219
1.4600101 1.09926 1.675267
1.4711599 1.00432 1.6648599
1.37937 0.91593695 1.622945
1.46401 1.0999 1.669389
1.47179 1.00555 1.6587011
1.4009801 0.95452601 1.624783
1.3852299 0.92213601 1.618591
1.38895 0.91184402 1.6196451
1.4032 0.95697999 1.6204751
1.4010299 0.94354796 1.618661
1.39508 0.92656499 1.616502
1.4011199 0.91797501 1.616613
1.42073 0.91754305 1.622036
1.5433999 1.1703601 1.6827209
1.4843601 1.0226899 1.649615
1.4194599 0.97365302 1.6221319
1.40289 0.95762604 1.614302
1.4034801 0.94603896 1.6118261
1.40285 0.93170094 1.612138
1.4047099 0.921588 1.6112342
1.5379 1.1682 1.6762421
1.52386 1.15676 1.6697061
1.4465899 1.1137 1.6423019
1.4870501 1.02336 1.6432031
1.41294 0.97126502 1.612801
1.4047501 0.95844901 1.6071091
1.4045399 0.947119 1.6047341
1.40323 0.93478799 1.6038721
1.4639599 1.1669 1.64237
1.5274899 1.16424 1.666602
1.5239301 1.15596 1.663895
1.5058501 1.14362 1.6565741
1.41659 0.97293997 1.6051531
1.3987601 0.954355 1.596822
1.38832 0.93869299 1.5916752
1.44839 1.1599801 1.6300781
1.50235 1.15607 1.650701
1.5175999 1.15378 1.655874
1.50938 1.14328 1.6511121
1.43812 0.98460096 1.604466
1.41405 0.96245003 1.594702
1.4419399 1.15721 1.620995
1.4540199 1.1482199 1.623799
1.49185 1.14556 1.638523
1.49409 1.1339 1.636938
1.4674499 1.1114299 1.6258349
1.4488499 0.99033093 1.601658
1.4421 0.97529799 1.597587
1.43871 1.1542801 1.612525
1.4382601 1.14256 1.6112452
1.46127 1.13775 1.6187811
1.4922501 1.13528 1.6304221
1.478 1.11787 1.622429
1.4606799 0.99776602 1.6006219
1.45619 0.98296797 1.595571
1.43963 1.15566 1.606331
1.4397701 1.14315 1.605166
1.46518 1.13775 1.6129831
1.48478 1.13204 1.6201309
1.4895301 1.12079 1.6185601
1.4613299 0.99780703 1.593264
1.4313099 1.15158 1.59771
1.4330499 1.14173 1.597309
1.4462399 1.13613 1.601289
1.49444 1.13394 1.6151019
1.4991499 1.12335 1.614785
1.48666 1.02037 1.596855
1.50852 1.1507 1.6139541
1.50734 1.1289001 1.6117841
1.4935499 1.1108299 1.603958
1.51142 1.14142 1.607847
1.50401 1.11317 1.6002951
1.5031101 1.13677 1.5968441
1.4429801 1.09841 1.709368
1.4274299 1.12859 1.6997641
1.4511099 1.1245201 1.7071451
1.4512801 1.1131301 1.706755
1.4427099 1.10034 1.7038291
1.4541 1.09194 1.7059219
1.41659 1.12718 1.68969
1.4391999 1.12357 1.6962421
1.45047 1.11393 1.6987931
1.4488699 1.10133 1.6990491
1.4601401 1.09152 1.700538
1.44028 1.14113 1.6891
1.43405 1.13143 1.688566
1.4416001 1.1225901 1.689343
1.4565101 1.11373 1.693325
1.4579101 1.1028 1.694487
1.4618 1.0912499 1.692935
1.44963 1.1429499 1.6872211
1.43926 1.13282 1.6837201
1.43819 1.1222 1.6813031
1.4493099 1.11376 1.684833
1.46436 1.10505 1.6890671
1.47034 1.09514 1.6886121
1.4656199 0.99067098 1.6787271
1.43647 1.1317401 1.6773541
1.44031 1.1222399 1.6769021
1.45058 1.11218 1.6788721
1.47007 1.10432 1.6837561
1.46823 1.09252 1.6808301
1.46618 1.10193 1.674871
1.47098 1.09337 1.675029
1.3705901 0.90995902 1.6216699
1.3636 0.918181 1.6120169
1.37722 0.91370201 1.6173471
1.3835499 0.90745902 1.6179001
1.39266 0.95807195 1.616521
1.40353 0.95207 1.6196741
1.4043601 0.940593 1.619277
1.39 0.92087698 1.6142279
1.40508 0.913881 1.6182159
1.48312 1.0183799 1.649207
1.41697 0.97616303 1.620412
1.3987 0.96100199 1.61306
1.4003999 0.949826 1.613416
1.3996401 0.93755096 1.6116071
1.39888 0.92400396 1.609852
1.42592 0.91984099 1.618284
1.44963 0.91498804 1.6255881
1.47123 1.12349 1.646317
1.48748 1.01922 1.643562
1.40062 0.97165 1.60851
1.3932401 0.96077102 1.603931
1.3959 0.94944197 1.6045841
1.39968 0.93752098 1.604082
1.4166901 0.93000197 1.609604
1.46832 1.16558 1.6401889
1.4557899 1.11289 1.6346581
1.4803599 1.01703 1.634189
1.40519 0.97276002 1.602079
1.39213 0.95828003 1.596133
1.3912399 0.94629204 1.595119
1.39043 0.93528199 1.5926001
1.4500901 1.16247 1.6282681
1.47588 1.15663 1.6365509
1.46323 1.11454 1.62966
1.48435 1.01825 1.6282879
1.4174401 0.977503 1.598105
1.40677 0.96434301 1.593828
1.4423399 1.16014 1.61922
1.4514199 1.15126 1.620963
1.47427 1.1428399 1.628551
1.49002 1.13226 1.6337171
1.47673 1.1188099 1.6269171
1.47685 1.01388 1.6165171
1.44758 0.99013299 1.6024561
1.4386001 0.97556394 1.5982541
1.4230901 0.960262 1.591337
1.4427699 1.1605999 1.6125669
1.4395 1.14825 1.6086501
1.4639 1.1413 1.618157
1.4917301 1.1338201 1.6279171
1.48243 1.12027 1.622211
1.47894 1.01387 1.6102451
1.4615101 0.99788594 1.601673
1.4502499 0.98101306 1.5948809
1.44328 0.96637702 1.5911571
1.43899 1.1576899 1.6039931
1.4341999 1.14737 1.600177
1.4436301 1.14062 1.604102
1.4805701 1.10985 1.6145831
1.4806501 1.01482 1.604086
1.4591701 0.995143 1.5935221
1.43422 1.15624 1.5966681
1.4312199 1.14695 1.594156
1.4352601 1.13995 1.5952621
1.48349 1.01533 1.5980099
1.4909301 1.1135 1.603506
1.5085499 1.13905 1.604332
1.50875 1.12868 1.598407
1.50481 1.1481301 1.592839
1.43433 1.13076 1.7092221
1.42696 1.12921 1.7003131
1.43973 1.1234699 1.704563
1.45006 1.1138999 1.7064749
1.4455299 1.10039 1.705374
1.44113 1.12236 1.6970191
1.45989 1.11367 1.7022541
1.4571401 1.1028399 1.701749
1.4424601 1.15373 1.689684
1.44031 1.1454799 1.689028
1.4404401 1.13457 1.6890271
1.44376 1.12297 1.690011
1.4585 1.11418 1.6954849
1.4636199 1.10472 1.6974649
1.46254 1.09297 1.6961501
1.45052 1.15413 1.687662
1.4436799 1.1460299 1.685481
1.44547 1.13702 1.6847451
1.44215 1.12468 1.682639
1.45743 1.11428 1.6880081
1.46227 1.10374 1.690423
1.47454 1.09343 1.6923652
1.47778 1.0826499 1.6915091
1.5285001 1.1700599 1.7059641
1.44155 1.1450499 1.6794101
1.44082 1.13498 1.677768
1.4409 1.12253 1.675964
1.4519099 1.1134 1.679038
1.4669501 1.1031801 1.68402
1.47675 1.09196 1.68593
1.48138 1.08318 1.6867911
1.4419 1.14394 1.6745331
1.43829 1.1101899 1.6677999
1.4599401 1.10289 1.6740539
1.4736199 1.09322 1.6780481
1.4779401 1.08187 1.6793151
1.54333 1.1692901 1.698535
1.54221 1.16234 1.6970639
1.48009 1.08376 1.672549
1.47567 1.00572 1.6644839
1.3789301 0.91737098 1.621974
1.3791001 0.90779197 1.621698
1.5450701 1.1683999 1.69242
1.5479801 1.16155 1.6929721
1.4746699 1.0054799 1.657209
1.38011 0.95455706 1.6174661
1.3800399 0.94490099 1.617002
1.38546 0.93595397 1.61848
1.39019 0.92250705 1.62001
1.39505 0.91236502 1.621248
1.5430701 1.1746601 1.6851821
1.54205 1.16703 1.684082
1.5411301 1.15904 1.6837
1.4720501 1.0044 1.6489841
1.43565 0.98422098 1.6328211
1.4024 0.96310306 1.6198081
1.39465 0.94923598 1.6169721
1.3988099 0.93714899 1.617171
1.40162 0.92438006 1.6169161
1.40388 0.91370398 1.6173481
1.41444 0.90852898 1.618953
1.5214599 1.17233 1.6709191
1.54407 1.16721 1.678887
1.5431199 1.15896 1.678371
1.51788 1.14568 1.6669
1.47631 1.12735 1.6509131
1.47761 1.01493 1.644958
1.46709 1.0028399 1.6407901
1.40382 0.97388703 1.614023
1.39814 0.96086603 1.612551
1.39983 0.949507 1.611058
1.4036099 0.93676805 1.611413
1.39885 0.92479795 1.6087601
1.4139501 0.91774905 1.61384
1.43601 0.914123 1.620412
1.46873 1.17349 1.6407031
1.53448 1.16496 1.669613
1.53556 1.15676 1.6693871
1.5241901 1.1457801 1.6626669
1.49874 1.13459 1.6534619
1.4257699 0.99010801 1.6155721
1.41301 0.97749299 1.6101739
1.4029601 0.963301 1.606467
1.3953199 0.950234 1.601577
1.4028 0.94014198 1.603745
1.4033799 0.92729205 1.603543
1.4375999 0.92285204 1.6168389
1.44179 0.91508502 1.6174511
1.4648 1.16327 1.6335851
1.5233099 1.15327 1.6581979
1.52056 1.1447799 1.6552789
1.50664 1.13624 1.6495551
1.43373 0.99166101 1.612054
1.4076101 0.97424102 1.6013291
1.403 0.960976 1.5985901
1.39166 0.94715697 1.5934319
1.4541 1.16185 1.623613
1.4712501 1.1518101 1.629383
1.5079499 1.14337 1.6439401
1.49963 1.13476 1.6396991
1.44877 0.99702501 1.6107111
1.43252 0.98166394 1.603295
1.4135801 0.964513 1.5956689
1.44985 1.16204 1.615467
1.45085 1.15292 1.615162
1.50403 1.14273 1.6356339
1.4669501 1.00227 1.6111569
1.45487 0.98826897 1.604203
1.4566001 0.977512 1.60334
1.44028 1.1521 1.6045821
1.4960001 1.13975 1.625035
1.46975 1.11655 1.613072
1.46592 1.00203 1.60332
1.45467 0.98696601 1.595922
1.46167 0.97814202 1.59903
1.4450301 1.1532199 1.601307
1.4946001 1.14019 1.6162601
1.48385 1.11849 1.61111
1.4667 1.00054 1.595907
1.50982 1.1534101 1.6157171
1.49886 1.12053 1.609758
1.4737601 1.00493 1.5914981
1.5064501 1.12249 1.605262
1.50842 1.1321399 1.5998111
1.50623 1.12142 1.598332
1.4997301 1.1414 1.5920939
1.3716701 1.0000499 1.7041049
1.3472 1.0353501 1.7023641
1.37287 1.00142 1.6950799
1.36234 1.0347 1.6921811
1.3572099 1.04453 1.6927941
1.3714999 1.00034 1.6870041
1.36889 1.00893 1.687919
1.36849 1.02334 1.6862351
1.36132 1.0477999 1.6838001
1.36689 0.99848503 1.6811569
1.3667901 1.00947 1.6807791
1.3658201 1.03829 1.676706
1.35894 1.00538 1.675742
1.36523 1.02301 1.6726761
1.4462399 0.96740305 1.653443
1.43367 0.96758002 1.65751
1.3705601 1.0279 1.663452
1.45022 0.97062796 1.645069
1.4444901 0.97518098 1.645977
1.37369 1.0327101 1.653468
1.45225 0.97187799 1.63692
1.45005 0.97876298 1.63688
1.45855 0.97644895 1.626398
1.4480901 0.97808403 1.630043
1.3814501 1.0384201 1.6344811
1.4624801 0.97835505 1.6170889
1.45125 0.97950602 1.6209909
1.3719001 1.0184 1.630289
1.38197 1.03774 1.62675
1.46567 0.98077697 1.6090869
1.4517999 0.97990096 1.612074
1.3666099 1.0125901 1.62528
1.37598 1.02987 1.6209979
1.38134 1.04597 1.617945
1.4619501 0.97755599 1.602949
1.447 0.97690696 1.6042931
1.3688201 1.0144401 1.6178509
1.3766299 1.03109 1.612502
1.3829401 1.04682 1.6092621
1.4483399 0.96783799 1.5978681
1.4398301 0.97391701 1.5972689
1.3718801 1.01788 1.608947
1.37632 1.03125 1.6045101
1.3751301 1.04117 1.603611
1.44604 0.94142306 1.5928799
1.43841 0.96098 1.592563
1.4305701 0.96967298 1.592857
1.4232001 0.97476602 1.594059
1.37519 1.0212799 1.600036
1.38508 1.03894 1.594346
1.3864701 1.05013 1.592257
1.40907 0.90963602 1.5964621
1.42014 0.94787401 1.5902499
1.4107201 0.89749396 1.59115
1.38475 0.98969001 1.708099
1.37502 0.99800903 1.7066751
1.3657299 1.00757 1.708581
1.36032 1.0178601 1.709852
1.35738 1.02636 1.7076191
1.43967 0.97863603 1.690596
1.3868201 0.99047798 1.700542
1.378 0.99860197 1.699409
1.3692 1.0085 1.699947
1.36147 1.01842 1.702173
1.35897 1.02763 1.699665
1.4420301 0.98167396 1.682302
1.38826 0.99139601 1.693046
1.37483 0.99817103 1.6932001
1.37283 1.0123401 1.691077
1.36206 1.01885 1.6945059
1.3593601 1.02793 1.692234
1.44375 0.99377406 1.6740201
1.38729 0.990951 1.6857339
1.3796401 1.0019699 1.683997
1.3726801 1.01305 1.6840521
1.36321 1.01989 1.6867011
1.36464 1.03111 1.6833881
1.4258701 0.98426104 1.6708341
1.39557 0.99488997 1.6754421
1.38629 1.00405 1.675097
1.37168 1.0092601 1.677904
1.36783 1.02177 1.677716
1.3672999 1.0328801 1.6749921
1.42296 0.96830297 1.6649811
1.4226899 0.980241 1.6640891
1.41556 0.99214101 1.664646
1.38985 0.99323195 1.6684531
1.3761901 1.00014 1.6713791
1.3753999 1.01353 1.669662
1.36879 1.02389 1.6692621
1.3659301 1.03327 1.667901
1.4299699 0.96380401 1.657019
1.4212199 0.96913999 1.658517
1.42182 0.98299199 1.657093
1.41031 0.99058199 1.6576229
1.38999 0.99230301 1.6609241
1.38028 1.0014499 1.662921
1.37498 1.01473 1.6614581
1.3709199 1.02657 1.661468
1.3663001 1.03345 1.6615491
1.43848 0.979159 1.6468701
1.42284 0.98374003 1.648523
1.4064 0.99039495 1.651141
1.38863 0.99372 1.6551499
1.3849601 1.00534 1.6536521
1.3797001 1.01636 1.6522231
1.3693601 1.02277 1.6554531
1.36871 1.03319 1.654924
1.4354401 0.97972798 1.6396221
1.4488699 0.99899 1.632375
1.4161501 0.99411696 1.641167
1.3901601 0.99404001 1.647886
1.38597 1.00629 1.645452
1.37668 1.01422 1.646673
1.3742999 1.02386 1.6467911
1.4438901 0.98499703 1.629061
1.45599 1.0028 1.622333
1.42548 0.99940699 1.6306671
1.40056 0.99955904 1.6374161
1.38965 1.00709 1.637097
1.3804899 1.01595 1.638658
1.37696 1.02545 1.6372861
1.4522901 0.988666 1.618072
1.40054 1.00055 1.6289661
1.3863901 1.0083699 1.6307019
1.38256 1.01965 1.62991
1.3802 1.02846 1.6288449
1.4423801 0.97190005 1.613848
1.45436 0.98971397 1.6101111
1.46346 1.0063701 1.606266
1.40671 1.00211 1.6187841
1.387 1.00629 1.623387
1.38245 1.0176001 1.6233389
1.37869 1.02763 1.6215991
1.44109 0.97002196 1.606671
1.4421899 0.98115802 1.606411
1.44876 0.99810898 1.6041751
1.42915 1.00237 1.6061031
1.40128 1.00152 1.6122931
1.39565 1.01051 1.6137421
1.38212 1.0177701 1.6154611
1.37869 1.0290899 1.614259
1.3696201 1.03325 1.614763
1.42495 0.96141195 1.604643
1.4417399 0.98067397 1.5990021
1.4399899 0.99311501 1.599017
1.4278901 1.0007 1.598268
1.4043601 1.00219 1.604321
1.39116 1.00974 1.607381
1.3797799 1.0168 1.6087161
1.37421 1.0262101 1.6085941
1.37723 1.0398899 1.604637
1.43656 0.97952795 1.592556
1.43478 0.99019504 1.592695
1.4293699 1.0007 1.590762
1.4087 1.00339 1.595216
1.39492 1.00966 1.599332
1.38825 1.0214 1.599009
1.38262 1.03373 1.5972351
1.38362 1.04519 1.5958431
1.3971801 1.0124 1.5909899
1.38735 1.02263 1.590197
1.3788 1.04193 1.590567
1.44284 0.99072403 1.700209
1.3808099 0.99075401 1.7056671
1.36761 0.99374497 1.7082551
1.4488499 0.98049104 1.686586
1.43953 0.98943198 1.686813
1.3877499 0.99215597 1.6974481
1.37752 0.99736804 1.6997769
1.4450101 0.97981203 1.680076
1.4424601 0.99159503 1.679094
1.37971 0.99707901 1.6925579
1.4347999 0.98852503 1.6742481
1.38116 0.99740195 1.684834
1.4242599 0.98072898 1.669727
1.3971601 0.995646 1.6728849
1.3864 1.00038 1.6753201
1.42758 0.97070396 1.663625
1.4230701 0.98350799 1.661858
1.40308 0.98843598 1.6658779
1.39431 0.99627602 1.6668631
1.37246 0.99446505 1.6718231
1.4565101 0.97248596 1.648331
1.43467 0.975806 1.653497
1.4228799 0.98415494 1.654291
1.41105 0.98980403 1.6573911
1.39271 0.99332201 1.6606619
1.37994 0.997949 1.6627671
1.47971 0.97112799 1.633255
1.4662601 0.975842 1.63685
1.4464799 0.98004401 1.642399
1.4334301 0.988051 1.644787
1.4085499 0.99010199 1.650704
1.3888401 0.99326897 1.6545001
1.37896 0.99746102 1.6561921
1.48577 0.94037497 1.627097
1.4828999 0.95373595 1.627158
1.48017 0.96898496 1.6273669
1.4657899 0.97509801 1.630878
1.4595599 0.98474294 1.63115
1.4505099 0.994699 1.6326391
1.42401 0.99635905 1.6393961
1.4020599 0.99812502 1.6452091
1.3854401 0.99983805 1.6490289
1.48672 0.94440299 1.622043
1.482 0.95606905 1.6224
1.48032 0.96813202 1.620525
1.46895 0.97698301 1.6233139
1.4508001 0.98109704 1.626875
1.45436 0.99447602 1.6244271
1.4077001 1.00051 1.638849
1.4811901 0.93891001 1.6185901
1.48208 0.95517099 1.6170181
1.48049 0.96958703 1.6140311
1.47001 0.97626603 1.616092
1.4579899 0.98457301 1.6180561
1.45681 0.99817199 1.616084
1.46474 0.977319 1.6096569
1.45275 0.98553801 1.611367
1.4598199 1.00177 1.60834
1.41899 1.00498 1.615028
1.46287 0.97691 1.6021761
1.45116 0.98255599 1.6039101
1.44705 0.99478996 1.605209
1.43682 1.00334 1.605351
1.41031 1.0027699 1.6104941
1.39696 1.00502 1.6142889
1.4523101 0.96027398 1.5965781
1.45383 0.97221601 1.5972861
1.44306 0.978127 1.598156
1.44226 0.99265701 1.598338
1.42922 1.00113 1.600397
1.4111099 1.00388 1.6030749
1.39513 1.00492 1.6085629
1.44296 0.92863297 1.594673
1.4447399 0.93989199 1.5934269
1.44256 0.95189005 1.5931979
1.44581 0.966986 1.592773
1.43502 0.97365403 1.5936379
1.4295399 0.98440003 1.594207
1.4257001 0.99810499 1.593748
1.4127001 1.00481 1.595512
1.3996 1.0076799 1.5999161
1.4101199 0.91028297 1.5997771
1.43308 0.93394899 1.5920379
1.42477 0.94309998 1.5916791
1.42967 0.95987201 1.5900379
1.40342 0.90561098 1.5955011
1.40739 0.92115301 1.5930361
1.40382 0.93328798 1.590667
1.39739 0.89494002 1.592294
1.46307 1.15003 1.675825
1.48832 1.17378 1.670011
1.4769901 1.17901 1.6716281
1.44319 0.98657399 1.689996
1.44821 1.14184 1.674366
