# .PCD v0.7 - Point Cloud Data file format
VERSION 0.7
FIELDS x y z
SIZE 4 4 4
TYPE F F F
COUNT 1 1 1
WIDTH 1697
HEIGHT 1
VIEWPOINT 0 0 0 1 0 0 0
POINTS 1697
DATA ascii
1.54017 0.83045095 1.1124279
1.5525399 0.82397902 1.1190901
1.5671201 0.91955495 1.139389
1.54935 0.90412402 1.12497
1.58486 0.92553496 1.144133
1.58692 0.91603994 1.142539
1.51271 0.99119496 1.090127
1.50603 0.98952699 1.078285
1.5289301 0.98681903 1.095488
1.49629 0.98849505 1.0568637
1.52869 0.98651099 1.086249
1.5475999 0.981502 1.099503
1.60158 0.91039199 1.1286399
1.5023599 0.98964995 1.0546553
1.52326 0.98623496 1.071174
1.5474499 0.98162496 1.089905
1.56593 0.94193101 1.095842
1.56322 0.93061996 1.091169
1.55338 0.92124903 1.0782551
1.5023199 0.98916298 1.0464981
1.5197999 0.98545504 1.059247
1.5394901 0.97984904 1.073642
1.55481 0.97247702 1.08497
1.55636 0.96153802 1.081081
1.56119 0.95139802 1.0842559
1.5414701 0.93603301 1.0645832
1.55028 0.92882895 1.070835
1.54256 0.919168 1.0616405
1.5280499 0.98628998 1.0560378
1.53433 0.97913301 1.0594872
1.54922 0.97086799 1.0694211
1.55345 0.96074599 1.0691161
1.5616701 0.95324701 1.075493
1.55705 0.94117105 1.069357
1.5499099 0.92968595 1.0604511
1.5279801 0.98447198 1.0459205
1.53819 0.98010099 1.0534776
1.54225 0.971407 1.0540565
1.5529699 0.962771 1.0602773
1.55682 0.95216298 1.0616606
1.55177 0.93967003 1.0542579
1.54031 0.92833704 1.0423613
1.54185 0.97819704 1.0453993
1.54694 0.96934801 1.047313
1.5561999 0.96126997 1.0536628
1.5523801 0.95033699 1.0475601
1.54765 0.93919504 1.0419518
1.53196 0.92666197 1.0281363
1.53588 0.97612196 1.0281919
1.5422901 0.96937698 1.0334309
1.54962 0.96060503 1.0387676
1.55085 0.95183504 1.0362368
1.53517 0.97588801 1.0171814
1.5353501 0.96882105 1.0180881
1.54396 0.96099097 1.0232549
1.54102 0.951298 1.0164448
1.53188 0.97483802 1.0039002
1.54053 0.96916497 1.0125034
1.53733 0.95853305 1.0055854
1.54188 0.95178497 1.0074893
1.5351801 0.97604299 0.99616754
1.53839 0.96829396 0.99936658
1.54041 0.95972705 0.99853688
1.5427001 0.95279294 0.9983592
1.54283 0.97093004 0.99345189
1.54531 0.962156 0.99341363
1.5473199 0.95396101 0.99071497
1.45979 1.11138 1.417804
1.4642501 1.135 1.413596
1.4623899 1.11631 1.4099621
1.4598399 1.13021 1.4085131
1.45716 1.14388 1.4088769
1.46039 1.10928 1.4044231
1.4586501 1.1245099 1.403015
1.457 1.13855 1.4023441
1.46507 1.11371 1.396071
1.53239 0.94629598 1.276672
1.5291901 0.94159597 1.268777
1.52302 0.95179296 1.27083
1.5297199 0.92948896 1.262758
1.5322599 0.94133902 1.2601731
1.51994 0.94666499 1.2638301
1.5099699 0.95797801 1.2651061
1.4996899 0.97983396 1.2646331
1.54027 0.93459398 1.250096
1.5261501 0.937419 1.2551271
1.5139999 0.94663697 1.256614
1.5052201 0.95648497 1.258667
1.50213 0.96858495 1.257584
1.4989301 0.97977799 1.254465
1.54024 0.93469 1.241994
1.51809 0.934627 1.2484241
1.5069901 0.94371599 1.250808
1.50383 0.95647502 1.251289
1.4955901 0.96673697 1.2502451
1.4995599 0.98124003 1.245574
1.5348101 0.93220598 1.235058
1.5165801 0.93236506 1.239412
1.5056599 0.94116896 1.243116
1.49821 0.95308799 1.244976
1.4909199 0.962879 1.242928
1.4944 0.97738802 1.23997
1.5297 0.92800796 1.228295
1.5098599 0.92689598 1.234267
1.50543 0.93988901 1.233552
1.49455 0.94998497 1.237856
1.4878501 0.96022397 1.235831
1.4866999 0.97190696 1.2339261
1.51802 0.920286 1.224174
1.50726 0.92776495 1.2259461
1.5029601 0.94111997 1.225194
1.49222 0.94910699 1.229709
1.4899499 0.96292996 1.225378
1.4810899 0.96916395 1.227663
1.5158099 0.90648103 1.217829
1.5086701 0.91503304 1.219557
1.50308 0.925596 1.219105
1.4991701 0.93776101 1.2187461
1.49558 0.95149302 1.218379
1.4886 0.96143204 1.2166901
1.47752 0.967035 1.220201
1.51657 0.90518099 1.209599
1.5085601 0.911915 1.210694
1.5016299 0.92321098 1.211814
1.4954 0.93403506 1.2127091
1.4931301 0.949812 1.209234
1.48695 0.96261001 1.2084191
1.46156 0.95761704 1.2202771
1.50902 0.90113699 1.205436
1.5019701 0.90812302 1.204578
1.4998399 0.92091799 1.2034911
1.49351 0.93442595 1.2040781
1.4912 0.94850802 1.200947
1.4832699 0.95799798 1.201259
1.46263 0.95780998 1.211446
1.5047001 0.90061098 1.19865
1.495 0.90470296 1.2006021
1.48886 0.913019 1.2010471
1.4910899 0.93002898 1.196137
1.4878501 0.94568497 1.193929
1.48429 0.95878899 1.190538
1.4674699 0.95949095 1.1996421
1.4919901 0.90608197 1.194283
1.49244 0.91950107 1.189787
1.4880099 0.93238801 1.187013
1.47776 0.94197404 1.189592
1.49072 0.96252 1.1780831
1.46587 0.957968 1.1912661
1.4875301 0.919438 1.182416
1.48584 0.93095595 1.179274
1.4826199 0.94380701 1.177438
1.48629 0.95938903 1.1733561
1.46852 0.91065496 1.182964
1.4827 0.93046099 1.17206
1.4797301 0.94165301 1.169445
1.48169 0.95436895 1.1670851
1.4632001 0.91928202 1.175658
1.4699401 0.93429703 1.168499
1.4755 0.94868696 1.162799
1.46746 0.93279999 1.1640381
1.49642 0.86266297 1.1327651
1.5062801 0.86800003 1.1183879
1.49778 0.87369204 1.120862
1.49035 0.88427299 1.1205029
1.47473 0.89134198 1.127298
1.47163 0.90299302 1.123998
1.49985 0.86559194 1.11273
1.49739 0.87638098 1.11094
1.49112 0.88687497 1.110518
1.4760201 0.89068395 1.118114
1.4704601 0.901438 1.117049
1.46823 0.91425401 1.112329
1.48901 0.85991096 1.10953
1.4966999 0.874192 1.103292
1.48903 0.88327795 1.1039391
1.47569 0.89157599 1.108672
1.4722501 0.90539497 1.1055911
1.47174 0.918679 1.100867
1.4753799 0.93212098 1.094867
1.4904 0.87252897 1.097048
1.48384 0.88434798 1.096736
1.4713 0.89223599 1.101519
1.47431 0.90789396 1.0947231
1.47243 0.92087501 1.091133
1.4752001 0.934412 1.085094
1.49545 0.87783301 1.082968
1.48601 0.88448095 1.085138
1.4723599 0.89179903 1.091778
1.4715199 0.90714502 1.086509
1.47604 0.92514098 1.078305
1.4730901 0.93411398 1.077824
1.4902099 0.87698901 1.0766439
1.48287 0.883968 1.076769
1.4735899 0.89297205 1.079921
1.47384 0.91064203 1.074255
1.47101 0.92222601 1.07184
1.47054 0.93241203 1.0707021
1.4838901 0.88460898 1.068362
1.46997 0.930749 1.0608764
1.4678 1.10084 1.4015671
1.4653 1.0994899 1.394454
1.4752499 1.1049299 1.382504
1.4798501 1.1192299 1.379554
1.4760001 1.0922799 1.3648942
1.47771 1.09534 1.355914
1.4866999 1.11084 1.349967
1.4824201 1.09991 1.346812
1.47287 1.10409 1.348269
1.47935 1.10014 1.340307
1.46987 1.1035299 1.342187
1.46926 1.10447 1.336503
1.56429 0.94550598 1.275831
1.53381 0.94377297 1.276981
1.55312 0.92676598 1.26432
1.5591201 0.94082999 1.258494
1.5321201 0.94130301 1.2690511
1.52563 0.951864 1.270583
1.49519 0.97342497 1.2791741
1.56532 0.93263495 1.2495999
1.55765 0.93840796 1.2514781
1.5386701 0.94180495 1.257796
1.52308 0.94823098 1.26407
1.51572 0.95859396 1.2647821
1.57498 0.93717498 1.236185
1.55739 0.93837094 1.243803
1.5348899 0.93956202 1.250684
1.5217199 0.94922501 1.2548641
1.5143601 0.96065003 1.256639
1.5085499 0.96805602 1.255725
1.55282 0.936611 1.2362571
1.5257601 0.93724704 1.245551
1.51029 0.94522697 1.250782
1.51328 0.95965201 1.248533
1.50132 0.96356499 1.250307
1.56078 0.92934799 1.224683
1.54514 0.93226898 1.230281
1.5256599 0.93528003 1.236662
1.5091901 0.94227999 1.2426261
1.5068099 0.955697 1.242852
1.4997301 0.96252704 1.241973
1.5472701 0.92082196 1.222646
1.5417399 0.92999297 1.2227761
1.51806 0.933864 1.2315071
1.50603 0.94137603 1.2361231
1.50175 0.95215797 1.236106
1.4913601 0.95779097 1.23736
1.54854 0.90999299 1.21509
1.5444701 0.91826701 1.215223
1.52868 0.92449403 1.2197241
1.51343 0.93223 1.224937
1.5078399 0.94288802 1.227387
1.49884 0.95110703 1.228284
1.48603 0.95444506 1.2321991
1.5438901 0.90688598 1.208854
1.53564 0.91384399 1.211457
1.53097 0.92302203 1.2100071
1.51482 0.93037903 1.215548
1.50428 0.94068301 1.2204521
1.4941499 0.94734001 1.2220081
1.54162 0.90490305 1.2009521
1.53536 0.91246498 1.2027301
1.51752 0.91744006 1.208497
1.50494 0.92593598 1.2109441
1.50104 0.93820798 1.2127661
1.4887601 0.94309199 1.215072
1.5314599 0.900307 1.1974189
1.5192101 0.90580201 1.202471
1.51451 0.91619498 1.201048
1.49737 0.92132497 1.206342
1.4922 0.933384 1.207033
1.47817 0.93708503 1.2123491
1.5355901 0.90186399 1.186179
1.52025 0.90525299 1.192631
1.50414 0.91145205 1.197572
1.4974999 0.92378306 1.197345
1.49112 0.93343699 1.1989421
1.48151 0.93818396 1.202245
1.5247999 0.89760399 1.1835459
1.50615 0.90005094 1.189981
1.5007601 0.91156 1.1903939
1.49051 0.91927099 1.1919
1.4879899 0.93093103 1.192842
1.47489 0.93345201 1.1976351
1.50702 0.89087999 1.184213
1.50598 0.89998198 1.181583
1.4939799 0.90691298 1.1851519
1.48718 0.91675001 1.185914
1.4843601 0.92665702 1.185883
1.49567 0.89701104 1.17998
1.4926801 0.90670305 1.1779571
1.48586 0.91518205 1.17943
1.47229 0.91866702 1.1846941
1.48588 0.90472299 1.1757231
1.48072 0.91309303 1.17585
1.5053999 0.84432101 1.137567
1.50019 0.85239601 1.1376461
1.5197001 0.85258299 1.120481
1.51914 0.86277997 1.1167281
1.49906 0.86540103 1.126678
1.52082 0.864052 1.1079351
1.5113699 0.87154406 1.109395
1.49532 0.87652498 1.117645
1.48832 0.88643402 1.117385
1.5172701 0.86532801 1.0987531
1.50853 0.87265998 1.100678
1.4952999 0.87925905 1.1071351
1.4872099 0.88990194 1.1071991
1.4734199 0.89427102 1.112397
1.50634 0.86173701 1.095721
1.51231 0.87420499 1.0896131
1.4953301 0.878775 1.097533
1.4863299 0.88848799 1.0998261
1.4786201 0.898265 1.100729
1.47051 0.90670997 1.101445
1.51122 0.87488997 1.0803061
1.49755 0.87991697 1.0867161
1.4874099 0.88758302 1.090943
1.4778999 0.89664805 1.092808
1.4709599 0.90750903 1.093101
1.47104 0.92161798 1.087629
1.5082899 0.87534696 1.070781
1.49997 0.88199401 1.074982
1.4824699 0.88778704 1.083617
1.4716001 0.89810097 1.086437
1.46681 0.909087 1.086381
1.46948 0.92185098 1.0802211
1.4738801 0.93521601 1.073891
1.5116701 0.877002 1.0587101
1.5036501 0.88384104 1.0624822
1.48338 0.887649 1.072868
1.47575 0.898785 1.074628
1.46824 0.90937102 1.0771021
1.46892 0.922723 1.071484
1.4782801 0.93985903 1.0597185
1.52319 0.88210601 1.0430095
1.50857 0.88523299 1.0493509
1.4857601 0.88835996 1.0614297
1.47507 0.89793402 1.0654587
1.47144 0.92485601 1.0599549
1.47544 0.93953794 1.0521795
1.48637 0.95629096 1.041603
1.51934 0.88055605 1.0366187
1.50379 0.88324302 1.0425218
1.48847 0.88927495 1.0491838
1.4776 0.94264001 1.0410517
1.4829899 0.95572501 1.0351416
1.5119799 0.87841105 1.0306916
1.49857 0.88291395 1.0363313
1.47377 0.940624 1.0347211
1.48041 0.95419604 1.0274096
1.51614 0.88107497 1.018164
1.4955601 0.88008904 1.0302758
1.47851 0.95299304 1.018236
1.44915 1.0332199 1.315954
1.4666001 1.03158 1.3048471
1.44823 1.03396 1.3102421
1.4960201 0.96888101 1.295881
1.47052 1.01168 1.2998871
1.4724699 1.02363 1.295276
1.45787 1.02968 1.300613
1.4391299 1.02996 1.3078461
1.48106 1.02619 1.28216
1.45662 1.0274 1.294142
1.4426601 1.0310299 1.299318
1.5699699 0.94090497 1.2536811
1.4717 0.99992698 1.283874
1.4515899 1.02566 1.290529
1.4413201 1.0305101 1.293963
1.56435 0.939758 1.247345
1.5369 0.94972301 1.256125
1.48141 1.0032099 1.271258
1.5592599 0.93768901 1.239781
1.5458599 0.94238603 1.244634
1.53031 0.94533098 1.2509381
1.47683 0.99881798 1.264509
1.49325 1.01519 1.2538451
1.5583501 0.93611604 1.231636
1.5463699 0.940319 1.2360411
1.53537 0.94552594 1.239592
1.4777901 0.99764097 1.255349
1.4862399 1.01025 1.2480741
1.5504299 0.932702 1.227756
1.53965 0.93774694 1.230517
1.5261799 0.94171602 1.23431
1.4810001 0.99005097 1.246941
1.47869 0.99780601 1.246925
1.48878 1.01065 1.238428
1.54714 1.06086 1.197883
1.5447201 0.91687304 1.21998
1.54362 0.92899805 1.221804
1.5255001 0.93177497 1.228779
1.52373 0.94094598 1.2263831
1.4848399 0.98969901 1.235445
1.4811 0.99786597 1.2376961
1.49897 1.0140799 1.225495
1.5405099 1.05641 1.1951339
1.53688 1.06613 1.194859
1.52461 1.07156 1.198547
1.5630499 0.91015506 1.204334
1.54084 0.91180396 1.214857
1.5390899 0.92404401 1.215323
1.5216099 0.93000102 1.221821
1.5099499 0.93526399 1.224812
1.48601 0.98773497 1.226112
1.4817101 0.99605906 1.228083
1.5217799 1.03478 1.19998
1.5381799 1.05565 1.18893
1.5287199 1.06424 1.191855
1.516 1.06806 1.1966281
1.5464901 0.90420502 1.206778
1.54154 0.91229701 1.2072821
1.5273399 0.919954 1.212453
1.51517 0.927818 1.216325
1.50116 0.93137199 1.2209951
1.47679 0.97396797 1.2253871
1.48535 0.98734802 1.218719
1.4983901 1.00799 1.2077761
1.52299 1.0356801 1.191529
1.53478 1.0533299 1.18278
1.5313901 1.0633999 1.1825399
1.51828 1.06822 1.188449
1.54462 0.90410006 1.199554
1.5258099 0.90745497 1.206112
1.51596 0.91679299 1.210318
1.5114599 0.92592698 1.209906
1.4869599 0.92474002 1.2210231
1.48715 0.97807997 1.211893
1.49558 0.99245697 1.2032189
1.4875 1.00289 1.20445
1.50363 1.02394 1.1941819
1.52674 1.04906 1.179656
1.53283 1.06382 1.174492
1.53348 0.90003997 1.1958621
1.5209801 0.90508795 1.198981
1.513 0.914226 1.2037101
1.50172 0.92035103 1.2067751
1.49468 0.97917002 1.198176
1.49631 0.98996198 1.194149
1.4833901 0.99845803 1.198362
1.4838699 1.01332 1.196372
1.5084399 1.03739 1.1829669
1.51998 1.0553399 1.174978
1.5280401 0.89819002 1.1884091
1.51272 0.90242994 1.1949151
1.51063 0.91259104 1.196056
1.48883 0.91319102 1.204628
1.48087 0.96272105 1.1991341
1.49728 0.97912699 1.18804
1.4959301 0.99077797 1.1859111
1.47492 0.99484301 1.19344
1.4676801 1.00569 1.196046
1.45646 1.01223 1.1996551
1.44952 1.01998 1.198997
1.5264101 0.896056 1.1794419
1.5122 0.90116203 1.187117
1.5039799 0.909217 1.19122
1.4851199 0.91045702 1.199151
1.48706 0.96479899 1.186985
1.4957001 0.97899002 1.1806511
1.49035 0.988832 1.179997
1.47166 0.99328202 1.1868581
1.4628301 1.0028399 1.189424
1.4514101 1.01121 1.194005
1.44099 1.01658 1.196807
1.5248101 0.89395797 1.1717581
1.51477 0.89987296 1.176254
1.49897 0.90528297 1.18568
1.4850301 0.96227098 1.179275
1.4902201 0.97533995 1.17405
1.48151 0.98617399 1.175807
1.46504 0.992881 1.182161
1.4576601 1.0012699 1.183964
1.4528999 1.01056 1.184711
1.4412301 1.01642 1.1896111
1.5124401 0.88118398 1.173049
1.51814 0.89158404 1.168499
1.51029 0.89815694 1.170148
1.4950501 0.90162003 1.177605
1.48137 0.95903099 1.172498
1.49194 0.97379202 1.163389
1.47808 0.98078001 1.169582
1.4693401 0.99126101 1.171809
1.46004 1.00157 1.174049
1.4452699 1.0089099 1.1821871
1.4466799 1.01972 1.179626
1.50448 0.88794196 1.169116
1.4976699 0.89446503 1.1703961
1.4896801 0.89955103 1.17325
1.4730201 0.94540399 1.170964
1.48544 0.95986605 1.161348
1.48523 0.97268897 1.15801
1.47604 0.98274004 1.161932
1.47426 0.99518502 1.1594371
1.48026 1.0095401 1.152434
1.47569 1.01642 1.15353
1.4834 0.88885999 1.1731
1.4837601 0.94926596 1.156775
1.4864501 0.959934 1.151872
1.4871001 0.97191298 1.147812
1.4845599 0.98633003 1.147006
1.47866 0.99829698 1.148303
1.4779601 1.00776 1.1455541
1.4818 0.94819295 1.149133
1.48884 0.96086305 1.141396
1.49195 0.97510302 1.1362491
1.5008 0.99395204 1.1268871
1.4877 1.00128 1.134201
1.48805 1.0125 1.129209
1.48541 0.94980001 1.137779
1.49492 0.96358001 1.128772
1.49845 0.97836196 1.1238281
1.49766 0.99458396 1.120295
1.4930201 1.00506 1.120597
1.4893299 1.0145099 1.1182971
1.48651 0.94998097 1.1279451
1.49714 0.96273005 1.118615
1.48849 1.0046901 1.115012
1.49122 1.01614 1.110128
1.50659 1.03338 1.095973
1.49281 0.95155603 1.115918
1.49954 0.96193904 1.109457
1.49183 1.01873 1.10036
1.5034801 1.0341101 1.08787
1.48864 0.948991 1.1119521
1.49137 1.02054 1.088719
1.49968 1.03283 1.0811501
1.48946 1.01929 1.079572
1.4848399 1.02494 1.08128
1.47877 1.00598 1.0803469
1.4885299 1.0183101 1.0725009
1.48871 1.02639 1.068768
1.51688 0.88131303 1.07297
1.4927001 0.88273901 1.086666
1.48429 0.89184403 1.089445
1.4728501 0.89871299 1.093716
1.4862801 1.01815 1.0650953
1.48991 1.0274501 1.0582494
1.5201 0.88165396 1.0641571
1.4988201 0.88308901 1.0764199
1.48805 0.89163595 1.0808151
1.47054 0.897596 1.0892191
1.46558 0.90600199 1.0890911
1.48185 1.01642 1.0589582
1.4916201 1.02916 1.049511
1.5189999 0.88190699 1.057053
1.5009599 0.88322306 1.067511
1.4863601 0.88963997 1.0731
1.47129 0.89777493 1.080366
1.4755299 1.01369 1.0562639
1.49603 0.88424402 1.0605522
1.47961 0.888367 1.068262
1.47487 0.89881796 1.068058
1.49108 0.88409305 1.0519375
1.48063 0.890122 1.0582814
1.4932201 0.88449305 1.0404387
1.49404 0.88471299 1.0312754
1.47674 1.12108 1.422104
1.47175 1.13358 1.422262
1.4681799 1.1202201 1.4192489
1.46004 1.13098 1.421194
1.45772 1.14274 1.4192599
1.4729201 1.10947 1.412745
1.46543 1.1180301 1.412886
1.4589101 1.1294999 1.413938
1.459 1.1427701 1.411989
1.47129 1.10799 1.4053431
1.46209 1.1181901 1.4068341
1.45581 1.1274099 1.408111
1.45904 1.14185 1.405921
1.4646001 1.10245 1.400979
1.4657 1.1159999 1.398916
1.45944 1.1265 1.4005569
1.46973 1.10532 1.392538
1.4739701 1.1205601 1.3897231
1.49859 1.10487 1.3516071
1.4832699 1.0982499 1.352365
1.4824699 1.1094 1.349866
1.4687899 1.0784301 1.3529221
1.46813 1.0919499 1.351792
1.4668 1.1032701 1.350739
1.45818 1.1132801 1.350209
1.4553101 1.1274099 1.347743
1.44012 1.13456 1.3517221
1.4481399 1.15195 1.3453
1.42197 1.16804 1.3523719
1.46892 1.09482 1.3439801
1.46146 1.10298 1.345576
1.4552699 1.11331 1.344118
1.4460499 1.12352 1.3455051
1.43918 1.13506 1.346065
1.42483 1.14 1.351534
1.41925 1.15227 1.350701
1.45704 1.10421 1.3397501
1.4492199 1.11371 1.339679
1.44778 1.12466 1.3377471
1.43635 1.1324099 1.340323
1.4254401 1.1414399 1.3440911
1.41851 1.1516401 1.343208
1.46304 1.11919 1.327975
1.4438001 1.1231099 1.3337719
1.43393 1.13341 1.3342199
1.42199 1.14064 1.337661
1.4145501 1.14912 1.338659
1.4264599 1.14232 1.3299341
1.4193 1.1502 1.331656
1.4680901 1.04777 1.3070489
1.4695899 1.02973 1.304371
1.4579101 1.03474 1.307233
1.44356 1.03951 1.311371
1.43128 1.0442801 1.3152909
1.4601401 1.02711 1.299332
1.44164 1.03002 1.3069091
1.43071 1.03689 1.3101441
1.4156101 1.04094 1.314857
1.45992 1.02642 1.290863
1.44455 1.02992 1.297552
1.43278 1.03613 1.302395
1.4121499 1.03944 1.309854
1.3967199 1.04555 1.314235
1.3825999 1.05321 1.317207
1.38963 1.06668 1.311196
1.4690601 1.02985 1.2800951
1.4463 1.0309501 1.289449
1.4255 1.0346199 1.297768
1.40285 1.03903 1.3061621
1.38572 1.04418 1.312562
1.37826 1.05191 1.313141
1.37024 1.05928 1.3148731
1.42608 1.03625 1.2898849
1.40534 1.03872 1.298182
1.38565 1.04363 1.3049021
1.3669701 1.0490899 1.311514
1.3990401 1.0391101 1.293613
1.37911 1.04118 1.3007071
1.37202 1.04888 1.30188
1.3692399 1.03961 1.2987289
1.4326601 0.99979401 1.2028691
1.4351699 1.01253 1.199383
1.4311999 1.02477 1.199761
1.41811 1.0455999 1.202711
1.42472 0.98789102 1.2036771
1.43967 1.00239 1.192708
1.43799 1.0138401 1.192081
1.4292901 1.02201 1.195804
1.4267399 1.03497 1.194543
1.41862 1.04432 1.196713
1.4182 1.05593 1.19473
1.44019 0.99304396 1.187853
1.44722 1.00307 1.1809181
1.44091 1.0116 1.183822
1.4361399 1.02496 1.185801
1.43038 1.0363201 1.186559
1.4212601 1.04562 1.189433
1.45599 1.08983 1.160446
1.45095 0.99629402 1.173286
1.46517 1.00912 1.162172
1.47609 1.10193 1.137696
1.4645799 1.00096 1.156284
1.4733599 1.01092 1.14747
1.4707 1.0023201 1.143227
1.4784399 1.0119001 1.134943
1.4860899 1.00684 1.12389
1.48067 1.01193 1.124308
1.48172 0.99662101 1.119302
1.4840801 1.00546 1.115898
1.4903901 1.01617 1.1092571
1.4916999 0.99982297 1.1039211
1.48826 1.00725 1.104338
1.4824899 1.0134101 1.105907
1.49323 0.999515 1.0930071
1.48862 1.0061001 1.0961
1.48792 1.0145099 1.094023
1.49283 0.99957001 1.083698
1.48757 1.00562 1.087799
1.4884599 1.0145099 1.0833731
1.50448 1.00334 1.066957
1.48737 1.0057499 1.078235
1.48769 1.0141701 1.073922
1.49946 1.0014 1.0614312
1.49227 1.00755 1.0648328
1.48765 1.01503 1.0641849
1.49615 1.00124 1.0538694
1.48808 1.0075001 1.0574374
1.48303 1.0140001 1.05885
1.49685 1.00082 1.0426724
1.4902999 1.00743 1.0465528
1.4869901 1.0150701 1.0482479
1.49737 1.00052 1.0339121
1.4951601 1.00832 1.0332001
1.4865199 1.0138401 1.0392872
1.49748 1.00112 1.0248686
1.4959599 1.00947 1.0220344
1.48764 1.01429 1.0284474
1.50043 1.00319 1.0117078
1.49577 1.0100701 1.0127224
1.4900999 1.0158401 1.0168347
1.49959 1.0021499 1.0018328
1.4950999 1.00904 1.004338
1.5005299 1.0026001 0.99113637
1.4977499 1.00945 0.99338281
1.47088 1.13222 1.4230419
1.46973 1.1425 1.4229621
1.46841 1.1129 1.4194549
1.46367 1.12564 1.420481
1.4600101 1.13785 1.4212041
1.4619 1.11374 1.415989
1.46172 1.1262001 1.415292
1.4557899 1.1348799 1.415482
1.4619099 1.11026 1.4090101
1.46035 1.1243399 1.40785
1.4544799 1.1360099 1.409307
1.46244 1.09808 1.403056
1.46741 1.1135501 1.398999
1.4685 1.12623 1.396814
1.4598801 1.1365499 1.4003601
1.46313 1.1531301 1.397643
1.4715899 1.10242 1.391848
1.4849299 1.12152 1.385393
1.48148 1.1318901 1.386132
1.46336 1.08503 1.371199
1.47971 1.10027 1.3630569
1.4522001 1.06981 1.37061
1.4654201 1.08653 1.361698
1.46222 1.09596 1.362721
1.4591 1.07262 1.359889
1.46944 1.0877301 1.353133
1.4607401 1.09641 1.3557739
1.45679 1.10791 1.354652
1.4529899 1.1218901 1.352192
1.45541 1.13598 1.3491111
1.46778 1.07708 1.3500149
1.46464 1.0889701 1.3496829
1.45742 1.1002101 1.3496319
1.45847 1.1133599 1.3459109
1.45383 1.1226699 1.3461621
1.4453701 1.13155 1.347894
1.4433501 1.14226 1.3477161
1.4269201 1.1492801 1.351651
1.41608 1.15861 1.3536731
1.45064 1.11114 1.342597
1.44919 1.12192 1.341225
1.43963 1.13132 1.3426139
1.43267 1.141 1.3449221
1.4158 1.14846 1.350127
1.45381 1.11308 1.334447
1.44591 1.12035 1.336148
1.44178 1.1310199 1.3350461
1.4315 1.13985 1.33755
1.4216599 1.1487401 1.340634
1.43935 1.1424401 1.327778
1.42351 1.1480401 1.333369
1.4177099 1.15883 1.334695
1.4663401 1.0250701 1.3226489
1.42751 1.15031 1.326166
1.4715199 1.00346 1.3051311
1.4740199 1.03798 1.3019611
1.46224 1.04498 1.304193
1.48286 0.99510902 1.2928979
1.46373 1.03509 1.2990531
1.44362 1.04047 1.305925
1.42818 1.04659 1.3111451
1.41228 1.05459 1.315199
1.47786 0.98283404 1.2891921
1.46132 1.03579 1.2917191
1.43257 1.0397899 1.3046881
1.41725 1.0463099 1.309357
1.4002401 1.0525 1.314762
1.4050101 1.0634999 1.310676
1.4869299 1.0049 1.2762281
1.4885299 1.03926 1.270148
1.4251801 1.03932 1.301174
1.4103799 1.04582 1.304845
1.3932 1.05039 1.3121581
1.38814 1.05834 1.3130859
1.38073 1.06532 1.314622
1.49694 0.97509801 1.265238
1.4139301 1.03882 1.2981601
1.4051499 1.04432 1.300473
1.39407 1.0507801 1.304812
1.3719701 1.05496 1.31322
1.36755 1.06208 1.31428
1.5056701 0.97562498 1.2521111
1.50094 0.98463601 1.254295
1.4917301 1.00538 1.255793
1.4859599 1.01658 1.255739
1.49489 1.0297899 1.2523429
1.3993201 1.0445 1.2967511
1.3811901 1.0488 1.3036129
1.3721001 1.05513 1.305391
1.49114 0.96211505 1.252183
1.4976401 0.97144204 1.248796
1.50177 0.98313498 1.245836
1.49875 0.99542397 1.2450991
1.48506 1.005 1.2498879
1.4790801 1.01436 1.2518131
1.48954 1.0259401 1.2456321
1.3744999 1.04817 1.299039
1.48233 0.96028101 1.249917
1.5022099 0.97301102 1.23928
1.49642 0.98351502 1.239329
1.49657 0.99620199 1.237982
1.48045 1.0023201 1.244182
1.4805499 1.01362 1.2436039
1.4948399 1.02637 1.234432
1.3731301 1.04975 1.2910721
1.4953901 0.97333395 1.234583
1.49563 0.98337305 1.231612
1.4922501 0.99437797 1.2315789
1.4786999 1.00319 1.238052
1.48788 1.01515 1.231066
1.4955901 0.98489797 1.22315
1.4937199 0.99578303 1.2214481
1.4813401 1.00317 1.228466
1.4996201 1.01737 1.215327
1.4903599 0.98437399 1.216576
1.49357 0.99461001 1.21295
1.48465 1.00398 1.2172251
1.4981301 1.0171601 1.207592
1.48783 0.98422897 1.208951
1.49342 0.99500799 1.20417
1.4884501 1.00369 1.206876
1.4912 1.01536 1.202499
1.4746499 0.91811699 1.214494
1.4846001 0.92669898 1.20752
1.4834 0.98252195 1.203501
1.49158 0.99299699 1.197549
1.4909599 1.0044999 1.196409
1.48739 1.01622 1.194701
1.49658 1.0276899 1.189343
1.4800999 0.91954303 1.205102
1.48599 0.92675 1.199226
1.48028 0.98209298 1.197268
1.4926 0.99466205 1.188338
1.4899899 1.0059201 1.187335
1.4763901 1.01428 1.192063
1.47809 1.0253199 1.190942
1.4522001 1.0307499 1.2008799
1.4600101 1.04327 1.194252
1.4845799 0.91982299 1.194075
1.48206 0.92585802 1.192387
1.49165 0.98558897 1.18111
1.4924001 0.99591303 1.1798201
1.4714501 1.00193 1.188617
1.46613 1.01179 1.190505
1.4581 1.02092 1.193709
1.4486901 1.0304199 1.1958051
1.43677 1.03785 1.2008671
1.4235899 1.0474501 1.20473
1.4177201 1.05925 1.205047
1.48297 0.91865194 1.185261
1.48535 0.92806298 1.18075
1.48093 0.97912699 1.1775219
1.4831599 0.99213099 1.1753759
1.46438 0.99994397 1.1840301
1.4600199 1.01088 1.1859519
1.44585 1.02 1.191689
1.43829 1.03014 1.193904
1.42671 1.0391101 1.198245
1.4191999 1.0493901 1.2002931
1.41682 1.05922 1.199913
1.475 0.90845102 1.182875
1.4803799 0.91762 1.177994
1.48278 0.92901099 1.1737331
1.47473 0.93883401 1.17739
1.46211 0.94845599 1.182725
1.47315 0.96362001 1.175205
1.4787899 0.97777003 1.170727
1.4824899 0.99141902 1.1656871
1.46539 0.99887705 1.1756051
1.4581599 1.0082901 1.179088
1.44924 1.0181401 1.1815441
1.4396499 1.02793 1.1861351
1.4291999 1.03719 1.189496
1.42379 1.04872 1.19078
1.4842 0.91007102 1.169441
1.48118 0.91817003 1.168401
1.4813 0.92931098 1.16676
1.47646 0.93856597 1.169727
1.4750999 0.95072001 1.1687651
1.47732 0.96483904 1.1650771
1.48593 0.980214 1.1572011
1.48151 0.99202698 1.157697
1.47612 1.0020601 1.160557
1.4625701 1.00998 1.168268
1.46424 1.0214701 1.1638041
1.4413699 1.02836 1.177955
1.4388001 1.04005 1.177605
1.4309399 1.0486799 1.180483
1.4822501 0.90889502 1.160821
1.4749401 0.91570699 1.1640781
1.47895 0.926705 1.160455
1.4781101 0.93947196 1.16026
1.4794201 0.95287496 1.157243
1.4845799 0.96659398 1.151852
1.49164 0.97942102 1.145327
1.49034 0.99207097 1.1449951
1.48632 1.00457 1.145943
1.47664 1.01369 1.1509761
1.48314 1.02461 1.143057
1.4874001 0.90766096 1.148084
1.47849 0.91641998 1.153121
1.4787199 0.92957097 1.152042
1.4794201 0.94190902 1.15066
1.48138 0.95350504 1.1470951
1.48997 0.96759003 1.1398799
1.49324 0.978809 1.136397
1.4864399 1.00503 1.138003
1.48471 1.01553 1.1366161
1.4890699 1.02587 1.130134
1.47709 0.89677697 1.1471009
1.48278 0.90656197 1.142231
1.47446 0.91611397 1.145998
1.4750301 0.92674398 1.1461121
1.4764301 0.93975902 1.143607
1.48717 0.95526099 1.134635
1.48683 0.966304 1.1331691
1.49894 0.97781503 1.124468
1.4872301 1.00868 1.128271
1.4901199 1.01828 1.123363
1.4900301 1.02637 1.120286
1.4872099 0.89828199 1.1326489
1.48334 0.90556198 1.133817
1.4770501 0.91477799 1.135864
1.47207 0.92714798 1.1384641
1.48163 0.94343698 1.13072
1.48943 0.95701897 1.125035
1.4912399 0.96626502 1.1219541
1.4910699 1.01092 1.116204
1.4907001 1.0189099 1.11367
1.49148 1.02711 1.1104341
1.48409 0.89706498 1.125789
1.4805701 0.905384 1.126714
1.47314 0.91414905 1.130069
1.4717799 0.92471999 1.129642
1.4707201 0.937554 1.1279891
1.48873 0.95560205 1.117696
1.49449 0.96592402 1.112583
1.49186 1.0115499 1.1055551
1.4894099 1.01899 1.1060491
1.4926 1.0274299 1.10093
1.4797599 0.89682698 1.1191961
1.4766999 0.90513301 1.119567
1.4734501 0.91517401 1.12167
1.4671 0.925879 1.123888
1.4407001 0.93025595 1.136808
1.44743 0.939619 1.132161
1.49598 0.96584803 1.105858
1.49352 1.01133 1.094164
1.49114 1.01903 1.096181
1.4912801 1.0269899 1.0925881
1.4766999 0.90493399 1.111462
1.4708099 0.91311204 1.114753
1.46843 0.92368895 1.1146569
1.49598 1.01159 1.084192
1.49388 1.01926 1.084087
1.49103 1.02696 1.0841349
1.47404 0.90572405 1.1049041
1.4692301 0.91387498 1.106648
1.46668 0.92195201 1.1067359
1.49243 1.01071 1.078052
1.49463 1.0195 1.073644
1.4923301 1.0273 1.0741889
1.46556 0.91485703 1.0993741
1.46334 0.92159498 1.100607
1.49295 1.01151 1.067319
1.49043 1.01921 1.0675321
1.4945199 1.0284801 1.0634829
1.4932001 1.0111799 1.056965
1.4898 1.0181099 1.0597154
1.4889301 1.02609 1.0580876
1.49298 1.01127 1.0474803
1.48959 1.0179499 1.0507994
1.4925799 1.02694 1.0452942
1.4932201 1.01134 1.0377915
1.4909599 1.0186499 1.0402449
1.48992 1.02632 1.0371913
1.49524 1.0116401 1.0268112
1.49008 1.0184 1.0310047
1.4910899 1.02692 1.0266753
1.4960201 1.0118001 1.0173539
1.49537 1.01991 1.0166268
1.49034 1.0267501 1.0182493
1.49491 1.01192 1.0088215
1.49435 1.0196199 1.0081322
1.4968899 1.0122499 0.99685311
1.5680299 1.01946 1.42225
1.56645 0.99972701 1.423528
1.5730799 1.0190799 1.417747
1.57084 1.00912 1.4174969
1.5716001 1.01009 1.409559
1.5691299 1.00018 1.4097461
1.55827 0.99030095 1.4044461
1.57458 1.0075001 1.4047501
1.5707 0.99798203 1.4029989
1.56118 0.98890901 1.3973989
1.58113 1.02476 1.3983191
1.57713 1.00673 1.398012
1.57399 0.99562204 1.397068
1.5562301 0.98017699 1.389044
1.58518 1.02326 1.3919851
1.5876199 1.0157499 1.394151
1.57989 0.99682897 1.3920221
1.57829 0.98660201 1.3935291
1.56366 0.97976702 1.385569
1.58952 1.01502 1.3881531
1.58301 0.99570704 1.3851421
1.57709 0.98591304 1.3847549
1.5637 0.97784305 1.3778011
1.5953101 1.02097 1.382201
1.5903101 1.01324 1.380643
1.58547 1.00448 1.379236
1.58952 0.99519598 1.3813961
1.58204 0.98667902 1.378873
1.5723399 0.977947 1.3747351
1.5933501 1.0218199 1.372859
1.5983599 1.01326 1.377063
1.59516 1.00352 1.376959
1.59086 0.99272901 1.3749001
1.58178 0.98402601 1.371956
1.5738001 0.97612602 1.3672462
1.59772 1.0203099 1.367468
1.6024201 1.01046 1.371875
1.5976601 1.0008301 1.370204
1.60008 0.99029899 1.3723789
1.5822001 0.983675 1.3641211
1.5787899 0.97531402 1.362715
1.56522 0.97068399 1.354957
1.5972099 1.02065 1.3593271
1.60558 1.0110199 1.365088
1.6045799 1.00173 1.36692
1.6000301 0.99226195 1.3645531
1.59715 0.98279101 1.365266
1.58358 0.97536105 1.357928
1.56907 0.96971297 1.348367
1.60349 1.01889 1.3556141
1.6074699 1.0102201 1.3574561
1.60858 1.00001 1.361271
1.60146 0.99144697 1.3582431
1.6006501 0.98176903 1.3592911
1.58495 0.97336996 1.3494921
1.6076801 1.0171601 1.3496021
1.6111901 1.00938 1.3526781
1.6112601 1.00027 1.354037
1.6078999 0.98997498 1.3552139
1.60063 0.98026496 1.350076
1.58836 0.971883 1.343349
1.57504 0.96693099 1.336799
1.6086 1.01763 1.3412601
1.6157401 1.0078701 1.3482699
1.6138099 0.99920499 1.348145
1.6124001 0.98949099 1.348994
1.60352 0.98082197 1.3435141
1.60001 0.97116601 1.3427711
1.58461 0.96525705 1.3355991
1.61035 1.01767 1.334697
1.6156 1.00913 1.339471
1.6176699 0.99812204 1.342574
1.6137199 0.987185 1.3416439
1.6075701 0.97828901 1.339241
1.60728 0.96933097 1.3388181
1.5950301 0.96360999 1.33443
1.61304 1.01658 1.3286791
1.62044 1.00635 1.334902
1.62869 0.99585098 1.341617
1.6237601 0.98779702 1.33957
1.61889 0.97654295 1.337926
1.6148 0.96767199 1.336362
1.6039599 0.96090102 1.3299831
1.62281 1.00726 1.3280851
1.62562 0.99668002 1.331821
1.62836 0.98479402 1.334147
1.6286501 0.97432405 1.3355831
1.61331 0.96721399 1.3278711
1.6085899 0.95771796 1.324767
1.5829899 0.95411795 1.3085511
1.6162699 1.0152301 1.31461
1.6294299 1.00393 1.32461
1.62909 0.99357396 1.325941
1.6336099 0.98400003 1.3302591
1.62977 0.97627699 1.328611
1.62374 0.967013 1.325918
1.61388 0.95746005 1.3203931
1.59808 0.95015299 1.311522
1.58009 0.94544703 1.299976
1.62789 1.0052201 1.3159621
1.63063 0.99533403 1.318257
1.63174 0.98464304 1.321893
1.62968 0.97441101 1.320372
1.6199001 0.965141 1.315572
1.61731 0.95571405 1.3142771
1.6074001 0.94831496 1.30998
1.5865899 0.94366401 1.298039
1.56656 0.94022906 1.285072
1.6276801 1.00358 1.307762
1.63754 0.993451 1.3153861
1.6341001 0.98459798 1.314483
1.6335001 0.97357804 1.3137851
1.6316 0.96471399 1.3156979
1.62648 0.95597196 1.3131289
1.61728 0.947312 1.307734
1.5970799 0.94223601 1.297583
1.6262399 1.00219 1.2975861
1.6332099 0.99355698 1.3052291
1.6360099 0.982629 1.306711
1.63213 0.97327697 1.305138
1.63143 0.96367204 1.307547
1.6293499 0.95359999 1.307603
1.6206599 0.94665605 1.30093
1.6136301 0.94021302 1.299312
1.6333799 0.99243701 1.296347
1.63074 0.98363703 1.29488
1.63992 0.97323996 1.3033081
1.6331301 0.96510905 1.299929
1.63019 0.95465106 1.2996701
1.62655 0.94602096 1.296682
1.61935 0.93906099 1.293334
1.62535 0.99345398 1.282384
1.63291 0.98438102 1.289261
1.63331 0.97383004 1.290451
1.6324099 0.96312696 1.292037
1.62976 0.95367301 1.2906051
1.6246099 0.94439006 1.2874221
1.61938 0.93610299 1.284546
1.58441 0.92879403 1.258538
1.46763 1.09778 1.147094
1.63273 0.98255205 1.280936
1.6312699 0.97370201 1.280753
1.6329499 0.96307403 1.283278
1.6312699 0.95209998 1.283614
1.63243 0.94300199 1.285296
1.6222099 0.93553597 1.2785211
1.59943 0.92818397 1.2637911
1.58103 0.92142099 1.251139
1.5352401 0.91471803 1.2193711
1.5328 0.90800798 1.218411
1.4816999 1.09603 1.1493981
1.47691 1.08612 1.147949
1.63623 0.971901 1.276222
1.63852 0.96142095 1.2784359
1.6336701 0.953758 1.277549
1.63351 0.94373399 1.278329
1.6268201 0.93467003 1.27274
1.6069299 0.92771602 1.2612331
1.5850999 0.92073196 1.24719
1.56504 0.91254401 1.2339051
1.55317 0.90534598 1.22631
1.49975 1.10223 1.150691
1.50411 1.09042 1.156656
1.5084399 1.07793 1.1608831
1.4875301 1.0718399 1.149123
1.6331 0.972875 1.2648391
1.64072 0.96161699 1.272192
1.64179 0.95170599 1.275617
1.6359 0.94280899 1.271217
1.6281101 0.93508005 1.2655251
1.61686 0.92755097 1.2594701
1.5987101 0.919981 1.248031
1.5786 0.911336 1.234501
1.56705 0.90311402 1.228335
1.55445 0.89769697 1.22047
1.52553 1.0841401 1.1628109
1.5276101 1.07313 1.1665781
1.5189999 1.0648999 1.161691
1.51955 1.05434 1.163489
1.6345 0.97206998 1.2572991
1.6386701 0.96224701 1.2622501
1.6388201 0.95207602 1.2651989
1.6332099 0.94311696 1.260962
1.62202 0.93516099 1.25376
1.6108099 0.92677695 1.247058
1.5953101 0.91818297 1.236356
1.58425 0.90885699 1.22949
1.57613 0.90130895 1.2260051
1.5624601 0.89600503 1.218276
1.52912 1.0937899 1.155897
1.53229 1.0836101 1.159166
1.5311 1.0727201 1.161178
1.5234801 1.06346 1.1573191
1.5256701 1.05189 1.160656
1.5344299 1.03987 1.1669329
1.6344399 0.95282501 1.2535291
1.6224 0.94468498 1.244692
1.61909 0.93486702 1.243332
1.60663 0.92672503 1.235375
1.6033901 0.91787601 1.233297
1.5970501 0.90833396 1.229942
1.58355 0.90024102 1.222479
1.57187 0.89449304 1.2164011
1.5315801 1.0941501 1.1506341
1.5380499 1.08046 1.1578391
1.5054201 1.0584301 1.139829
1.625 0.954265 1.2378579
1.6175101 0.94473803 1.2321
1.6110699 0.93530297 1.2296591
1.60864 0.92598099 1.227815
1.6041499 0.91623199 1.226512
1.60218 0.90730202 1.224543
1.5915899 0.89962798 1.219121
1.57947 0.89356303 1.212689
1.62084 0.94480205 1.226364
1.61666 0.93600404 1.224684
1.61537 0.92635399 1.223328
1.61084 0.91589499 1.222098
1.60383 0.89889199 1.219125
1.5871 0.89265198 1.207781
1.6172999 0.93537903 1.216009
1.61192 0.92505097 1.212334
1.6173301 0.93415201 1.206342
1.58733 0.88757497 1.188998
1.5693099 0.88240403 1.176123
1.595 0.88828903 1.18626
1.5725999 0.88111198 1.170759
1.54919 0.87655997 1.1538091
1.54804 0.81811601 1.15299
1.6025701 0.88713801 1.182835
1.57635 0.88102096 1.164571
1.56366 0.87251002 1.155195
1.55036 0.82596999 1.1466011
1.54761 0.81851095 1.1459889
1.6067101 0.894391 1.176986
1.59903 0.88547403 1.1721691
1.5751899 0.87835997 1.154829
1.56458 0.86967903 1.14654
1.5399899 0.86324 1.128405
1.5255901 0.85588205 1.117708
1.55036 0.83944702 1.1361051
1.55715 0.82793403 1.143705
1.5530701 0.81952697 1.143031
1.6077901 0.88708097 1.169794
1.59409 0.87878305 1.160099
1.57683 0.87047303 1.147539
1.55773 0.86133903 1.1334031
1.5483 0.85152 1.12819
1.5573 0.84064901 1.1343091
1.55751 0.83042002 1.135453
1.56011 0.81954002 1.1396279
1.58904 0.877918 1.1471161
1.5780901 0.86886805 1.1393521
1.5638901 0.86011499 1.127885
1.5561399 0.85036302 1.125553
1.5650901 0.83842796 1.1314571
1.56678 0.82677001 1.134419
1.56905 0.81666803 1.137693
1.5946699 0.88602799 1.140666
1.58583 0.87667799 1.136313
1.5785401 0.86825997 1.130574
1.56993 0.85997701 1.1235851
1.5655 0.84949994 1.1219821
1.5656799 0.83904296 1.123129
1.5679801 0.82884902 1.1257
1.5680001 0.81690699 1.127574
1.60201 0.88472098 1.136668
1.5866901 0.87647402 1.1274561
1.57909 0.86734003 1.122643
1.5725701 0.85871297 1.117416
1.56559 0.85039103 1.112108
1.56524 0.84017199 1.114673
1.56033 0.82983899 1.112695
1.56221 0.81961799 1.11519
1.59852 0.91656196 1.1217999
1.5985 0.87609702 1.126626
1.5820199 0.86683702 1.115718
1.5732001 0.85781401 1.109359
1.56582 0.850528 1.103573
1.5769501 0.92641699 1.0935501
1.5918201 0.91719598 1.106711
1.6011901 0.90659797 1.115774
1.6102201 0.89501101 1.124446
1.59786 0.866584 1.119523
1.57065 0.85910106 1.098981
1.56328 0.85203004 1.093152
1.5798199 0.91789496 1.087391
1.5935 0.90762001 1.0998651
1.60664 0.895603 1.111932
1.59727 0.85830599 1.113896
1.56896 0.85183406 1.091326
1.57059 0.91837603 1.06864
1.5785201 0.90929002 1.0777169
1.5930099 0.89753896 1.091022
1.6149001 0.88445002 1.110839
1.5613999 0.920578 1.0501351
1.5735899 0.910119 1.0635916
1.5846699 0.89890701 1.074388
1.5988001 0.88701403 1.087275
1.5427201 0.93143404 1.0246645
1.56113 0.92138398 1.0401645
1.57332 0.91042703 1.0534443
1.5799201 0.90024698 1.0614394
1.5733 0.89088094 1.0554379
1.58272 0.88098902 1.0631529
1.5552499 0.92967397 1.0254232
1.56767 0.92012101 1.0364519
1.57066 0.91075599 1.0413439
1.5721401 0.89997202 1.0450643
1.5766901 0.88979799 1.0491993
1.56821 0.88268 1.0423548
1.55841 0.87586302 1.0334496
1.54796 0.93129802 1.0092911
1.5583501 0.92202902 1.0194013
1.5707201 0.91081202 1.0317043
1.57424 0.90091002 1.0372419
1.5714999 0.89083397 1.0357225
1.5565801 0.88270104 1.0226191
1.54373 0.87665802 1.0112181
1.5485801 0.93128097 1.0022781
1.55586 0.92223394 1.0084944
1.5661999 0.91111803 1.017939
1.5716799 0.90033799 1.0254635
1.56235 0.89074206 1.0173265
1.5494 0.88305002 1.0065364
1.53697 0.877657 0.99622136
1.56321 0.91027099 1.0049423
1.5634199 0.90033096 1.0073488
1.5537801 0.89097601 1.0001941
1.55142 0.88328099 0.99784434
1.56548 0.908104 0.99554574
1.56765 0.900765 1.0005571
1.5586799 0.89155602 0.99287963
1.45927 1.10488 1.415246
1.4796001 1.1172 1.415979
1.4810001 1.1250499 1.408772
1.48501 1.1150299 1.4124111
1.47983 1.11672 1.4027381
1.55836 0.99606204 1.420336
1.56609 0.99489897 1.3997189
1.5729699 0.99266505 1.395311
1.5526401 0.97673398 1.3888211
1.5792199 1.00042 1.3903171
1.5716799 0.99097198 1.387115
1.58761 1.01767 1.382321
1.58249 0.99844199 1.383907
1.57688 0.99004698 1.3825791
1.5761501 0.98067701 1.383896
1.56592 0.97403097 1.379739
1.59076 1.00695 1.3795371
1.5885 0.997172 1.3797171
1.5836099 0.98829901 1.3790829
1.5734801 0.98023301 1.374007
1.57381 0.97189301 1.3759509
1.5919299 1.01803 1.3686731
1.58938 1.00948 1.370369
1.589 0.99724901 1.3721291
1.5800101 0.98777395 1.369462
1.58446 0.97742301 1.3723609
1.5778799 0.97112298 1.369874
1.59407 1.00758 1.364778
1.5957899 0.99488801 1.3666031
1.5868499 0.986471 1.365509
1.5861501 0.976336 1.3657612
1.5783401 0.97018504 1.3615789
1.6000301 1.0037 1.359738
1.5917599 0.99592 1.3569901
1.5947099 0.984074 1.3610851
1.5891099 0.97424299 1.359527
1.5802001 0.96922499 1.3552631
1.60515 1.00221 1.354671
1.5974001 0.99424696 1.3535041
1.6020799 0.98304397 1.3566459
1.59187 0.97553003 1.352722
1.58847 0.96712798 1.3522571
1.60667 1.0042701 1.3471829
1.60549 0.99214399 1.349573
1.6029401 0.98025703 1.349489
1.59381 0.972718 1.3467081
1.5874801 0.96476501 1.342476
1.60745 1.01231 1.337962
1.6114 0.99964696 1.342229
1.6125 0.98725504 1.345853
1.60953 0.97766095 1.34532
1.59855 0.97024 1.3412191
1.5822799 0.96421301 1.331947
1.61132 1.0093399 1.3324679
1.6154201 0.99829501 1.336427
1.6133299 0.98877698 1.3378061
1.61412 0.97826797 1.340966
1.60437 0.97031194 1.33567
1.5892501 0.96325302 1.3289239
1.61227 1.01068 1.3247391
1.6157001 1.00025 1.3294851
1.6156399 0.99007899 1.3308231
1.61578 0.977368 1.3332601
1.60511 0.96943903 1.3284371
1.60054 0.96075201 1.327068
1.5739599 0.95889097 1.313978
1.61778 0.99994797 1.322577
1.6211901 0.98654997 1.326196
1.62043 0.97501999 1.3267641
1.61035 0.96680099 1.3242801
1.60515 0.95839399 1.3223641
1.5911 0.95365798 1.314324
1.61621 1.0097001 1.3109641
1.62518 0.99544901 1.3187561
1.6250501 0.98383403 1.319991
1.6252 0.97303003 1.3220731
1.62207 0.96399999 1.3231131
1.60358 0.95810997 1.3135279
1.59497 0.95024598 1.308443
1.57355 0.94930601 1.2961261
1.62246 1.00526 1.3066909
1.6299001 0.99201399 1.314008
1.63217 0.98211598 1.3173581
1.62599 0.974424 1.3145339
1.6249499 0.96441597 1.3170531
1.6153799 0.95668799 1.3123291
1.6048599 0.94762003 1.3067501
1.58963 0.94222099 1.2987201
1.62738 0.99431998 1.303825
1.6312 0.98270601 1.30952
1.6281799 0.97357297 1.307742
1.62384 0.96366096 1.307549
1.6181901 0.95296401 1.305918
1.6071401 0.94547403 1.2999691
1.6000301 0.93809402 1.297612
1.57441 0.93531001 1.281244
1.56224 0.93007004 1.273333
1.6264399 0.99517798 1.2944051
1.6303 0.98216796 1.300114
1.6278501 0.971129 1.300403
1.6308399 0.96110702 1.3044391
1.6222999 0.95446098 1.300249
1.6164399 0.94459504 1.2976471
1.6051401 0.93738902 1.2932479
1.58123 0.93397301 1.27855
1.5690601 0.92835999 1.271156
1.62745 0.98396003 1.289103
1.63165 0.971524 1.2946521
1.62606 0.96263397 1.293909
1.6255901 0.952528 1.294209
1.6216099 0.94319898 1.2923471
1.60636 0.93569601 1.2851961
1.58136 0.931826 1.271026
1.5707401 0.926875 1.2637371
1.6238099 0.98506302 1.27808
1.62614 0.97440302 1.282644
1.63389 0.96072602 1.290383
1.62948 0.95044196 1.28844
1.62023 0.94182098 1.283437
1.6106 0.93344706 1.27887
1.5891 0.92917001 1.267346
1.5685201 0.92668402 1.25415
1.46656 1.09632 1.142056
1.6352401 0.96990097 1.2808
1.62963 0.96005601 1.279183
1.6255001 0.95064902 1.276904
1.62485 0.94114602 1.2786411
1.61895 0.93340796 1.276451
1.5969599 0.92817301 1.262777
1.58114 0.92232496 1.2540441
1.48227 1.10356 1.142063
1.4845901 1.09053 1.14748
1.48184 1.07925 1.148262
1.62617 0.97348505 1.2659971
1.6324201 0.95996201 1.271781
1.6376899 0.94783098 1.277197
1.6264399 0.94041497 1.271672
1.6157601 0.93244302 1.2670649
1.60444 0.92608804 1.259303
1.58345 0.92087901 1.246183
1.5583299 0.91741204 1.230125
1.4980201 1.0973001 1.146699
1.51472 1.07954 1.1606231
1.51837 1.06686 1.163223
1.63196 0.96897799 1.261816
1.6342101 0.95930803 1.2647411
1.62977 0.95039296 1.263032
1.62643 0.93957102 1.2627311
1.6219901 0.93069601 1.263427
1.59872 0.92630601 1.246943
1.58955 0.91754097 1.241963
1.57007 0.91272599 1.230543
1.55022 0.90780503 1.217436
1.4956399 1.11194 1.1343991
1.49954 1.0987999 1.1407701
1.5337 1.06911 1.165903
1.53763 1.05861 1.1686081
1.5261999 1.05196 1.162189
1.50646 1.04825 1.15002
1.62972 0.96783304 1.2501609
1.6349699 0.95876199 1.257534
1.62481 0.95241302 1.250268
1.62147 0.94248199 1.2500991
1.61601 0.93274599 1.250303
1.6075799 0.92541605 1.2441471
1.59803 0.91722703 1.239475
1.58207 0.90955806 1.230009
1.57021 0.90147799 1.223984
1.55053 0.89506602 1.211005
1.54597 0.88523901 1.20816
1.54017 0.87877297 1.204749
1.54722 1.06215 1.167817
1.5474899 1.0544699 1.168535
1.5471001 1.0448899 1.169564
1.5332 1.03846 1.162534
1.51449 1.03747 1.1516371
1.62578 0.94972301 1.243436
1.6186501 0.94255096 1.240446
1.6189799 0.93254602 1.242938
1.60207 0.92505896 1.23164
1.59551 0.91509402 1.22966
1.58687 0.90711802 1.224807
1.58052 0.89907598 1.22256
1.56269 0.89251798 1.21207
1.5550901 0.88432902 1.2086051
1.5457699 0.87827498 1.202065
1.5517399 1.0508599 1.164919
1.62105 0.94144404 1.2347031
1.6036099 0.93518502 1.2224391
1.6075101 0.92405403 1.227169
1.5995899 0.91628599 1.223085
1.5966001 0.90649301 1.2241349
1.58472 0.899553 1.216624
1.5729699 0.891204 1.210113
1.5568401 0.88375902 1.2010189
1.5463201 0.87735003 1.193313
1.6098399 0.93397695 1.218395
1.6056501 0.92517799 1.2174591
1.60338 0.915124 1.216763
1.59771 0.90579695 1.21585
1.5856799 0.89647597 1.2083039
1.5734801 0.88787496 1.202147
1.5583701 0.881428 1.1926429
1.54616 0.87681097 1.184702
1.61177 0.93380094 1.2108321
1.58953 0.89528298 1.2019889
1.58416 0.88750297 1.2011009
1.5662301 0.881881 1.18908
1.55542 0.87531602 1.182384
1.5854801 0.887061 1.1927639
1.56941 0.879462 1.181849
1.5548199 0.87512201 1.173056
1.5852901 0.88412905 1.1832961
1.57235 0.87793702 1.174912
1.56159 0.87340105 1.1697171
1.59438 0.88403398 1.180604
1.58092 0.87724704 1.172511
1.5676401 0.872554 1.165029
1.5360401 0.82184303 1.144395
1.6013299 0.884363 1.1766191
1.5888699 0.877051 1.1688581
1.5728101 0.87138802 1.1582479
1.5447301 0.82769698 1.143438
1.5459801 0.81983298 1.144497
1.60646 0.89106596 1.171085
1.60298 0.88187701 1.169383
1.5840801 0.87538397 1.155594
1.5687399 0.86884904 1.145143
1.52886 0.86504304 1.113366
1.52988 0.83923799 1.1229091
1.54896 0.82817495 1.138067
1.55351 0.81856698 1.1416301
1.5981899 0.88175601 1.1571201
1.5919299 0.87386101 1.1515191
1.57084 0.86772597 1.138114
1.5464101 0.86217397 1.1209271
1.52944 0.85718697 1.108791
1.55442 0.83640504 1.131907
1.55893 0.82643205 1.1364731
1.55979 0.81584799 1.137665
1.5995101 0.88331002 1.148519
1.5942199 0.87417799 1.14429
1.5817399 0.86646199 1.136568
1.5626401 0.859074 1.124598
1.5554601 0.84878194 1.1216661
1.5581399 0.83554 1.125502
1.5650001 0.82432002 1.132659
1.5609801 0.81640601 1.1292781
1.5963299 0.88240403 1.135983
1.58318 0.87503195 1.1283081
1.58255 0.86643797 1.128171
1.57415 0.85837698 1.123453
1.5616701 0.84930199 1.115749
1.5589399 0.83778602 1.116694
1.5626601 0.82517195 1.121642
1.5643401 0.81348997 1.123559
1.59666 0.91452795 1.1205831
1.6020399 0.88038695 1.1308709
1.59392 0.87272102 1.1280921
1.57656 0.86650103 1.115074
1.5658001 0.85858399 1.108181
1.5526199 0.85202599 1.099807
1.5579 0.84014702 1.10781
1.55604 0.82898498 1.108708
1.56011 0.81546402 1.112182
1.5870399 0.91558802 1.103304
1.6002499 0.90376502 1.116092
1.59326 0.872316 1.118328
1.57515 0.865628 1.1064601
1.55647 0.86125702 1.0933551
1.57376 0.917669 1.0817951
1.5855701 0.90716004 1.094749
1.6007 0.89434302 1.109787
1.57801 0.86575103 1.102425
1.56633 0.91889101 1.0659658
1.5785899 0.90885401 1.079108
1.59832 0.89543098 1.0991
1.5622001 0.91930699 1.0538194
1.5753399 0.90926498 1.066511
1.58373 0.90019304 1.076569
1.55123 0.92343497 1.0295043
1.57427 0.90885597 1.0558277
1.5783501 0.89975095 1.0609306
1.55735 0.92173696 1.0269893
1.57013 0.910851 1.0417789
1.57108 0.90056998 1.044273
1.5858999 0.885571 1.0590644
1.59953 0.87359595 1.071804
1.55427 0.92292398 1.0149769
1.5717399 0.90939498 1.0335763
1.5752001 0.89792603 1.037758
1.5741 0.88863099 1.0394229
1.58241 0.87722898 1.048283
1.5975 0.86741799 1.0642816
1.5382401 0.93473506 0.99235362
1.54985 0.92389798 1.0026492
1.5661399 0.91142499 1.018217
1.57087 0.89999098 1.0248928
1.57435 0.88946199 1.0303899
1.56446 0.881984 1.0228496
1.55681 0.87415606 1.0159483
1.55793 0.91210002 1.0012306
1.5641201 0.90228701 1.0095555
1.56161 0.89212 1.0095469
1.5546601 0.88247496 1.0043142
1.5514599 0.87428701 1.0020707
1.5457001 0.86866498 0.99882203
1.5636001 0.90852201 0.99461174
1.56319 0.90033698 0.99867392
1.56159 0.88988298 1.0000002
1.5551 0.88158095 0.99480659
1.54913 0.87453198 0.99075162
1.56339 0.89005303 0.99150091
1.5549999 1.09376 1.4897161
1.4977601 1.12226 1.432355
1.4936501 1.13179 1.4234359
1.4808999 1.12886 1.418167
1.4674699 1.1245099 1.411917
1.47545 1.12955 1.4102471
1.47846 1.1192 1.4126831
1.47153 1.1110901 1.4092031
1.4857401 1.11222 1.4093801
1.5848801 1.0063701 1.376994
1.57937 0.995848 1.376109
1.57549 0.98637396 1.3776391
1.56774 0.97929299 1.37491
1.58698 1.00323 1.3701781
1.5919 1.00157 1.365216
1.58535 0.992621 1.3642141
1.5792199 0.98267698 1.361931
1.5695399 0.97566497 1.360216
1.59793 1.01059 1.358206
1.59227 1.00134 1.357289
1.5891099 0.98899299 1.358429
1.5846001 0.98019999 1.357926
1.5735401 0.97429496 1.3541051
1.5903101 0.99092698 1.350799
1.58701 0.98035598 1.351598
1.58832 0.97056502 1.3529291
1.60475 0.99586195 1.3481351
1.59712 0.98714203 1.346279
1.59347 0.97653604 1.3473771
1.5885899 0.96922404 1.34481
1.60489 1.00848 1.3370011
1.6018 0.99795502 1.338101
1.60323 0.984056 1.3403341
1.5944099 0.97533 1.339447
1.60894 1.00499 1.331682
1.60957 0.99285698 1.3337399
1.6076801 0.98151499 1.335173
1.60203 0.97307402 1.3350531
1.5925599 0.96552694 1.331881
1.6168 1.00061 1.3290741
1.61651 0.9914 1.329586
1.6098801 0.98236501 1.32812
1.6072201 0.97215402 1.3304601
1.5971899 0.96412396 1.325664
1.6189599 1.00037 1.3221331
1.6171299 0.98930001 1.3221871
1.6093299 0.98162001 1.3203391
1.6099401 0.97035497 1.32382
1.60115 0.96091402 1.319162
1.61935 0.99988902 1.3129821
1.61894 0.98771596 1.3149341
1.6176699 0.97695804 1.3182181
1.6081101 0.96832395 1.314229
1.60324 0.95884806 1.312616
1.5852699 0.95545095 1.304176
1.6197799 1.00112 1.304073
1.62132 0.988653 1.308203
1.6210899 0.97691 1.3112481
1.62002 0.96622103 1.3140301
1.6102999 0.95807898 1.308786
1.5924001 0.95256305 1.30041
1.6232899 0.98958802 1.3009501
1.6232001 0.97772104 1.3036419
1.61838 0.96695799 1.3039031
1.6133599 0.95652199 1.3015691
1.59978 0.949974 1.2964309
