# .PCD v0.7 - Point Cloud Data file format
VERSION 0.7
FIELDS x y z
SIZE 4 4 4
TYPE F F F
COUNT 1 1 1
WIDTH 1589
HEIGHT 1
VIEWPOINT 0 0 0 1 0 0 0
POINTS 1589
DATA ascii
2.0211799 -0.39400101 2.1614301
2.03058 -0.398803 2.1566701
2.0636201 -0.44802898 2.1459899
2.0622001 -0.462174 2.1500199
2.08096 -0.46724302 2.14046
2.06934 -0.486855 2.15101
2.02404 -0.39084598 2.1502399
2.01615 -0.404973 2.1580999
2.05808 -0.45053798 2.13796
2.0669999 -0.45891398 2.1347301
2.07061 -0.47140801 2.13449
2.0564699 -0.45141998 2.1274199
2.0641799 -0.46031398 2.1226799
2.0736301 -0.467868 2.1189399
2.0565801 -0.45169997 2.1134801
2.0610299 -0.46080002 2.1128302
2.06604 -0.46996102 2.1119001
2.0588 -0.44933799 2.09764
2.0592501 -0.46126097 2.10254
2.06341 -0.470871 2.1021399
2.0627298 -0.44599497 2.0824499
2.0657301 -0.45643502 2.0844901
2.0606201 -0.47183701 2.0924299
2.0774 -0.43887502 2.0625501
2.0621002 -0.45754799 2.0759301
2.0669501 -0.469309 2.0740099
2.06477 -0.45867699 2.06339
2.0703301 -0.471349 2.0591002
2.06985 -0.48634997 2.0629301
2.08057 -0.49996603 2.0574901
2.0950799 -0.51082003 2.0500591
2.0633099 -0.46226501 2.0510659
2.0687101 -0.47262698 2.0500181
2.0750999 -0.48624501 2.049123
2.0852799 -0.50086701 2.046505
2.1024401 -0.50802302 2.037261
2.11413 -0.51572299 2.0326581
2.1133502 -0.52925599 2.0366881
2.0580001 -0.464867 2.041265
2.0640199 -0.47498798 2.0427251
2.0635002 -0.49160197 2.04421
2.08286 -0.49990898 2.03789
2.0939701 -0.50948799 2.033577
2.1104 -0.51734501 2.0276999
2.0526299 -0.46618998 2.032028
2.0574698 -0.47760701 2.034364
2.0527201 -0.49557099 2.040756
2.06615 -0.50399601 2.0370531
2.0603302 -0.46075198 2.015157
2.05566 -0.47514701 2.023721
2.0495598 -0.493242 2.0328741
2.0715601 -0.45398101 1.996284
2.0599799 -0.471044 2.0097439
2.08922 -0.44331798 1.975677
2.07358 -0.46174899 1.989059
2.08284 -0.45610198 1.9747051
2.09355 -0.43166801 1.701926
2.0634398 -0.406405 1.70324
2.09091 -0.40551499 1.6927991
2.08775 -0.421193 1.69661
2.0717599 -0.44237202 1.7054191
2.0116498 -0.41018701 1.7132981
2.0548 -0.40829301 1.6991341
2.06533 -0.41743198 1.698222
2.0655601 -0.43214598 1.699326
2.06425 -0.44524398 1.700085
2.01108 -0.40939999 1.706841
2.03843 -0.41077301 1.6959469
2.0559199 -0.420513 1.693223
2.05845 -0.43508098 1.6927521
2.0427401 -0.455309 1.7015229
2.0701401 -0.341777 1.659741
2.03599 -0.38101798 1.681707
2.0271299 -0.400038 1.690437
2.0465801 -0.40542498 1.681596
2.0462601 -0.42428902 1.686379
2.0503199 -0.43819198 1.6869631
2.0486999 -0.32076699 1.657692
2.05513 -0.33289397 1.65791
2.0717399 -0.34002 1.651897
2.05019 -0.36864498 1.665207
2.0350699 -0.39395699 1.676736
2.04864 -0.40378201 1.6701931
2.0506599 -0.41891801 1.67304
2.0486901 -0.43641603 1.675233
2.03915 -0.31220502 1.65319
2.0410099 -0.32232201 1.653577
2.0532899 -0.33151901 1.6508859
2.07179 -0.33654299 1.6439129
2.0501199 -0.36692297 1.655105
2.0436201 -0.389314 1.662281
2.04301 -0.40670201 1.663888
2.0486801 -0.42144698 1.6631799
2.04403 -0.441039 1.6669149
2.0362101 -0.456319 1.672729
2.03228 -0.32625303 1.650329
2.04827 -0.33139801 1.6445191
2.06423 -0.34106898 1.6383181
2.04777 -0.36716703 1.6451379
2.043 -0.387732 1.6511
2.0471601 -0.40526402 1.6525741
2.05304 -0.42038399 1.650759
2.0496099 -0.43723899 1.654928
2.0394001 -0.45515597 1.6621741
2.0532899 -0.33219898 1.6333129
2.0617599 -0.34540099 1.628399
2.0430999 -0.36935002 1.6384441
2.0486999 -0.38295299 1.6374699
2.0454299 -0.40351897 1.64203
2.05004 -0.42003399 1.642589
2.0494299 -0.435848 1.645484
2.0453799 -0.45137 1.648636
2.0493701 -0.33747199 1.6235189
2.0660601 -0.34370801 1.61617
2.0457699 -0.36900601 1.628332
2.0485201 -0.383784 1.628489
2.0462101 -0.40126801 1.6305881
2.0455799 -0.420966 1.6338631
2.0495501 -0.43666303 1.6354089
2.0383599 -0.45547599 1.641605
2.0476 -0.337713 1.6161439
2.0672801 -0.341261 1.6067481
2.0520301 -0.36386901 1.614785
2.04597 -0.38556999 1.620437
2.04404 -0.402933 1.6225439
2.04635 -0.417999 1.622447
2.0472901 -0.435783 1.6251351
2.039 -0.45415902 1.6317171
2.0715601 -0.34060299 1.594934
2.0531399 -0.36148101 1.604028
2.0426199 -0.38476503 1.6102741
2.04457 -0.40219897 1.613431
2.0497901 -0.41607499 1.6108741
2.0468299 -0.43410599 1.614455
2.0341799 -0.455293 1.6222091
2.0485401 -0.35342702 1.594807
2.04351 -0.37005901 1.598428
2.0414999 -0.38768199 1.6003841
2.04456 -0.40340698 1.602563
2.0434899 -0.423381 1.604589
2.03971 -0.44139999 1.6082989
2.0439401 -0.354525 1.5856619
2.0427799 -0.36772799 1.588727
2.0436099 -0.383872 1.5899071
2.04356 -0.40201899 1.592012
2.0462899 -0.419195 1.593194
2.0427999 -0.43789798 1.596871
2.0320699 -0.456507 1.6040629
2.0423801 -0.354772 1.576214
2.05019 -0.36216301 1.57621
2.0371699 -0.383313 1.5828371
2.04602 -0.39780498 1.5801289
2.0496202 -0.415295 1.581203
2.0504801 -0.43222901 1.583302
2.0406699 -0.450416 1.5904449
2.0529201 -0.349255 1.5618891
2.04513 -0.36636001 1.568596
2.0394399 -0.38577098 1.572925
2.0482202 -0.39664701 1.569393
2.0558 -0.40919 1.568386
2.0624001 -0.42472801 1.567216
2.0574801 -0.44163501 1.572963
2.0287499 -0.35932201 1.56365
2.0460699 -0.36418998 1.557124
2.0457101 -0.38271198 1.5606351
2.05252 -0.39688203 1.559855
2.0674 -0.40598202 1.554368
2.08566 -0.41382802 1.5468429
2.08518 -0.42946202 1.550089
2.0415401 -0.35363901 1.5507801
2.0600998 -0.358329 1.540723
2.0637701 -0.372352 1.5424899
2.06194 -0.39149502 1.546955
2.0839999 -0.39814201 1.5378841
2.1045899 -0.40378502 1.530268
2.10412 -0.41984001 1.5325921
2.1152699 -0.43362901 1.5290021
2.12026 -0.453421 1.529927
2.0723801 -0.340664 1.525014
2.0791001 -0.34912202 1.523759
2.0751801 -0.36580798 1.527753
2.0702801 -0.38725898 1.532676
2.0881901 -0.39810002 1.527034
2.10308 -0.40717602 1.5235569
2.1020598 -0.42440799 1.5241569
2.1306798 -0.42784899 1.514946
2.05632 -0.34742001 1.523663
2.08149 -0.34633702 1.515332
2.0743401 -0.363049 1.5187489
2.06634 -0.38407201 1.523152
2.07477 -0.40001401 1.5214771
2.0908501 -0.41182998 1.5191189
2.08535 -0.429492 1.520262
2.1107099 -0.43538702 1.515305
2.0650899 -0.35539699 1.513562
2.06446 -0.37029302 1.513327
2.06036 -0.38904998 1.515559
2.05813 -0.40834799 1.517068
2.07197 -0.419328 1.5163251
2.0681 -0.43566701 1.5172451
2.0631101 -0.45007899 1.520135
2.0579801 -0.360771 1.5059559
2.05035 -0.37797001 1.50863
2.04953 -0.39532602 1.509885
2.0550699 -0.409964 1.5083549
2.0631101 -0.42303601 1.5097611
2.06337 -0.43689701 1.509963
2.0575101 -0.360324 1.4940331
2.0440199 -0.38258702 1.501231
2.0452399 -0.399315 1.5024769
2.04864 -0.41285899 1.502618
2.0541701 -0.42591703 1.502123
2.0615301 -0.43637601 1.500648
2.0722599 -0.338332 1.476974
2.06339 -0.35498199 1.481552
2.0457201 -0.37832201 1.4906211
2.0466299 -0.39536598 1.492393
2.0511701 -0.41061199 1.493332
2.05532 -0.42371398 1.491284
2.0555 -0.43730399 1.492692
2.0748398 -0.33497399 1.467582
2.0694399 -0.34967098 1.47001
2.04969 -0.37477699 1.479689
2.04335 -0.39396301 1.48449
2.04795 -0.410909 1.483641
2.0460899 -0.42975101 1.4860311
2.04969 -0.44035098 1.4843531
2.0685499 -0.33765399 1.46041
2.0682402 -0.35089901 1.461053
2.0483902 -0.37534699 1.4704961
2.0446401 -0.39423198 1.474883
2.04897 -0.40932399 1.472607
2.0470099 -0.42832601 1.475255
2.0396099 -0.445043 1.4791541
2.07179 -0.33560798 1.448929
2.06426 -0.35126999 1.4537649
2.0504601 -0.37326598 1.460119
2.0445399 -0.394649 1.4643761
2.04391 -0.41437 1.4652491
2.0457101 -0.42907298 1.4654289
2.0465 -0.44090098 1.467908
2.07054 -0.33432701 1.439864
2.06868 -0.34809503 1.443032
2.0480201 -0.37244901 1.452252
2.0460801 -0.390026 1.453717
2.0443401 -0.40844002 1.4554629
2.0455799 -0.42537799 1.4559441
2.0441902 -0.44067299 1.457841
2.0752499 -0.33006001 1.429065
2.0776899 -0.339091 1.430764
2.0464699 -0.37711102 1.443678
2.0354202 -0.39820999 1.4486909
2.0396399 -0.41263199 1.447377
2.04338 -0.42871201 1.446763
2.0424399 -0.44200698 1.449062
2.0690699 -0.33263198 1.422956
2.08266 -0.33512798 1.419113
2.0439799 -0.38021499 1.4344189
2.03477 -0.398049 1.4389931
2.0411701 -0.413571 1.436438
2.0451601 -0.428334 1.436581
2.0371599 -0.44441101 1.442075
2.07112 -0.33118802 1.4138221
2.08056 -0.33616403 1.409682
2.04266 -0.382128 1.42519
2.0324099 -0.400673 1.4301109
2.04125 -0.41163599 1.4260479
2.04406 -0.42661998 1.4276841
2.0378399 -0.44281399 1.432561
2.07495 -0.32958901 1.4023089
2.08634 -0.33347198 1.3988099
2.0410299 -0.382287 1.41465
2.03388 -0.39923999 1.4198891
2.04404 -0.40930697 1.4170779
2.0376801 -0.44154999 1.422956
2.0729899 -0.330446 1.3939799
2.0775101 -0.338653 1.3925459
2.0425301 -0.37867001 1.404415
2.0345399 -0.39690799 1.409493
2.04073 -0.41045502 1.4101781
2.06779 -0.33180001 1.386723
2.08005 -0.33763099 1.382102
2.0534899 -0.36745602 1.3927789
2.0437601 -0.390232 1.396445
2.0418699 -0.40890703 1.3999859
2.0628099 -0.331801 1.3771539
2.08325 -0.33600399 1.371648
2.05002 -0.373588 1.3846359
2.03543 -0.394622 1.3899831
2.04479 -0.40588298 1.38877
2.0223598 -0.26367101 1.370634
2.0002499 -0.32348999 1.382984
2.03532 -0.32378101 1.373952
2.05602 -0.33144701 1.369176
2.07654 -0.33748698 1.365994
2.05704 -0.36409199 1.3726931
2.0390401 -0.39260501 1.3797129
2.04287 -0.40865397 1.3804829
2.03319 -0.26040101 1.3620629
2.03392 -0.27106702 1.3615421
1.99754 -0.31261399 1.37708
2.0218201 -0.31324399 1.3693351
2.0372999 -0.32336 1.3652589
2.0529799 -0.332183 1.362054
2.0750501 -0.33731201 1.356936
2.0473599 -0.37355399 1.366755
2.0352099 -0.39368302 1.371447
2.03897 -0.40804902 1.3718441
2.02422 -0.265329 1.3581669
2.02843 -0.27511299 1.3565359
2.0260899 -0.29150599 1.3575161
2.03584 -0.30750501 1.356702
2.0526299 -0.316093 1.35278
2.0525701 -0.33167899 1.3538051
2.0745399 -0.337477 1.348495
2.0579801 -0.36213198 1.3542621
2.03564 -0.39239299 1.362325
2.0355701 -0.41167399 1.362174
2.0250001 -0.279488 1.3495779
2.02597 -0.291145 1.349406
2.0320599 -0.303363 1.349281
2.0399799 -0.32112399 1.3494
2.04583 -0.33397901 1.348121
2.0736098 -0.335365 1.3418001
2.0466001 -0.374924 1.3485041
2.03369 -0.39575002 1.3536011
2.0153501 -0.284713 1.343024
2.02145 -0.29299602 1.3419189
2.0483599 -0.33242297 1.341912
2.0853901 -0.33457401 1.3221879
2.0331101 -0.39510798 1.344124
2.02385 -0.29311299 1.3320431
2.0132699 -0.31025699 1.332785
2.0715401 -0.329813 1.319492
2.08621 -0.334066 1.31576
2.0620899 -0.35945901 1.3244121
2.0114701 -0.30146998 1.325298
2.01039 -0.31456301 1.324851
2.0116601 -0.325995 1.3245579
2.0690801 -0.33126998 1.3136771
2.0857899 -0.33435199 1.308905
2.0622001 -0.35946602 1.315779
2.0290101 -0.39519 1.326162
1.9891701 -0.31208199 1.323016
2.0137398 -0.312646 1.31715
2.0077698 -0.32883301 1.31776
2.0134101 -0.338245 1.3172481
2.0815899 -0.337809 1.301806
2.05597 -0.36377499 1.3078599
2.0363901 -0.39001399 1.3149209
2.036 -0.404861 1.314442
2.0060499 -0.317875 1.3105999
2.0062602 -0.331514 1.308457
2.0090401 -0.34090698 1.3102499
2.08041 -0.33808202 1.292959
2.0611401 -0.35854 1.2979311
2.04109 -0.38392502 1.303756
2.03689 -0.403422 1.305177
2.04742 -0.41101897 1.303526
1.9953799 -0.32553798 1.302467
1.9944 -0.33739603 1.302561
2.00453 -0.34349999 1.302372
2.0750101 -0.341454 1.2860249
2.0561399 -0.363121 1.2903121
2.0360899 -0.38999802 1.297142
2.03529 -0.40571401 1.2965159
1.98061 -0.33232799 1.2969741
1.9994 -0.33472699 1.2930059
1.99584 -0.34681597 1.2956129
2.0602698 -0.34755298 1.2807021
2.0708001 -0.35125101 1.27622
2.03409 -0.39242101 1.290573
2.0455401 -0.40164399 1.287194
1.99809 -0.335639 1.285157
2.00144 -0.343503 1.285639
2.0631599 -0.34392601 1.27027
2.0725999 -0.34848401 1.266399
2.05093 -0.41028899 1.28047
1.91804 -0.258672 1.283608
1.9882699 -0.340065 1.280784
1.99874 -0.34556401 1.279083
2.07638 -0.33566397 1.256485
2.07429 -0.34649602 1.2576619
1.92365 -0.24647301 1.275507
1.9147 -0.26071101 1.2779161
2.0533299 -0.33389801 1.252818
2.07935 -0.332001 1.246814
2.08006 -0.34241799 1.247564
1.89961 -0.25575101 1.273031
1.91811 -0.260268 1.270043
1.9051801 -0.27810299 1.272516
2.06201 -0.32870099 1.2422609
2.0774801 -0.33284 1.239835
2.07638 -0.34404001 1.239127
1.90377 -0.25442302 1.264092
1.9099699 -0.26371402 1.263338
1.9183501 -0.27356198 1.26226
1.9261301 -0.286639 1.2590001
1.9388499 -0.30068898 1.253998
2.0137899 -0.32966802 1.239758
2.0447199 -0.33184397 1.2356861
2.0661001 -0.336945 1.233309
2.0687101 -0.34701499 1.2324951
1.9194 -0.262205 1.253006
1.9164101 -0.278027 1.253781
1.93721 -0.2872 1.248705
1.94066 -0.30191401 1.2463851
1.95215 -0.31424701 1.24418
1.9566799 -0.330511 1.243829
1.98347 -0.33684599 1.238873
2.0090101 -0.34254003 1.234888
2.04071 -0.34467497 1.229295
2.05897 -0.35046798 1.225963
1.91504 -0.28018901 1.2447751
1.93625 -0.28817302 1.2404721
1.93418 -0.30438298 1.240366
1.9493201 -0.31363499 1.237509
1.96136 -0.32815701 1.235239
1.9855499 -0.33806598 1.230857
2.0115499 -0.345101 1.226047
2.04568 -0.34557599 1.2195771
2.0627499 -0.34924901 1.2164891
1.9157699 -0.28124398 1.236885
1.92636 -0.291675 1.23417
1.9419501 -0.30273199 1.23078
1.9481701 -0.317451 1.229672
1.96319 -0.326123 1.225533
1.96998 -0.33988398 1.224797
2.0053301 -0.343943 1.217489
2.0320799 -0.34918299 1.213408
2.0601301 -0.349417 1.208846
1.93567 -0.30642 1.223495
1.95116 -0.316935 1.220077
1.96424 -0.32823399 1.217412
1.9806 -0.33861697 1.2130281
2.0000799 -0.34721902 1.209523
2.0221801 -0.35130599 1.206825
2.0501101 -0.35122001 1.201297
1.9869 -0.21859801 1.202221
1.99338 -0.22766 1.199782
1.94576 -0.319592 1.212616
1.96735 -0.32713902 1.207575
1.9812601 -0.33840999 1.2036151
1.9922999 -0.34860402 1.2032241
2.0241098 -0.35002202 1.197668
2.04969 -0.35078701 1.192474
1.98206 -0.234568 1.1942379
1.9889901 -0.24524499 1.190666
1.9796001 -0.26146901 1.190691
1.9558901 -0.33089298 1.201369
1.97039 -0.33999401 1.196784
1.9938999 -0.34793499 1.193882
2.0225301 -0.350384 1.189344
1.9864399 -0.248316 1.184234
1.98646 -0.26135999 1.1820459
1.9577699 -0.33292598 1.191118
1.9710801 -0.33960202 1.1871949
1.9826699 -0.34877601 1.185962
2.0113201 -0.35082099 1.181239
1.97649 -0.25619599 1.17621
1.9766201 -0.26869699 1.175095
1.97829 -0.281353 1.174311
1.95892 -0.332872 1.180989
1.9747701 -0.33953702 1.1788501
1.9839901 -0.34899399 1.176821
2.01195 -0.34861198 1.171684
1.9674801 -0.26094499 1.169627
1.9790199 -0.26714399 1.167802
1.9738001 -0.283755 1.167101
1.9624801 -0.306508 1.169221
1.9540401 -0.32954299 1.172485
1.9762199 -0.33631301 1.16951
1.9903301 -0.34421399 1.166142
1.9748801 -0.27068502 1.160475
1.97489 -0.28435099 1.158372
1.97179 -0.30176002 1.1588939
1.95672 -0.32659 1.164075
1.97963 -0.33362499 1.159178
1.99334 -0.34048 1.15516
1.96789 -0.27734199 1.1525222
1.9712399 -0.28865299 1.1510295
1.97026 -0.30365801 1.1497376
1.9627 -0.32360101 1.1537569
1.9787199 -0.33307499 1.1497576
1.9998399 -0.33617002 1.1449739
1.96567 -0.29283702 1.1431614
1.97095 -0.30331001 1.1416426
1.97172 -0.31891501 1.1424584
1.97996 -0.33183399 1.140519
2.0077801 -0.33134997 1.1356758
1.9428 -0.30388701 1.137629
1.96459 -0.30762398 1.1348236
1.97711 -0.31842101 1.1331198
1.9836099 -0.32800099 1.1312345
1.95107 -0.313766 1.1292585
1.9738201 -0.317581 1.125792
1.99034 -0.32202399 1.1226441
1.979 -0.31429198 1.118655
1.99245 -0.35624802 1.0524039
1.9912399 -0.34491003 1.0461345
1.9888201 -0.35614398 1.0470192
1.9912 -0.343171 1.0381469
1.99228 -0.35329399 1.038951
1.99588 -0.328078 1.029771
1.98829 -0.342044 1.0301464
1.98518 -0.35479802 1.0311003
1.9861901 -0.32959098 1.0219222
1.9900301 -0.33961299 1.0209323
1.99007 -0.35220701 1.0215249
1.98058 -0.31705001 1.0128721
1.98746 -0.32760701 1.0132178
1.9839599 -0.34320301 1.0134388
1.98963 -0.35241002 1.0129166
1.9784199 -0.31328499 1.0035211
1.98207 -0.32564899 1.0053418
1.98803 -0.33797699 1.0044457
1.98874 -0.35192698 1.0040473
1.9726801 -0.300814 0.99670798
1.97168 -0.31249398 0.99603349
1.98153 -0.32560101 0.99572861
1.98405 -0.34216201 0.99586159
1.99115 -0.351073 0.99526221
1.93844 -0.300675 0.99052048
1.96065 -0.30377901 0.98990065
1.9716001 -0.31279099 0.9876557
1.98508 -0.32459098 0.9857704
1.9902201 -0.3378 0.98636657
1.98606 -0.35257199 0.98777491
1.9555299 -0.305143 0.98228449
1.9739799 -0.30967301 0.97864038
1.9779201 -0.32377702 0.97800851
1.98948 -0.33611697 0.97682577
1.99114 -0.348221 0.97831041
1.96009 -0.304185 0.97269952
1.9746499 -0.311892 0.96958518
1.97868 -0.32736301 0.96949887
1.9949601 -0.33477902 0.96794754
1.9870501 -0.349599 0.96854597
1.9589101 -0.30517301 0.96239805
1.97638 -0.31079 0.96049291
1.9772 -0.32487097 0.96168745
1.98826 -0.33668301 0.95995653
1.98664 -0.35014197 0.95990866
1.9562601 -0.30472901 0.95362902
1.97615 -0.309324 0.95171797
1.9816 -0.32313597 0.95284003
1.9908 -0.33507901 0.94971502
1.98421 -0.35044602 0.95152503
1.9520799 -0.305877 0.94481599
1.97732 -0.308965 0.94231498
1.9824001 -0.323419 0.94317704
1.9906399 -0.33512402 0.94194299
1.9874099 -0.34794301 0.94168001
1.94989 -0.30556601 0.93666399
1.9686301 -0.309643 0.93481499
1.98035 -0.32156301 0.93337405
1.9864999 -0.33589 0.93444395
1.987 -0.34889197 0.93174499
1.9500999 -0.30587399 0.92825598
1.97592 -0.30853501 0.92519498
1.9872501 -0.31898999 0.92453694
1.9868699 -0.33534199 0.92405099
1.96647 -0.298913 0.91758698
1.98665 -0.30286601 0.91650301
1.9869599 -0.31767201 0.916309
1.99845 -0.329579 0.91400701
1.9862801 -0.36343601 0.913109
1.96426 -0.297122 0.907893
1.98111 -0.304028 0.90823203
1.99476 -0.316881 0.90594703
1.99395 -0.33541301 0.90625799
1.98684 -0.352819 0.906681
1.9966099 -0.359622 0.90414202
1.95272 -0.289197 0.90066701
1.9677299 -0.295286 0.89989799
1.98544 -0.30410999 0.89854598
1.99449 -0.31651101 0.896716
1.9981101 -0.33129299 0.89732498
1.99777 -0.34735698 0.89818102
2.00653 -0.354844 0.89508104
1.98125 -0.27716899 0.89007902
1.9702001 -0.29216102 0.89174199
1.9785899 -0.301653 0.89058703
1.99201 -0.313115 0.88905001
2.00036 -0.32765201 0.887842
2.0032799 -0.34346101 0.88895106
2.01354 -0.35160401 0.88594902
1.97026 -0.29327101 0.883627
1.99084 -0.299595 0.88076001
1.99261 -0.315532 0.88078803
2.0027399 -0.32649502 0.87869501
2.0060201 -0.34179297 0.87868202
2.0139999 -0.35101601 0.87778902
1.98002 -0.290943 0.87433797
1.9898801 -0.29873899 0.871566
1.9959599 -0.31348199 0.87110198
2.0060601 -0.32826599 0.87064201
2.0052001 -0.34266999 0.87037903
1.9815899 -0.29067099 0.86503601
1.9990801 -0.29618901 0.86254698
2.0079699 -0.30843601 0.86137003
2.00406 -0.28176901 0.855133
1.99641 -0.29560301 0.85481399
2.0169001 -0.256311 0.48866901
1.9999299 -0.26440001 0.47748202
1.9375701 -0.272937 0.454579
1.9666001 -0.27270201 0.45906404
2.02086 -0.267454 0.47170699
1.96543 -0.27365199 0.45212501
2.00017 -0.272935 0.45843101
1.95985 -0.276804 0.44154403
1.99367 -0.27552301 0.44837403
2.0294099 -0.27662301 0.454146
1.95866 -0.276802 0.43194702
1.98771 -0.27765599 0.437751
1.9543899 -0.27761999 0.423273
1.98323 -0.27817401 0.42742702
2.00635 -0.28418699 0.43153301
1.96109 -0.27556601 0.41652301
1.9858 -0.277365 0.41843402
2.0004799 -0.28518498 0.42094705
1.9671899 -0.274333 0.40911207
1.98852 -0.27612698 0.41152599
1.9955001 -0.28580701 0.41099101
2.0134301 -0.294285 0.41242999
1.98992 -0.27747899 0.40401006
1.99937 -0.287891 0.40172902
1.9936999 -0.27820998 0.39381406
2.00035 -0.28692099 0.39365506
2.00984 -0.297443 0.39309505
1.9889301 -0.27991301 0.38229802
2.0024002 -0.28593901 0.38603199
2.00507 -0.29995599 0.38216099
1.9942399 -0.27608299 0.37423307
1.9987301 -0.28741699 0.37496403
2.0052001 -0.30081901 0.37307703
1.9881301 -0.27746499 0.364519
1.99909 -0.28442699 0.36594203
2.00402 -0.298666 0.36433002
2.01684 -0.31044701 0.36577502
2.0452299 -0.31493199 0.37105
1.9992599 -0.27373999 0.35835201
1.99783 -0.28749099 0.356013
2.00419 -0.30004498 0.35477
2.01196 -0.31094301 0.35568202
2.03864 -0.31651199 0.36031803
1.9933299 -0.27581301 0.34661603
2.0037899 -0.282637 0.34957501
2.00844 -0.29558 0.34758702
2.00929 -0.31011298 0.34673801
2.0222502 -0.31837299 0.34752804
1.99375 -0.27533799 0.33696598
2.0041099 -0.28325301 0.34020406
2.0134301 -0.29393199 0.34044102
2.01408 -0.30912101 0.337888
2.0262899 -0.32009801 0.33779401
1.9931901 -0.27377301 0.32789698
2.0010099 -0.28313199 0.32968402
2.0111501 -0.29462299 0.331617
2.0172501 -0.30846101 0.32805303
2.0257599 -0.32108399 0.32898799
2.06475 -0.32123199 0.337253
1.98918 -0.274629 0.31865799
2.0004601 -0.281427 0.32034504
2.0085001 -0.29499599 0.32011303
2.00998 -0.311847 0.31695703
2.02123 -0.32233897 0.31863099
2.05599 -0.323695 0.32616407
1.9914 -0.27473199 0.30993602
2.0058601 -0.282401 0.31239498
2.0065401 -0.295941 0.310442
2.0172601 -0.30663601 0.31060398
2.0169702 -0.32236499 0.30936402
2.0417299 -0.32859403 0.31266001
1.99325 -0.273132 0.30023402
2.00332 -0.28105602 0.30266801
2.0108399 -0.29384801 0.30282801
2.0181899 -0.30711201 0.30124101
2.02229 -0.32162103 0.30096301
2.04252 -0.330125 0.30285096
1.99261 -0.27235499 0.29082596
1.9982899 -0.28062999 0.29261598
2.0053201 -0.29193199 0.29233202
2.02162 -0.302147 0.29421297
2.0273399 -0.316416 0.29319298
2.03282 -0.33193198 0.29130802
1.9922501 -0.272383 0.28218699
1.99957 -0.28140801 0.282915
2.0148399 -0.291881 0.28509095
2.0221701 -0.305509 0.284536
2.02825 -0.319426 0.28348002
2.0294399 -0.333857 0.28063098
1.9907001 -0.2723 0.27222696
2.00612 -0.27928001 0.27469102
2.0062499 -0.29231301 0.27434197
2.01752 -0.303229 0.27470005
2.0285499 -0.314899 0.27534699
2.03233 -0.32871601 0.27384096
2.0379 -0.33975497 0.272894
1.9924899 -0.26782 0.26310503
2.0018401 -0.27748302 0.264254
2.0144701 -0.289947 0.26688898
2.02285 -0.304506 0.26653802
2.0291901 -0.317283 0.26683703
2.02369 -0.33330798 0.26183298
2.0239599 -0.34496102 0.25823504
1.96466 -0.26526502 0.24778903
1.99351 -0.265576 0.255178
2.0032101 -0.27505502 0.255674
2.0129402 -0.28659001 0.25678203
2.0213599 -0.30149201 0.25649798
2.0262499 -0.31730801 0.25718302
2.0178499 -0.33545101 0.25034502
2.0078199 -0.35175899 0.24335498
1.9535099 -0.25336701 0.23564798
1.97377 -0.258553 0.24132097
1.99584 -0.264851 0.24746202
2.00878 -0.274654 0.24847201
2.02002 -0.287415 0.248707
2.0259299 -0.29982501 0.24907801
2.0225799 -0.316659 0.24613
1.99885 -0.34402001 0.234256
1.99491 -0.35853601 0.22970103
2.10024 -0.42801997 0.24417101
1.95927 -0.25016099 0.23061998
1.9691 -0.25725099 0.23099101
1.9991601 -0.261785 0.23861299
2.0142 -0.274313 0.24020404
2.02232 -0.28715301 0.239825
2.02543 -0.30036199 0.24060899
2.0165601 -0.32026699 0.23313303
1.9844999 -0.353266 0.21983698
1.98168 -0.364678 0.21715997
2.0862899 -0.37360999 0.24095903
2.0933599 -0.384799 0.242792
2.09567 -0.40045503 0.23887102
2.10185 -0.41387099 0.23875101
2.0962701 -0.43150699 0.23324999
1.96055 -0.24933501 0.22342898
1.9787199 -0.255559 0.22577402
2.0021 -0.26019999 0.23043802
2.0105901 -0.27103001 0.23090197
2.0202799 -0.28431499 0.23041201
2.02407 -0.30098301 0.22974901
2.01214 -0.32263401 0.22160402
1.9962699 -0.34414101 0.21481203
1.98578 -0.361422 0.210246
2.0863001 -0.373649 0.23193102
2.09091 -0.38652 0.23199601
2.09161 -0.40117902 0.22908098
2.09919 -0.41281798 0.22910799
2.09606 -0.429519 0.22372895
1.9600301 -0.24992001 0.21647601
2.00703 -0.26116899 0.22311801
2.0128 -0.272829 0.22250696
2.01545 -0.285855 0.21892001
2.02262 -0.29788402 0.22058298
2.01915 -0.31615299 0.21542399
2.0015299 -0.339463 0.20788401
2.0002298 -0.352579 0.20505099
2.1013901 -0.33450902 0.23328203
2.1184399 -0.335181 0.23958102
2.08091 -0.377186 0.21959902
2.089 -0.385966 0.221681
2.0940299 -0.39920899 0.222156
2.1005201 -0.411771 0.21963297
2.09395 -0.43043599 0.21176401
2.00317 -0.26574302 0.21165201
2.01085 -0.27355102 0.21297602
2.01806 -0.28398702 0.21112001
2.0202999 -0.29861298 0.21005502
2.02177 -0.31400299 0.20647402
2.01143 -0.335078 0.20091997
2.01601 -0.34591702 0.200675
2.09922 -0.334737 0.22313403
2.1148801 -0.33573398 0.22937098
2.0798399 -0.37736699 0.210991
2.0825 -0.388042 0.20928301
2.0939999 -0.39862099 0.21262202
2.0933502 -0.41567001 0.20722803
2.10004 -0.42801103 0.20463099
2.0145299 -0.27405199 0.20389704
2.0184 -0.286042 0.20318003
2.0150499 -0.30188599 0.19852899
2.0174699 -0.31689799 0.195862
2.01092 -0.33481601 0.19146502
2.0187299 -0.344212 0.19381899
2.09847 -0.33400798 0.21379198
2.11571 -0.33458802 0.22031702
2.0796402 -0.37740502 0.20261499
2.0791199 -0.389851 0.197698
2.0901999 -0.40108398 0.20079499
2.09817 -0.41409302 0.20025797
2.10006 -0.42651403 0.19645303
2.00878 -0.27688199 0.19052301
2.0161901 -0.286237 0.19327997
2.0148499 -0.30163601 0.18896197
2.0150001 -0.31581101 0.18583399
2.0106599 -0.34704199 0.18418497
2.10114 -0.33258301 0.20663798
2.1138201 -0.33455002 0.20993997
2.0755498 -0.37993199 0.19160998
2.07743 -0.39068902 0.187401
2.08198 -0.40339297 0.18782602
2.0971301 -0.41288701 0.19168498
2.0976701 -0.429124 0.18616602
2.00562 -0.277661 0.18049097
2.00966 -0.288609 0.17994097
2.0155499 -0.30156001 0.17998697
2.0160301 -0.312435 0.17652598
2.10584 -0.32945901 0.20153399
2.11813 -0.332396 0.20397699
2.0739999 -0.38154301 0.18149798
2.0779099 -0.39124 0.17869303
2.0829 -0.40243098 0.17870097
2.0913601 -0.414682 0.18024302
2.0991099 -0.42567599 0.17762102
2.00526 -0.277872 0.17151102
2.0153799 -0.28565201 0.17096597
2.01425 -0.30032399 0.16988604
2.0160699 -0.31106701 0.16773798
2.1054101 -0.32948199 0.19499201
2.0713902 -0.394649 0.16897699
2.0790899 -0.40406501 0.16813798
2.09183 -0.41382 0.17071596
2.0938101 -0.43006501 0.16568202
2.0053899 -0.27809399 0.16050501
2.0190899 -0.28424498 0.16316797
2.0241201 -0.294166 0.16453996
2.0179701 -0.308741 0.159592
2.0830801 -0.40273201 0.16089197
2.0855999 -0.417292 0.15740603
2.09604 -0.42740199 0.15806498
2.0996001 -0.44016603 0.15624696
2.0088201 -0.27502501 0.15148996
2.0148199 -0.284794 0.15296297
2.0213699 -0.29538602 0.15460703
2.0234802 -0.30583599 0.15091601
2.07636 -0.40969601 0.14618197
2.0852499 -0.41850498 0.14672297
2.0937901 -0.428231 0.14909701
2.0013001 -0.27692899 0.14032397
2.0093501 -0.284897 0.14103098
2.0207 -0.294862 0.1446
2.0223501 -0.305657 0.140356
2.07531 -0.41018799 0.135049
2.08114 -0.41909099 0.13621798
2.089 -0.4307 0.13767298
2.00933 -0.27351102 0.13465098
2.0118899 -0.28357401 0.13206202
2.01934 -0.294485 0.13352099
2.02476 -0.304497 0.13138498
2.0552001 -0.420122 0.11810503
2.07939 -0.41963798 0.12585802
2.0882699 -0.430069 0.12770998
2.0100799 -0.27329901 0.12439898
2.0146301 -0.28462401 0.12377497
2.0211 -0.295652 0.12421999
2.0233099 -0.305213 0.12116602
2.0791099 -0.420908 0.115413
2.0871899 -0.43116501 0.11657701
2.00406 -0.27431402 0.11246202
2.0119801 -0.28256801 0.11341799
2.0186601 -0.29486799 0.11315104
2.0137801 -0.30840799 0.10864
2.0090699 -0.272163 0.10461298
2.0164301 -0.282579 0.10499102
2.0183201 -0.29485598 0.10324999
2.0225799 -0.30390498 0.10283602
2.0010099 -0.27446601 0.091697022
2.01949 -0.27847299 0.096926972
2.0196002 -0.29310501 0.094135001
2.02509 -0.302304 0.094103031
2.0102301 -0.27065301 0.085524008
2.01858 -0.28045699 0.086494997
2.0183001 -0.29350799 0.083913974
2.0253301 -0.301162 0.084411032
2.00085 -0.27347299 0.07193201
2.0150399 -0.27885598 0.075897008
2.02477 -0.28910699 0.077397019
2.0267599 -0.30045301 0.07397303
2.00757 -0.27147999 0.064676002
2.0197001 -0.278862 0.06837
2.0269899 -0.289354 0.067054003
2.0272701 -0.300381 0.064807989
2.0076401 -0.27076399 0.054938983
2.0164001 -0.27992499 0.057291966
2.01841 -0.292052 0.054927997
2.02757 -0.29910499 0.056806967
2.0058999 -0.270089 0.047399998
2.0160601 -0.277421 0.050059985
2.0239899 -0.288077 0.051039983
2.0260801 -0.298834 0.049399968
2.03021 -0.49455798 2.51724
2.06004 -0.49588901 2.4928401
2.0273299 -0.49584901 2.5105801
2.05072 -0.497585 2.49177
2.0592301 -0.50811899 2.4863501
2.0734701 -0.51532197 2.4749699
2.0293899 -0.49497798 2.49805
2.0532899 -0.49702799 2.4777
2.0667 -0.50636899 2.46773
2.0753901 -0.51726198 2.4624801
2.0390501 -0.49103501 2.4751501
2.0536399 -0.49741402 2.4630699
2.07111 -0.50632703 2.45031
2.0811999 -0.517811 2.4465499
2.0418501 -0.488278 2.4572701
2.05831 -0.49400198 2.4433999
2.07517 -0.502105 2.4305201
2.0809801 -0.51527303 2.43454
2.0078301 -0.42354402 2.4427199
2.0481598 -0.48164099 2.43437
2.0651901 -0.48908797 2.4219799
2.0736599 -0.50134802 2.4169099
2.0738099 -0.51503104 2.4247298
1.9640499 -0.39000598 2.4579601
1.9754801 -0.39910001 2.45134
2.0060999 -0.40631303 2.4293799
2.0123398 -0.42256698 2.42976
2.0128601 -0.43723702 2.4331598
2.02072 -0.45335701 2.4300399
2.03122 -0.46941602 2.42892
2.04775 -0.47833598 2.41943
2.0619199 -0.489503 2.41047
2.07268 -0.50103301 2.4034901
2.0795 -0.51085097 2.4048798
2.15257 -0.50348002 2.33829
1.96357 -0.38999298 2.44927
1.97623 -0.39891601 2.4415598
2.0026801 -0.405397 2.4216099
2.01316 -0.41946998 2.4160399
2.0111799 -0.43963298 2.42414
2.0188699 -0.45360297 2.42084
2.02437 -0.46863997 2.42134
2.0510099 -0.47596902 2.4023199
2.0620301 -0.4894 2.3961701
2.07675 -0.498721 2.38591
2.0767798 -0.51109701 2.39257
2.1580701 -0.50006098 2.3239501
2.1675701 -0.50479698 2.31867
1.9557 -0.381026 2.4444499
1.96323 -0.39014998 2.44085
1.9753101 -0.398738 2.4332099
2.0169702 -0.405067 2.39784
2.0232201 -0.41634899 2.39328
2.0134399 -0.435132 2.40851
2.0155799 -0.45418301 2.41275
2.0279 -0.46897399 2.4068601
2.0582001 -0.47431198 2.3822298
2.0674601 -0.48893601 2.3785698
2.0729699 -0.50069696 2.37747
2.0787699 -0.50966203 2.37586
2.16102 -0.49871799 2.3113902
2.15464 -0.51080602 2.31914
2.0204201 -0.404863 2.3800499
2.03017 -0.41309798 2.37392
2.0204201 -0.43105802 2.38943
2.0378199 -0.46339297 2.3884799
2.0784199 -0.46782002 2.3493299
2.07757 -0.481576 2.3557
2.0749199 -0.49888301 2.36326
2.0782299 -0.509637 2.3627
2.15714 -0.50033998 2.30319
2.1436701 -0.51908797 2.31528
2.0209701 -0.40287399 2.3661501
2.0239301 -0.41312301 2.36518
2.02688 -0.424436 2.3685501
2.0780001 -0.468052 2.3358901
2.0832801 -0.47808799 2.3370399
2.0762899 -0.495451 2.34852
2.0794098 -0.50751299 2.3478501
2.14568 -0.507191 2.30041
2.1299698 -0.528184 2.3146901
2.02158 -0.40220299 2.35289
2.02601 -0.41181302 2.34869
2.01947 -0.42566502 2.36006
2.07517 -0.46671501 2.3241
2.0785999 -0.479045 2.3271201
2.0794201 -0.49372002 2.33254
2.08798 -0.50296199 2.3250399
2.1359801 -0.51000196 2.29459
2.12252 -0.52810699 2.3064101
2.11763 -0.54903102 2.31657
2.0234499 -0.40168899 2.33745
2.03002 -0.40950802 2.33148
2.02143 -0.42391801 2.3441899
2.05459 -0.47115397 2.3267
2.07161 -0.47817901 2.31815
2.08058 -0.49204701 2.31616
2.09097 -0.50524199 2.30954
2.1217399 -0.51152903 2.2906399
2.1098101 -0.53355998 2.30515
2.1090801 -0.54940301 2.3108301
2.0244999 -0.39991 2.3218699
2.03072 -0.407803 2.31901
2.02022 -0.42246699 2.3315699
1.98228 -0.46411401 2.3594699
2.02707 -0.46626598 2.33272
2.0494299 -0.47174001 2.3190601
2.0681701 -0.48116401 2.3082201
2.0834 -0.493303 2.2992101
2.09709 -0.505907 2.29392
2.11376 -0.51504004 2.2862201
2.0996699 -0.535402 2.30194
2.0251501 -0.39805302 2.3083601
2.0240099 -0.40805697 2.3120601
1.98272 -0.45230702 2.34624
1.9914999 -0.46299899 2.3453
2.02215 -0.46598998 2.32482
2.0532501 -0.47046101 2.30357
2.06762 -0.48304 2.2950301
2.0771899 -0.49439201 2.2918401
2.08915 -0.50366098 2.28617
2.1013 -0.51507199 2.28297
2.0246899 -0.39657003 2.29772
2.0125201 -0.41107398 2.3090301
1.97263 -0.45369598 2.3403399
1.9861599 -0.46323299 2.3371699
2.0132 -0.46697301 2.31985
2.06288 -0.47075501 2.2839899
2.07042 -0.48057202 2.2785001
2.07533 -0.493922 2.28157
2.09425 -0.49944901 2.2685699
2.0174401 -0.39858299 2.29391
1.97543 -0.43667302 2.3215101
1.9657899 -0.45306098 2.3327999
1.9739799 -0.46333301 2.3322701
1.9986701 -0.46621102 2.3171
2.0596399 -0.47129902 2.2720802
2.06709 -0.480501 2.26914
2.0754099 -0.49153802 2.26682
2.1005599 -0.493494 2.2470701
1.96975 -0.43726599 2.31479
1.96297 -0.45151001 2.3227201
1.9641701 -0.46416301 2.32602
2.05674 -0.46735698 2.2585201
2.06323 -0.480149 2.2595601
2.08008 -0.489034 2.2488601
2.1024101 -0.491539 2.2317901
1.96259 -0.44037101 2.3106399
1.95667 -0.46557701 2.3193901
2.02917 -0.463238 2.26318
2.0534501 -0.467448 2.2490499
2.0699699 -0.47782698 2.24069
2.08811 -0.48583803 2.2295601
2.1035202 -0.49077401 2.21837
2.0141702 -0.454739 2.2599702
2.0376801 -0.45734 2.24388
2.0597601 -0.46581298 2.2318101
2.0767798 -0.476338 2.2230201
2.0949299 -0.483089 2.21261
2.1017799 -0.49058497 2.2070301
2.0228 -0.44736901 2.23979
2.0262601 -0.45771599 2.2388902
2.0499499 -0.46368501 2.22493
2.06704 -0.47428903 2.2161798
2.0892 -0.48239899 2.20349
2.1052299 -0.48780498 2.1911199
2.00844 -0.43931198 2.2346499
2.02075 -0.446197 2.22961
2.0327599 -0.454954 2.2225399
2.06128 -0.46056598 2.2044301
2.0763099 -0.472175 2.1970201
2.0959899 -0.479348 2.18448
2.1064501 -0.48755401 2.17766
2.02722 -0.43076 2.2091501
2.02156 -0.44454601 2.2172201
2.02793 -0.45485902 2.2131901
2.07725 -0.45836899 2.1819701
2.08797 -0.46746898 2.1753199
2.10201 -0.47654203 2.16658
2.1031599 -0.48866299 2.1689701
2.0214 -0.444181 2.2049201
2.0343499 -0.45037299 2.1940501
2.07829 -0.45495701 2.16677
2.0911701 -0.46430802 2.15961
2.10146 -0.47435102 2.15394
2.0977201 -0.48913899 2.16064
2.03176 -0.44141302 2.1840501
2.0508399 -0.44721001 2.1705701
2.07496 -0.45406699 2.1559
2.0914102 -0.46383598 2.1473501
2.0971301 -0.47614202 2.14624
2.08442 -0.49358898 2.1582999
2.0380599 -0.44036597 2.1666901
2.05088 -0.44791302 2.1574299
2.0802698 -0.45306399 2.14011
2.0878201 -0.46635899 2.1391501
2.0947399 -0.47673401 2.13588
2.06441 -0.50566697 2.15521
1.9457401 -0.39390799 2.1965401
2.03933 -0.43956903 2.15205
2.0506599 -0.44569999 2.1456802
2.06409 -0.45453098 2.1385698
2.07671 -0.46877101 2.1333599
2.0729201 -0.48800799 2.13873
2.0631499 -0.504987 2.1475401
1.93199 -0.387963 2.19613
1.9409 -0.39423001 2.1905
2.05564 -0.43317199 2.1284699
2.0525301 -0.44551101 2.1339102
2.0665901 -0.45606601 2.12451
2.07897 -0.466506 2.1189599
2.0757101 -0.48301899 2.12486
2.0656199 -0.50202703 2.13498
1.93778 -0.38352501 2.1808999
1.94445 -0.390926 2.17677
2.06197 -0.44358897 2.1145399
2.06339 -0.456671 2.1154401
2.0696499 -0.47049001 2.1140201
2.06321 -0.49038801 2.1231399
2.0594501 -0.503793 2.12626
1.93455 -0.38197699 2.1718099
1.93261 -0.39300999 2.17436
2.06495 -0.443259 2.0982699
2.0596499 -0.45811799 2.10712
2.0684299 -0.47002602 2.1012201
2.0611999 -0.489492 2.1125
2.04883 -0.50653899 2.12239
1.91918 -0.38257501 2.1707602
2.0418401 -0.37458402 2.0826201
2.0725601 -0.439695 2.07971
2.0600901 -0.45849201 2.0936401
2.0652599 -0.47101399 2.09252
2.0576801 -0.48807201 2.1015801
2.0280299 -0.37070599 2.0826201
2.0353 -0.37701198 2.0794501
2.0360498 -0.38603199 2.08075
2.0693901 -0.44005403 2.07026
2.06546 -0.45418599 2.0767901
2.06141 -0.472027 2.08409
2.05494 -0.48787603 2.0910699
2.0279 -0.36893398 2.07289
2.0306199 -0.37708199 2.07371
2.08004 -0.435817 2.0533662
2.0641701 -0.45318401 2.0668001
2.0664101 -0.46658099 2.0666399
2.05088 -0.48756698 2.0818
2.0336699 -0.36502999 2.05725
2.02001 -0.37957999 2.0678201
2.0593901 -0.45730099 2.0596001
2.0660601 -0.46767399 2.054471
2.0546601 -0.48478001 2.0653701
2.02566 -0.36716598 2.0512829
2.0162699 -0.37999001 2.0568399
2.0589199 -0.45958802 2.046505
2.05814 -0.47242802 2.048944
2.05356 -0.48591802 2.054425
2.0238299 -0.367881 2.039623
2.01056 -0.38159698 2.049793
2.0610399 -0.45735401 2.033318
2.05949 -0.469401 2.0360761
2.05072 -0.48580003 2.0440409
2.0316 -0.363695 2.0215292
2.0186799 -0.37803102 2.0336869
1.96095 -0.435967 2.0694301
2.04774 -0.46340501 2.031291
2.0525501 -0.47285998 2.02915
2.0396099 -0.49072799 2.041476
2.0350199 -0.36222899 2.00824
2.02368 -0.37528899 2.0174589
1.9702201 -0.42247298 2.0539269
1.9596499 -0.436306 2.0619001
2.05077 -0.461707 2.0161161
2.05669 -0.46902099 2.0138819
2.03655 -0.49216998 2.0354621
2.0215299 -0.36519 2.0052619
2.02544 -0.37356099 2.0045152
1.95435 -0.42805198 2.05428
1.95743 -0.43574402 2.0535421
2.1003699 -0.42109099 1.962895
2.0649002 -0.453096 1.99366
2.06001 -0.46577302 2.0005779
1.96943 -0.34746701 2.0162499
1.9740801 -0.36047101 2.0168231
1.9914999 -0.371447 2.010581
2.00682 -0.37985599 2.004003
1.96077 -0.42483503 2.0388498
1.95907 -0.43468702 2.040936
2.0461099 -0.42598498 1.9836661
2.0869 -0.42516601 1.964601
2.0843899 -0.43909302 1.968524
2.06882 -0.45977902 1.984024
2.04758 -0.480528 2.0016501
1.92853 -0.32629099 2.031049
1.95807 -0.33647001 2.0136361
1.97498 -0.34720099 2.005928
1.9886099 -0.35806099 2.0008559
1.9873199 -0.37433201 2.002486
2.0058601 -0.38381803 1.992816
1.9658999 -0.42085999 2.024224
1.9847301 -0.42437801 2.0118589
2.0407701 -0.42574501 1.9782541
2.0717399 -0.42815602 1.964439
2.09445 -0.43334597 1.950967
2.07774 -0.45315701 1.966277
1.9463401 -0.334838 2.0132
1.9678501 -0.34675899 2.001169
1.97341 -0.362046 2.000195
1.9690601 -0.37794399 2.0017631
2.0049698 -0.38443002 1.9828911
1.99147 -0.40819302 1.995151
2.0132401 -0.41862401 1.9831841
2.0351899 -0.42584801 1.9719291
2.0599899 -0.42966402 1.9613769
2.1056101 -0.43180099 1.9328951
2.0873001 -0.448829 1.9484611
2.0052099 -0.38712898 1.972572
1.99072 -0.405123 1.98317
1.9977901 -0.41984001 1.9805471
2.0308001 -0.42501998 1.9637021
2.0441401 -0.43256199 1.9589641
2.1054201 -0.43297902 1.923177
2.1041498 -0.442783 1.9257159
2.00052 -0.39107898 1.9656
1.9834801 -0.40979803 1.976331
1.97795 -0.42313999 1.979768
2.0253201 -0.42745098 1.9570861
2.04267 -0.43464401 1.946816
2.09378 -0.437814 1.9195199
2.0981798 -0.44685 1.9175329
1.9845799 -0.398857 1.965816
1.9682801 -0.415631 1.9760079
1.9599 -0.42896098 1.982133
2.0276401 -0.43080899 1.9447011
2.0468099 -0.436551 1.9321342
2.07605 -0.44018799 1.9185451
2.09548 -0.44766602 1.9094591
2.0797901 -0.46571702 1.9205569
1.9641701 -0.416682 1.9711411
2.0312901 -0.43018201 1.929948
2.0455201 -0.43676898 1.92214
2.0640199 -0.44400102 1.91466
2.086 -0.44951499 1.9052041
2.09319 -0.45875099 1.9017081
2.026 -0.43052101 1.9223871
2.03632 -0.43750802 1.917536
2.05302 -0.44553798 1.909808
2.0764301 -0.45283601 1.899341
2.0957699 -0.45731097 1.887894
2.0250502 -0.43070802 1.91301
2.04373 -0.43533099 1.9025661
2.05458 -0.44687998 1.8982941
2.0745001 -0.454117 1.888726
2.1000299 -0.45441201 1.875029
2.02615 -0.43098301 1.9013209
2.0452001 -0.43553799 1.8907249
2.06037 -0.44451401 1.883938
2.07376 -0.452261 1.8777111
2.0366201 -0.42607898 1.8830091
2.0423598 -0.43684101 1.882231
2.0592799 -0.443479 1.873316
2.0697999 -0.45125499 1.8673179
2.0350101 -0.42509499 1.872784
2.04072 -0.43520698 1.8717481
2.0596499 -0.442 1.8616251
2.07693 -0.44689301 1.851861
2.03408 -0.424465 1.8630691
2.04548 -0.43260399 1.857262
2.0692701 -0.437502 1.8451461
2.0341902 -0.42245603 1.8501359
2.0473599 -0.43145901 1.8451381
2.0689001 -0.43719399 1.835546
2.01566 -0.41220403 1.844779
2.03567 -0.420104 1.838222
2.0538399 -0.42847499 1.8323131
2.0859802 -0.42955101 1.8186461
2.0427999 -0.370336 1.8139759
2.02878 -0.38908902 1.824428
2.0106699 -0.41018599 1.8380951
2.0294001 -0.41676602 1.830211
2.03969 -0.42678797 1.82653
2.0325401 -0.37373102 1.81104
2.0308399 -0.38701999 1.814211
2.0157499 -0.40726501 1.8265519
2.0311401 -0.41634899 1.8188721
2.0396099 -0.425881 1.8142591
2.0316901 -0.37302101 1.800779
2.0327299 -0.38462201 1.8032541
2.0144999 -0.40767801 1.8169121
2.03685 -0.41451499 1.8043491
2.0448802 -0.42357799 1.801582
2.04584 -0.36735803 1.784037
2.0309501 -0.38459802 1.7937449
2.0173399 -0.40542001 1.8043699
2.0318401 -0.41462398 1.796249
2.0448501 -0.42231601 1.791136
2.03053 -0.38517201 1.785876
2.0269098 -0.40211102 1.7894
2.03844 -0.413569 1.78442
2.04656 -0.421781 1.7807181
2.01091 -0.39421299 1.789148
2.04124 -0.41257998 1.7756711
2.0480299 -0.421123 1.772801
2.0325999 -0.38281 1.7235901
2.0727 -0.44644901 1.713449
2.03705 -0.36678001 1.7103829
2.01261 -0.38979802 1.7270321
2.0264199 -0.39549801 1.720556
2.0636098 -0.43647701 1.7087159
2.07126 -0.44644001 1.7073261
2.0534399 -0.465166 1.7183239
2.0355299 -0.36527303 1.703398
2.02213 -0.38433897 1.713833
2.0195799 -0.398866 1.7166411
2.03444 -0.40726897 1.7099521
2.05024 -0.42222401 1.704307
2.06235 -0.43540201 1.701095
2.0685999 -0.44663501 1.700949
2.0704401 -0.456505 1.702499
2.03916 -0.36104098 1.692621
2.0265899 -0.37976602 1.701913
2.0205901 -0.39914799 1.7081081
2.0355101 -0.410411 1.701076
2.05197 -0.42220297 1.6941819
2.05355 -0.437271 1.69651
2.0676 -0.44413897 1.692026
2.01209 -0.358087 1.6968651
2.0171001 -0.366889 1.696142
2.0185401 -0.40205202 1.6997031
2.03917 -0.40989497 1.689135
2.0504501 -0.42129397 1.6839329
2.0585499 -0.43379003 1.6847759
2.06022 -0.446118 1.683336
2.0142601 -0.36690399 1.690644
2.01614 -0.405561 1.689862
2.0416901 -0.40857801 1.676962
2.0431399 -0.42345902 1.678394
2.0543201 -0.434919 1.67495
2.0502698 -0.45294398 1.677074
2.02391 -0.39999297 1.674154
2.04094 -0.40570599 1.6669149
2.0502501 -0.41867298 1.665463
2.05302 -0.434567 1.6646969
2.0462601 -0.454974 1.6695809
2.0330601 -0.47534999 1.6769999
2.0644999 -0.353894 1.638754
2.04529 -0.37568402 1.651528
2.03528 -0.393969 1.659735
2.0427201 -0.40556499 1.657212
2.04985 -0.42019999 1.6546531
2.04808 -0.43973202 1.6577229
2.04405 -0.458334 1.6608549
2.0393898 -0.474038 1.665555
2.0302999 -0.48961699 1.671365
2.07231 -0.349264 1.6278031
2.0543201 -0.36824402 1.637406
2.04 -0.38995498 1.6482711
2.0468202 -0.40353501 1.645203
2.05123 -0.41731301 1.643412
2.05194 -0.43367299 1.645761
2.0488999 -0.45330602 1.648692
2.0411999 -0.47266102 1.655148
2.03176 -0.48901999 1.6621181
2.0648301 -0.35139999 1.6223129
2.0508502 -0.36930901 1.629398
2.04229 -0.38798302 1.637014
2.0471601 -0.40393397 1.6342751
2.0438001 -0.42390001 1.6381551
2.0459299 -0.44006002 1.6391799
2.0462601 -0.45516801 1.640463
2.0430999 -0.469695 1.64499
2.0367501 -0.48478299 1.650239
2.0628099 -0.351217 1.613714
2.04865 -0.36793998 1.620934
2.0448399 -0.38580102 1.624853
2.0433099 -0.403997 1.624913
2.0453501 -0.42065299 1.6271549
2.04445 -0.43790501 1.630193
2.0488 -0.45111001 1.6309711
2.04687 -0.46572497 1.6345791
2.05495 -0.354911 1.607235
2.04159 -0.37373501 1.614934
2.0398099 -0.39004201 1.617415
2.0422201 -0.40412602 1.615598
2.0447199 -0.41922599 1.617258
2.04581 -0.43520999 1.619377
2.04403 -0.45091099 1.6241299
2.05686 -0.35269901 1.59561
2.0431101 -0.37046599 1.60375
2.0342798 -0.390751 1.6096629
2.04579 -0.40276501 1.604892
2.0490999 -0.41582099 1.6061779
2.04565 -0.43310001 1.608541
2.0478201 -0.44594899 1.610947
2.05404 -0.35281199 1.5878559
2.0407898 -0.36880198 1.594619
2.0369298 -0.38532299 1.5979531
2.0363901 -0.40317699 1.599684
2.0469799 -0.41797599 1.596969
2.0411799 -0.43599999 1.601077
2.0485001 -0.44479901 1.599409
2.04075 -0.35849097 1.584155
2.0322502 -0.37507999 1.588966
2.0320599 -0.39163101 1.590544
2.04249 -0.404704 1.5876379
2.0518401 -0.41747397 1.5844491
2.0490999 -0.433182 1.588707
2.05147 -0.44399399 1.588781
2.03736 -0.35952598 1.57481
2.0306799 -0.37326199 1.580341
2.0309 -0.388376 1.5806551
2.0367999 -0.40260899 1.5807829
2.0522399 -0.413111 1.574314
2.0539598 -0.429528 1.5761861
2.05497 -0.44186601 1.5785609
2.04406 -0.35671398 1.561911
2.0318499 -0.373752 1.5700121
2.0242798 -0.39138901 1.5742129
2.0366201 -0.40183398 1.5709461
2.05318 -0.41151401 1.564055
2.0658801 -0.422795 1.560362
2.06092 -0.43847197 1.56599
2.05128 -0.352559 1.549312
2.0437 -0.36814201 1.5547681
2.0350502 -0.38816503 1.5611701
2.0427799 -0.40186402 1.559637
2.06583 -0.40775001 1.550264
2.0876 -0.414846 1.541286
2.0797501 -0.432024 1.547159
2.0643899 -0.34704602 1.5356231
2.06424 -0.35894403 1.536286
2.05709 -0.37779498 1.541803
2.0509501 -0.397468 1.5472909
2.0736899 -0.404897 1.537588
2.0963001 -0.41164601 1.528506
2.0924299 -0.42719501 1.532953
2.09758 -0.439612 1.530452
2.0762601 -0.34237599 1.5218589
2.0802 -0.35294601 1.520527
2.07447 -0.36993998 1.524763
2.0646501 -0.391974 1.53131
2.0804701 -0.403689 1.525721
2.09267 -0.41324601 1.521817
2.0957 -0.427522 1.522195
2.1131301 -0.43537799 1.5166839
2.11989 -0.44644901 1.5140649
2.0878701 -0.33689499 1.508673
2.0839901 -0.34884 1.510623
2.0748701 -0.36658099 1.514942
2.06428 -0.388955 1.520182
2.0695601 -0.40416899 1.521245
2.07477 -0.42026001 1.5196769
2.08547 -0.43366101 1.516667
2.1166499 -0.435168 1.507668
2.0762 -0.34115398 1.504881
2.0710402 -0.35476199 1.5066521
2.05463 -0.37667 1.5132021
2.04322 -0.39801997 1.5176691
2.0553401 -0.410546 1.516534
2.062 -0.425475 1.5141901
2.0784199 -0.43483299 1.5099499
2.10811 -0.43956003 1.501611
2.0664999 -0.345384 1.4995559
2.05426 -0.36181399 1.503541
2.0375102 -0.38407397 1.509784
2.0359499 -0.40003398 1.5121131
2.04407 -0.4113 1.51048
2.05303 -0.42529401 1.5084469
2.06758 -0.43703997 1.50392
2.0892701 -0.44374502 1.4984829
2.1246901 -0.44389001 1.489812
2.0586998 -0.347927 1.4939971
2.0421 -0.36618802 1.49892
2.02071 -0.38854998 1.506353
2.03478 -0.39948699 1.503836
2.0460899 -0.41364601 1.4998391
2.0564699 -0.42807499 1.498338
2.0655799 -0.43853402 1.4963119
2.0637 -0.451911 1.497969
2.0674 -0.46209702 1.4974381
2.0521801 -0.35004601 1.489677
2.02125 -0.37549999 1.495909
2.02106 -0.39045399 1.4988151
2.0321 -0.401573 1.4950751
2.0479701 -0.41162899 1.4886
2.0493701 -0.42839101 1.491395
2.05989 -0.440359 1.4903849
2.05316 -0.45566398 1.49237
2.02335 -0.36175701 1.4864529
2.0240099 -0.37337101 1.4863659
2.01705 -0.39109299 1.4911971
2.03742 -0.39960802 1.483399
2.04635 -0.41208899 1.479848
2.05129 -0.42498699 1.481342
2.0506101 -0.44235802 1.483327
2.0471799 -0.457755 1.483783
2.0118499 -0.36477798 1.4842371
2.0271101 -0.38872102 1.477562
2.0372701 -0.40087199 1.4742171
2.0467 -0.411753 1.4717469
2.0489399 -0.427239 1.472301
2.0404401 -0.44881001 1.476904
2.03771 -0.46165401 1.4786689
2.0709701 -0.34789601 1.4452471
2.0240901 -0.39061698 1.4685891
2.0323 -0.39947602 1.4665589
2.04127 -0.41269797 1.464841
2.0454099 -0.42809501 1.462742
2.0426099 -0.44505799 1.466284
2.0325999 -0.462621 1.4720449
2.0805299 -0.33551398 1.4355021
2.0692301 -0.349132 1.4392841
2.0248499 -0.39127299 1.4585789
2.03374 -0.401694 1.456772
2.04233 -0.41497201 1.454845
2.04775 -0.42686799 1.4535899
2.0462699 -0.44113499 1.4553779
2.0303102 -0.46125099 1.462405
2.0737801 -0.33849299 1.4301879
2.06425 -0.35302502 1.433257
2.01963 -0.39141101 1.450961
2.03069 -0.400103 1.4476171
2.03689 -0.413362 1.447998
2.0406699 -0.42917001 1.447404
2.04075 -0.44486099 1.449183
2.0225301 -0.46368399 1.455654
2.0806599 -0.33543301 1.419281
2.06441 -0.35184801 1.425221
2.0313699 -0.38325298 1.4376969
2.0350599 -0.39833 1.4363451
2.0358 -0.41491601 1.438728
2.0452299 -0.42687801 1.4366111
2.03759 -0.44348899 1.440622
2.0786099 -0.33457902 1.410851
2.0671601 -0.34760398 1.4151089
2.02443 -0.38807598 1.430742
2.03227 -0.39694899 1.4287159
2.0383501 -0.41150299 1.4271331
2.0387101 -0.42900503 1.429826
2.0369799 -0.442202 1.4311639
2.0850201 -0.33219397 1.3997971
2.0771301 -0.34351003 1.40282
2.0255098 -0.38944501 1.42124
2.03372 -0.398747 1.4199021
2.03845 -0.41152099 1.417158
2.0448802 -0.437215 1.419598
2.0752599 -0.334488 1.3938659
2.06761 -0.34580001 1.396764
2.02268 -0.38995603 1.4117799
2.03039 -0.39952999 1.4118539
2.03601 -0.41222301 1.4087089
2.0783799 -0.333765 1.3839481
2.06919 -0.346138 1.387068
2.01736 -0.391289 1.40451
2.0322399 -0.39800099 1.400645
2.04251 -0.41081798 1.397863
2.06409 -0.338157 1.378891
2.06445 -0.34902599 1.378693
2.02755 -0.38608101 1.392437
2.0271001 -0.39896598 1.3931171
2.0401499 -0.408833 1.389447
2.04216 -0.241723 1.370108
2.0351501 -0.34544301 1.377775
2.0595598 -0.34962398 1.371771
2.04213 -0.37309399 1.3782769
2.0327101 -0.39554298 1.38201
2.04181 -0.40957698 1.3796539
1.9924999 -0.21822001 1.376761
2.0134199 -0.223222 1.371017
2.03122 -0.23316799 1.366671
2.03706 -0.245552 1.364156
2.0264399 -0.26255399 1.3660381
2.0240099 -0.32369801 1.36997
2.03351 -0.33194 1.36895
2.04017 -0.34206501 1.3681051
2.0548 -0.35362801 1.3642579
2.0346899 -0.37903199 1.37243
2.0311301 -0.395024 1.3727961
2.0322599 -0.411046 1.373152
1.9868201 -0.230886 1.372422
2.0011799 -0.241365 1.367919
2.0241899 -0.25096902 1.3606261
2.0299401 -0.265248 1.3574691
2.0172501 -0.28321502 1.3612579
2.0156 -0.29710099 1.361957
2.0531301 -0.304057 1.3516639
2.0388401 -0.326289 1.358689
2.04949 -0.33828601 1.3562649
2.0669 -0.344318 1.3508301
2.0275102 -0.383623 1.36535
2.02321 -0.40047902 1.366907
2.00666 -0.25546801 1.359377
2.0286701 -0.26439101 1.351595
2.02337 -0.28177601 1.3524699
2.02249 -0.29765201 1.353603
2.04634 -0.30630699 1.3468311
2.0466499 -0.32318801 1.3472611
