# .PCD v0.7 - Point Cloud Data file format
VERSION 0.7
FIELDS x y z
SIZE 4 4 4
TYPE F F F
COUNT 1 1 1
WIDTH 1471
HEIGHT 1
VIEWPOINT 0 0 0 1 0 0 0
POINTS 1471
DATA ascii
0.86102504 -0.45800498 0.62809527
0.86287004 -0.449334 0.62904418
0.89115602 -0.74889398 0.61030465
0.89342999 -0.73835999 0.60885614
0.85670602 -0.59080398 0.61850643
0.84940499 -0.58920401 0.62062758
0.851906 -0.57746899 0.61928117
0.848198 -0.57001501 0.620143
0.85610604 -0.55638403 0.6203233
0.85803103 -0.54222 0.62092245
0.86439496 -0.52472901 0.61942941
0.86087304 -0.51412702 0.62171674
0.85282099 -0.50921398 0.62200731
0.85461098 -0.49860698 0.62209213
0.86064005 -0.48198798 0.62250251
0.860641 -0.468546 0.62395179
0.85945898 -0.45880601 0.62487477
0.86257303 -0.449323 0.62573576
0.88819396 -0.74979502 0.60686088
0.88592798 -0.74150497 0.60661703
0.89002502 -0.73206598 0.60549569
0.855744 -0.59136701 0.61365438
0.851403 -0.58773798 0.61456418
0.84984398 -0.578987 0.61338091
0.85025197 -0.56824201 0.615852
0.85924399 -0.55164003 0.61512011
0.86431801 -0.53641802 0.61465895
0.866476 -0.52281499 0.61443365
0.86140198 -0.51549703 0.61645514
0.85625196 -0.50699002 0.61729372
0.85689795 -0.49474299 0.6172567
0.86760104 -0.47547001 0.61841369
0.87238604 -0.45936698 0.62044752
0.88945997 -0.75864601 0.60369992
0.88403898 -0.75245696 0.60345876
0.88504899 -0.741979 0.6023016
0.88141501 -0.73532504 0.6030702
0.87915999 -0.72810799 0.60113257
0.85229301 -0.59256697 0.60899347
0.84981501 -0.58746499 0.60948104
0.84680295 -0.58185697 0.60839772
0.84819603 -0.56987399 0.61001897
0.866844 -0.54522902 0.60986328
0.88134694 -0.52629203 0.60967422
0.86189699 -0.51038599 0.61233926
0.85616302 -0.50427502 0.61302179
0.86249602 -0.49174801 0.61333299
0.88604796 -0.74799103 0.5989632
0.88750398 -0.73824096 0.59660071
0.88034701 -0.73379207 0.59870154
0.87935901 -0.72566903 0.59703547
0.88051003 -0.71660006 0.59557462
0.85340303 -0.59218198 0.6037488
0.84769702 -0.58940601 0.6041857
0.84594595 -0.58028901 0.6035307
0.849998 -0.56834102 0.605358
0.88289595 -0.53145903 0.60669589
0.88249606 -0.52639699 0.60684371
0.86826104 -0.504103 0.60896033
0.85818297 -0.50440496 0.60990572
0.89292502 -0.74068499 0.59325391
0.89238501 -0.73444396 0.59178007
0.88386804 -0.73042297 0.59373778
0.88381898 -0.72066301 0.59256589
0.87780499 -0.71416396 0.59177977
0.874717 -0.70586306 0.59119308
0.87983805 -0.692801 0.58966303
0.84877199 -0.594684 0.59910482
0.84702498 -0.58859998 0.5975759
0.84430498 -0.581496 0.59791857
0.84317201 -0.57609999 0.6000759
0.906699 -0.73344702 0.58891082
0.90718198 -0.72727603 0.58822322
0.88851404 -0.72562701 0.5889917
0.88252801 -0.71695197 0.58806121
0.87561899 -0.71079201 0.5881654
0.86870301 -0.70649201 0.58860308
0.87162805 -0.69692904 0.58742982
0.87958097 -0.68394399 0.5861178
0.850577 -0.59393501 0.5925585
0.84734201 -0.59001803 0.59188598
0.84270304 -0.58423597 0.59262586
0.84168899 -0.578605 0.59449339
0.89323306 -0.71154803 0.58372492
0.87794602 -0.71005994 0.5839234
0.87280297 -0.704027 0.58476877
0.87277704 -0.69549203 0.5832907
0.87549895 -0.68489802 0.58260077
0.88745797 -0.66980904 0.58115888
0.85780096 -0.59445202 0.58681089
0.84963304 -0.59416801 0.58739847
0.84319395 -0.58981496 0.58783531
0.83920199 -0.58513701 0.5881657
0.83981597 -0.57969499 0.58844179
0.88324201 -0.70620596 0.58001226
0.87463701 -0.70151901 0.58024019
0.875287 -0.69157797 0.57962573
0.875579 -0.68362504 0.57885408
0.882406 -0.67100406 0.5780713
0.87870699 -0.66112298 0.57660091
0.87560701 -0.65198404 0.57516408
0.84694505 -0.59543401 0.58242571
0.84505898 -0.59061402 0.58343416
0.84003198 -0.58397502 0.5830549
0.83749098 -0.57905799 0.5832395
0.88592798 -0.69631302 0.57672179
0.87874496 -0.68994302 0.57677102
0.88107198 -0.67730105 0.57577932
0.87586504 -0.66763902 0.57460284
0.86727601 -0.663863 0.57409489
0.86691904 -0.65597296 0.57300878
0.87144899 -0.64594001 0.57202619
0.84118104 -0.597287 0.57691634
0.84090501 -0.59136003 0.57815558
0.83706003 -0.58376801 0.57714486
0.83703303 -0.57597899 0.57793909
0.85027295 -0.55003601 0.57435519
0.83663803 -0.55334598 0.57505369
0.84953004 -0.53974998 0.57432902
0.86756402 -0.66020203 0.5697003
0.86273694 -0.65588099 0.56951541
0.85898298 -0.65100896 0.5691306
0.86469299 -0.642829 0.56886506
0.837286 -0.59825003 0.57310766
0.83880502 -0.59325004 0.57357192
0.83675796 -0.58655602 0.572972
0.83469599 -0.57644498 0.57225877
0.835495 -0.563416 0.5731619
0.83495903 -0.55567002 0.57222986
0.83576101 -0.54903299 0.57277399
0.86405897 -0.65866095 0.563559
0.86070096 -0.65494299 0.56517881
0.85474896 -0.65120202 0.5654183
0.85374397 -0.64663804 0.565036
0.83808196 -0.59101099 0.56927848
0.835365 -0.58425599 0.56766391
0.83165097 -0.57737201 0.56699395
0.83306396 -0.56576002 0.56778699
0.83286905 -0.55711496 0.56885171
0.87765199 -0.65008003 0.55788189
0.866117 -0.65093595 0.55929869
0.856857 -0.648974 0.56097811
0.84939694 -0.64428598 0.5588308
0.83493501 -0.58912998 0.56354779
0.83177698 -0.58392102 0.56221199
0.83342397 -0.57375801 0.56293046
0.83448404 -0.56585604 0.56190819
0.832802 -0.560013 0.5627265
0.87375605 -0.64466101 0.55434054
0.85654402 -0.64605105 0.55525601
0.84545702 -0.64255303 0.55438662
0.83515197 -0.64239198 0.55497181
0.83320397 -0.589019 0.55721998
0.83219004 -0.584225 0.55724621
0.83205199 -0.57612902 0.5579406
0.83875501 -0.56198001 0.55762821
0.84362799 -0.55239898 0.55778921
0.871315 -0.63614702 0.54929531
0.85151398 -0.63876802 0.54997468
0.84295303 -0.63610399 0.55052131
0.83052498 -0.63845301 0.55186129
0.82902998 -0.59161496 0.55226427
0.831402 -0.58421904 0.55210704
0.83556604 -0.57340199 0.55280089
0.85046405 -0.55177701 0.55454302
0.858944 -0.63218999 0.54411221
0.848387 -0.63204801 0.54532379
0.840204 -0.63171297 0.5470317
0.83036399 -0.58996797 0.54687905
0.83088404 -0.58384001 0.54600251
0.83502501 -0.57417399 0.54615939
0.85903603 -0.54562902 0.53924108
0.86844999 -0.623402 0.53763318
0.85404098 -0.62724096 0.53953272
0.84565806 -0.62782902 0.54157931
0.81818998 -0.59634995 0.54371119
0.82905 -0.58551401 0.54256743
0.83159697 -0.57593602 0.54085702
0.84793997 -0.55557996 0.53853273
0.85850602 -0.54190803 0.53667319
0.86120105 -0.62111497 0.53338921
0.85184801 -0.62340599 0.53571022
0.82960701 -0.58263898 0.53807676
0.83192003 -0.57383704 0.53564781
0.83943802 -0.56169897 0.53494722
0.84468299 -0.55154002 0.53422523
0.87065202 -0.61426604 0.52727902
0.86376703 -0.61558402 0.5293082
0.82968402 -0.57802302 0.53227729
0.83428597 -0.56833398 0.53081191
0.84020698 -0.55795801 0.53046381
0.843705 -0.55066103 0.5283823
0.877666 -0.60989797 0.52360964
0.87587196 -0.60763699 0.5242756
0.83171898 -0.56923902 0.52607173
0.83891702 -0.55865896 0.52570951
0.84088206 -0.55273497 0.52340513
0.834934 -0.56568503 0.5204165
0.83626199 -0.56026196 0.52051657
0.84525001 -0.55000597 0.51857841
0.83211303 -0.56665403 0.51743948
0.83786905 -0.559071 0.51657403
0.85128999 -0.60102403 0.503304
0.83710802 -0.60574603 0.505193
0.84483397 -0.55444801 0.513017
0.84934306 -0.602189 0.50073701
0.83807999 -0.60603404 0.50236702
0.84566903 -0.604711 0.49702099
0.83606797 -0.60711497 0.49819601
0.85662806 -0.764404 0.48858202
0.85148299 -0.75842798 0.48997101
0.84943801 -0.75133002 0.49040499
0.84383601 -0.74415398 0.49126598
0.83869004 -0.73724401 0.49195203
0.83784503 -0.72779602 0.491638
0.83746696 -0.71693301 0.491451
0.83484805 -0.70620799 0.491781
0.834993 -0.69540197 0.492174
0.83387601 -0.68763196 0.49234298
0.83189696 -0.68071997 0.49229598
0.83233702 -0.66985601 0.49161997
0.83637899 -0.654746 0.49035498
0.83830702 -0.64108396 0.49000001
0.85078698 -0.624942 0.48813802
0.84119797 -0.60973799 0.492486
0.83209199 -0.61054999 0.49260101
0.84701204 -0.76018995 0.48783001
0.84420604 -0.75000799 0.48858601
0.83961505 -0.74284202 0.48967603
0.83779997 -0.734981 0.489407
0.838696 -0.72388899 0.48847499
0.83768404 -0.71294403 0.488736
0.83282697 -0.70607102 0.48938501
0.83673304 -0.69668096 0.48939899
0.83192998 -0.68909597 0.490141
0.83419001 -0.676952 0.48905998
0.83387202 -0.666233 0.48849702
0.838238 -0.65355599 0.48685199
0.83964401 -0.64238602 0.487057
0.84849501 -0.62640303 0.485717
0.84794801 -0.616005 0.48668098
0.835783 -0.61346102 0.48799202
0.82811499 -0.61129701 0.48766699
0.84288496 -0.770087 0.48493499
0.84378505 -0.76160502 0.48500401
0.84271502 -0.75385803 0.48534802
0.840011 -0.74294698 0.48581299
0.83869398 -0.73286796 0.48592499
0.83872396 -0.725196 0.48495701
0.83768797 -0.715698 0.48509398
0.83422202 -0.70762199 0.48624802
0.83301699 -0.69733 0.48633203
0.83324099 -0.68545198 0.48630199
0.83469498 -0.67434096 0.48515201
0.83772498 -0.66222799 0.48446399
0.84183699 -0.65136701 0.48275602
0.84010696 -0.64366996 0.48358902
0.84720302 -0.62814498 0.48147401
0.84355301 -0.617598 0.48250598
0.83213502 -0.61314702 0.48317403
0.82381499 -0.61116999 0.48311502
0.84227097 -0.761648 0.48279098
0.84193802 -0.75092399 0.482748
0.83842796 -0.74337798 0.48309898
0.83871001 -0.73369002 0.483105
0.841061 -0.72184503 0.48211202
0.83816904 -0.71436799 0.48245603
0.835989 -0.70615995 0.48302799
0.83715302 -0.694969 0.48262799
0.83142602 -0.68711197 0.48344699
0.84037596 -0.67229897 0.48145598
0.83667201 -0.66377997 0.481785
0.85052299 -0.64654195 0.47893602
0.85107303 -0.63576001 0.478488
0.85900801 -0.61808896 0.475041
0.84939402 -0.61437201 0.476087
0.83747596 -0.61220902 0.47827801
0.82672697 -0.60942799 0.47830501
0.81707102 -0.60973096 0.47972
0.90496695 -0.70469999 0.45973
0.89695197 -0.69621599 0.46058398
0.89124602 -0.68691301 0.46161601
0.89097804 -0.67644602 0.46161899
0.89310402 -0.66521102 0.46048301
0.89438403 -0.65597397 0.45945799
0.85402298 -0.60917199 0.47092202
0.836896 -0.610331 0.47311297
0.82503599 -0.609191 0.47399503
0.82278997 -0.60513097 0.473676
0.89618498 -0.70529401 0.45822102
0.88967204 -0.69942003 0.459203
0.88777494 -0.69144994 0.45912701
0.88618696 -0.68230301 0.46013099
0.88471299 -0.673168 0.459539
0.88170302 -0.66345495 0.45893201
0.88958097 -0.65033501 0.456507
0.83664399 -0.60921001 0.46837002
0.82820296 -0.60620201 0.468521
0.82168096 -0.60157901 0.46699601
0.895661 -0.70961899 0.45394501
0.89202005 -0.69871199 0.45428398
0.88702798 -0.69092202 0.45513797
0.88606298 -0.68170899 0.45556802
0.88193494 -0.67070997 0.45500499
0.87935096 -0.66323096 0.45567599
0.878277 -0.65576398 0.45514899
0.87203902 -0.64719301 0.454061
0.88092595 -0.63109899 0.450477
0.83351898 -0.60761797 0.461891
0.823264 -0.605416 0.46298599
0.81756103 -0.60101801 0.46270803
0.80928499 -0.60150003 0.46432602
0.89782095 -0.70574999 0.44905499
0.897062 -0.69642305 0.44845101
0.89142901 -0.68794 0.44984201
0.88499802 -0.67819101 0.45060399
0.881639 -0.669209 0.450369
0.87719804 -0.66283602 0.452039
0.87571198 -0.65208298 0.45019501
0.87148595 -0.64498901 0.45050299
0.86927801 -0.63702703 0.44981098
0.86484301 -0.63029999 0.44956198
0.83531499 -0.60987997 0.45512101
0.82643402 -0.60730398 0.457362
0.81892699 -0.60210001 0.45819101
0.81309402 -0.596717 0.45821702
0.90661204 -0.70946997 0.44488499
0.90557897 -0.69934702 0.44455397
0.90789396 -0.688272 0.44371498
0.90434998 -0.681512 0.44417998
0.89908201 -0.67524695 0.44510201
0.886729 -0.669815 0.44688302
0.87832296 -0.66005206 0.44701001
0.87537497 -0.65012097 0.44513297
0.87094903 -0.64338702 0.44617
0.86712193 -0.63549501 0.44579399
0.86413002 -0.62978101 0.44658601
0.85493499 -0.623698 0.446504
0.84978205 -0.611889 0.447882
0.83259696 -0.61235297 0.45118001
0.82317299 -0.60731101 0.45269799
0.81573701 -0.60046601 0.45298299
0.80894601 -0.59585899 0.45378101
0.79948097 -0.59749198 0.45587897
0.87966698 -0.64757502 0.44118899
0.87483901 -0.64146399 0.44092301
0.86924601 -0.63576102 0.44182801
0.86193496 -0.62927401 0.44225103
0.84820998 -0.62613302 0.44328201
0.83938104 -0.619784 0.44547999
0.82651705 -0.61454797 0.44679999
0.820786 -0.60639501 0.44827199
0.81513602 -0.60133702 0.44747698
0.81172699 -0.594993 0.449283
0.80678499 -0.59210896 0.449516
0.880476 -0.63793898 0.43703401
0.86621302 -0.63528401 0.43867698
0.85574895 -0.62827998 0.43859902
0.84164596 -0.625642 0.440723
0.83237898 -0.62148899 0.44148898
0.82246101 -0.61847401 0.44222099
0.81780601 -0.61049902 0.443416
0.81391996 -0.60268396 0.44280201
0.81099099 -0.59510303 0.44400701
0.80709398 -0.59034401 0.44314998
0.86670995 -0.62690103 0.43496799
0.83421302 -0.62655699 0.43695801
0.82560301 -0.62345499 0.438182
0.82116503 -0.61689299 0.437841
0.81503701 -0.609245 0.437967
0.81254798 -0.60027099 0.43895099
0.81275803 -0.59088999 0.43721101
0.81524396 -0.58322203 0.43647203
0.83257896 -0.62413001 0.43152002
0.82834601 -0.62026399 0.43228298
0.82029504 -0.61458802 0.43276
0.812846 -0.61062902 0.43388098
0.81274694 -0.60100299 0.43307498
0.81343806 -0.58975703 0.431422
0.81415498 -0.58261102 0.43131799
0.83373499 -0.615852 0.42594898
0.82268304 -0.61457801 0.42749199
0.81350499 -0.610699 0.42974201
0.81256598 -0.60272199 0.42761201
0.81096601 -0.59379798 0.42741901
0.81603104 -0.58115298 0.425863
0.81685203 -0.57429296 0.42442101
0.82393801 -0.611709 0.421399
0.81528503 -0.60911596 0.423998
0.81199998 -0.60015202 0.42221001
0.81311995 -0.58814698 0.42181501
0.81663102 -0.57779002 0.420928
0.82381302 -0.56860298 0.417593
0.82809603 -0.60708898 0.413596
0.81705499 -0.60628396 0.41718498
0.81137902 -0.60097998 0.41744998
0.81106597 -0.59242803 0.41703498
0.81573099 -0.57925701 0.41603699
0.82590103 -0.56734401 0.412828
0.83029199 -0.605667 0.40849599
0.8186 -0.60703099 0.41096699
0.812567 -0.60017502 0.41179699
0.81408995 -0.58763903 0.41103101
0.81327903 -0.58064604 0.411713
0.82701701 -0.606251 0.40467098
0.81541497 -0.60605901 0.40573898
0.81100404 -0.600761 0.40662399
0.80763197 -0.59457403 0.407076
0.808487 -0.58522397 0.40632099
0.82000601 -0.60906899 0.400121
0.80981797 -0.609519 0.40206701
0.80732697 -0.60188997 0.40204999
0.80361998 -0.59257799 0.40218699
0.80602998 -0.582838 0.399874
0.81865799 -0.61028302 0.39533401
0.81022 -0.609029 0.39668098
0.80161905 -0.60429102 0.397459
0.80194098 -0.59450102 0.397378
0.80006301 -0.585576 0.39688399
0.80225402 -0.57532698 0.39430699
0.81650597 -0.61126703 0.39105302
0.80990601 -0.60960901 0.39038798
0.803137 -0.60568899 0.392937
0.79715699 -0.59875304 0.392986
0.79525399 -0.589984 0.39379299
0.79213303 -0.58094198 0.39233798
0.78688401 -0.57267898 0.39180601
0.77706301 -0.56930602 0.39234799
0.81547701 -0.61218601 0.385544
0.811176 -0.60954201 0.38487899
0.80175501 -0.60548902 0.387413
0.79368895 -0.59986299 0.388964
0.794447 -0.588884 0.38788497
0.79332197 -0.578578 0.387108
0.78706706 -0.572999 0.38751197
0.78211999 -0.56621897 0.38806301
0.77757895 -0.56323504 0.38855898
0.85982102 -0.60775399 0.36452198
0.82041705 -0.61170298 0.377758
0.80764604 -0.6103 0.381688
0.80223197 -0.60600299 0.38169602
0.79732901 -0.59822297 0.38303003
0.79446405 -0.589338 0.38191301
0.79467696 -0.57700199 0.381419
0.78525102 -0.57298696 0.38357699
0.78670001 -0.56412798 0.382406
0.78651297 -0.55657101 0.38130102
0.84950799 -0.61307299 0.364658
0.84031302 -0.61185199 0.36725199
0.82773596 -0.61058301 0.370442
0.80931699 -0.61087799 0.375891
0.80276299 -0.60347998 0.37640801
0.80046898 -0.59359401 0.37616199
0.80181801 -0.58187002 0.37473702
0.80233496 -0.57099402 0.37276599
0.79528397 -0.56555498 0.37624797
0.79554003 -0.55517203 0.37407798
0.80016196 -0.54350603 0.37061599
0.84274101 -0.61625302 0.36249599
0.83211404 -0.61493897 0.365069
0.81945002 -0.612966 0.36862701
0.811854 -0.606884 0.36864799
0.807845 -0.59650397 0.36920398
0.80992597 -0.58400798 0.36803299
0.81598604 -0.57081801 0.36583599
0.81920505 -0.56030101 0.362863
0.81693 -0.54988497 0.36322299
0.81595594 -0.53820997 0.36227101
0.81385398 -0.53258497 0.36173299
0.79965597 -0.53769898 0.36706299
0.83935302 -0.61874503 0.35846198
0.83382696 -0.616642 0.35955897
0.820961 -0.61398298 0.36256298
0.808622 -0.61025697 0.36312401
0.80718005 -0.59960198 0.36383399
0.81098294 -0.58570999 0.362342
0.81712401 -0.56994802 0.360075
0.82703102 -0.551512 0.35541901
0.83587193 -0.53576499 0.35176098
0.83058798 -0.53143603 0.35396099
0.83028501 -0.52336901 0.35258198
0.82905197 -0.51845598 0.351935
0.83690399 -0.61928999 0.35433602
0.82648599 -0.61873102 0.35601199
0.81219298 -0.61754102 0.358807
0.80542099 -0.61226797 0.35903302
0.80439103 -0.60254699 0.35881999
0.80623704 -0.59055501 0.35835099
0.81387001 -0.57460099 0.35527
0.823838 -0.55669701 0.35134399
0.83275706 -0.53950697 0.34783199
0.83501899 -0.52800298 0.34760103
0.832214 -0.52315497 0.34671199
0.83321297 -0.61909097 0.34886199
0.820921 -0.619322 0.35182801
0.80744302 -0.61768198 0.35474202
0.80438006 -0.60940701 0.35456198
0.80219704 -0.60156 0.35426602
0.80286598 -0.59389597 0.354646
0.80934995 -0.58006901 0.35135701
0.81759101 -0.56349999 0.34782898
0.82667506 -0.54651099 0.34435099
0.83470803 -0.530056 0.34169799
0.84231299 -0.51823801 0.338377
0.83825201 -0.61553699 0.341582
0.82585299 -0.61755002 0.34522098
0.81225401 -0.61808199 0.349291
0.80432403 -0.612634 0.34952098
0.80016798 -0.60479903 0.35082799
0.80258501 -0.592619 0.349123
0.80966794 -0.57476103 0.34475201
0.82138997 -0.55658698 0.34154999
0.82767403 -0.54312801 0.338682
0.83732396 -0.52904099 0.33584702
0.82656097 -0.61572897 0.33927301
0.813824 -0.61649299 0.34362301
0.80791903 -0.61044604 0.342612
0.80107301 -0.60301799 0.34435099
0.80429101 -0.587789 0.342026
0.80759203 -0.57545 0.33942398
0.82031304 -0.557585 0.336319
0.82646102 -0.54496598 0.33461103
0.82538199 -0.61459899 0.33367598
0.81313598 -0.61521 0.336968
0.80492699 -0.60886502 0.33839199
0.79905599 -0.60391599 0.339623
0.79951894 -0.59529901 0.33857498
0.80219102 -0.58267397 0.33667499
0.81324899 -0.56629395 0.33293098
0.81887496 -0.55507702 0.33180901
0.82174796 -0.61555898 0.329263
0.81074303 -0.61689901 0.33232102
0.80666494 -0.61161798 0.33284298
0.80081594 -0.6031 0.333924
0.80175298 -0.59054202 0.331801
0.80563104 -0.578192 0.33106399
0.815961 -0.56520003 0.327804
0.82126403 -0.61670297 0.32400799
0.81005305 -0.61733401 0.327402
0.80427599 -0.61007601 0.32718998
0.80022901 -0.60008997 0.32789001
0.80093497 -0.591335 0.327052
0.80133796 -0.583974 0.32693198
0.81748003 -0.61990499 0.31971902
0.806382 -0.61892503 0.32228601
0.79646301 -0.616063 0.32404399
0.79604799 -0.60678399 0.32417098
0.79975897 -0.59389299 0.32243401
0.80816805 -0.58197397 0.31733701
0.82827795 -0.61955601 0.311398
0.81563401 -0.62163103 0.314823
0.79974604 -0.62195498 0.318535
0.79333603 -0.61557901 0.32098499
0.79651904 -0.6045 0.31864202
0.80250001 -0.59140402 0.315016
0.81462598 -0.57773703 0.30885601
0.82426804 -0.62242502 0.30819699
0.80919099 -0.62558901 0.311459
0.79484004 -0.626261 0.31473401
0.79260302 -0.61712599 0.31584001
0.79643995 -0.603737 0.31283799
0.80500704 -0.58925802 0.308393
0.81556296 -0.577066 0.303146
0.81929499 -0.62509602 0.30442199
0.80508697 -0.62709403 0.306824
0.79028803 -0.626414 0.31203002
0.79353994 -0.61484599 0.309452
0.79791498 -0.60141802 0.30656499
0.80786598 -0.58667803 0.30197299
0.81756103 -0.57539397 0.29783702
0.81324995 -0.62861001 0.300787
0.80279297 -0.62980002 0.302176
0.79245102 -0.626037 0.30510199
0.79314101 -0.612872 0.303606
0.79962802 -0.598248 0.300367
0.80637199 -0.58739603 0.29779702
0.81095397 -0.62984598 0.29624301
0.79737902 -0.63189799 0.29911003
0.79057997 -0.62830901 0.299945
0.78847003 -0.62030399 0.30037901
0.792485 -0.60728401 0.29789799
0.80359805 -0.59169102 0.29469201
0.81428099 -0.57889903 0.29101899
0.80406702 -0.632577 0.293686
0.79257303 -0.632999 0.29587498
0.78610003 -0.62833399 0.29777899
0.78903002 -0.61816299 0.29571
0.79150599 -0.60931897 0.294348
0.79291499 -0.60140002 0.29465902
0.80202001 -0.63300401 0.29055601
0.78757596 -0.635921 0.294808
0.78806394 -0.627388 0.29410002
0.789078 -0.61797601 0.29298902
0.77224195 -0.57084799 0.261242
0.77093399 -0.561243 0.261244
0.76520205 -0.55574101 0.26295701
0.76422995 -0.54690498 0.26176
0.76031899 -0.53721696 0.26074401
0.75900197 -0.52509803 0.25916702
0.75886101 -0.51561701 0.257287
0.79063499 -0.59326601 0.25292403
0.79347396 -0.58189899 0.25120601
0.78894699 -0.57137001 0.25270799
0.78069901 -0.56388098 0.25578302
0.77470803 -0.55728698 0.25703698
0.76509005 -0.55480599 0.26044598
0.76549006 -0.54372901 0.257965
0.76226699 -0.53625798 0.25686899
0.75825799 -0.52866101 0.25701201
0.75183296 -0.52156103 0.25747499
0.75034404 -0.51378 0.25581801
0.76847804 -0.65779299 0.264112
0.77216101 -0.65072602 0.261933
0.77092797 -0.64540398 0.261608
0.77910501 -0.63247299 0.25713801
0.784742 -0.618532 0.25386202
0.79122102 -0.60274899 0.25063002
0.799173 -0.587309 0.24660501
0.80256301 -0.57462502 0.244461
0.80366302 -0.56499898 0.24386901
0.790241 -0.56231099 0.24979201
0.77755404 -0.55854398 0.253957
0.770486 -0.54898399 0.25457898
0.76291102 -0.54264903 0.25500402
0.76216799 -0.53231001 0.252031
0.75338304 -0.52703899 0.25400001
0.74956805 -0.52150601 0.25442702
0.74651903 -0.51619101 0.25392902
0.74164301 -0.509359 0.25223199
0.772434 -0.65074098 0.259186
0.77113199 -0.64455801 0.258313
0.785119 -0.62537897 0.251331
0.78782499 -0.61358899 0.24970999
0.79727995 -0.59830302 0.24409799
0.80992997 -0.57974398 0.23706701
0.816751 -0.56675798 0.23462
0.76912004 -0.53656602 0.24878
0.76194 -0.53026098 0.24739301
0.75644702 -0.525015 0.24774802
0.74951798 -0.52054602 0.250139
0.74497199 -0.51337796 0.24870302
0.73908997 -0.50721198 0.24805002
0.73353404 -0.50026202 0.24776499
0.72911698 -0.48920301 0.24597201
0.76826304 -0.651164 0.255631
0.77043295 -0.64485705 0.25422603
0.77904201 -0.63258302 0.24969
0.788032 -0.61534804 0.244672
0.80283701 -0.59430003 0.23565198
0.81244695 -0.57962102 0.23099001
0.81792903 -0.57053399 0.22830702
0.75945902 -0.52099204 0.24213201
0.75116205 -0.5169 0.24353503
0.74420798 -0.50938803 0.24299501
0.73447502 -0.50574201 0.24502902
0.72856694 -0.502029 0.24625601
0.72651702 -0.494519 0.24499899
0.76678103 -0.65231103 0.24981901
0.769023 -0.64514703 0.25029099
0.78220594 -0.62859702 0.24254999
0.79294801 -0.61091703 0.23596503
0.80212504 -0.59604299 0.230418
0.81071097 -0.58232701 0.22709402
0.82057196 -0.57083899 0.22209501
0.76035202 -0.51062 0.23625101
0.74635905 -0.50975204 0.23893499
0.73826402 -0.50402701 0.23938699
0.72980499 -0.49986199 0.24161401
0.76054901 -0.65811402 0.24690099
0.77030998 -0.645087 0.243356
0.78631401 -0.624354 0.233841
0.79784304 -0.60580897 0.22822401
0.80634004 -0.59180903 0.224783
0.81231797 -0.58216596 0.22196101
0.749542 -0.49592099 0.231396
0.73116899 -0.49680802 0.23602103
0.76756203 -0.65910602 0.23990701
0.76481199 -0.65572196 0.24080801
0.77436697 -0.64207399 0.235507
0.78616899 -0.62652403 0.22799601
0.79313004 -0.612427 0.22418299
0.80128098 -0.59791899 0.222167
0.76243401 -0.66220099 0.23727399
0.76839799 -0.652955 0.23455301
0.77808297 -0.63970298 0.22825502
0.79102999 -0.62177503 0.22023302
0.79217499 -0.61279303 0.219274
0.79853797 -0.60328698 0.21601099
0.75821996 -0.66613996 0.23379603
0.76817399 -0.65456396 0.22907603
0.78255498 -0.63698697 0.22047
0.79134595 -0.62283498 0.21438001
0.79226601 -0.6128 0.21378203
0.79998499 -0.60116297 0.208202
0.75342798 -0.66984099 0.23046999
0.77067494 -0.65281403 0.22157602
0.78664899 -0.633439 0.21257001
0.79305601 -0.61873102 0.207647
0.79137301 -0.60987097 0.20741102
0.799339 -0.599361 0.20289999
0.75465697 -0.67460501 0.22504301
0.75283998 -0.67054003 0.22516401
0.77272004 -0.65003896 0.21418901
0.78869003 -0.62944198 0.20562501
0.79072601 -0.62006402 0.20352499
0.78828001 -0.61265999 0.20271799
0.79428804 -0.60016602 0.199027
0.74217105 -0.68343496 0.225375
0.75166601 -0.67149496 0.22087999
0.77460599 -0.64886594 0.20835
0.78523999 -0.63383502 0.20132403
0.78756404 -0.62139499 0.199747
0.78426099 -0.613231 0.198478
0.78376406 -0.60497004 0.19779299
0.77925795 -0.59868598 0.19741201
0.78092402 -0.59045202 0.19376101
0.73427099 -0.691158 0.22282499
0.73802495 -0.68461305 0.221503
0.782969 -0.640306 0.19860601
0.79216498 -0.62849402 0.19130498
0.78507894 -0.624152 0.194896
0.78412497 -0.61544102 0.194896
0.77818495 -0.60872298 0.19473799
0.77605498 -0.60077202 0.19519
0.76938105 -0.596026 0.19486101
0.741337 -0.69235998 0.21544901
0.73203796 -0.69368601 0.21893603
0.73271501 -0.68917704 0.21867602
0.79361802 -0.63251597 0.18692301
0.792696 -0.62797499 0.18620101
0.790914 -0.62112802 0.18582898
0.78363001 -0.614963 0.189475
0.77901101 -0.60658801 0.18742301
0.770895 -0.60188597 0.19181402
0.76015997 -0.597839 0.19257601
0.76279294 -0.59011298 0.19074301
0.72902 -0.70103896 0.21638399
0.72836 -0.69739604 0.21546602
0.72993797 -0.69158304 0.21466601
0.79976499 -0.628847 0.17823201
0.79521102 -0.625543 0.17955703
0.79194903 -0.61950499 0.180282
0.78609002 -0.61352503 0.181732
0.78093201 -0.60475802 0.179932
0.76479501 -0.60334802 0.18780001
0.75468802 -0.59930003 0.18981001
0.75076699 -0.59539598 0.19130102
0.762353 -0.58409399 0.18682802
0.730609 -0.70568496 0.21171302
0.72762495 -0.70315099 0.212153
0.72392601 -0.69961095 0.21309702
0.73305398 -0.69011903 0.20844202
0.80062598 -0.62787604 0.17143801
0.79485202 -0.624506 0.17340201
0.79201698 -0.61855298 0.175567
0.788109 -0.61076498 0.17415202
0.78471899 -0.60215801 0.17195502
0.76783204 -0.60228097 0.180512
0.756212 -0.60048801 0.18571199
0.74657202 -0.597691 0.18771102
0.74321604 -0.59422404 0.188887
0.72693604 -0.70804298 0.20895502
0.72336698 -0.70545304 0.20867503
0.72169602 -0.70100504 0.210017
0.80487603 -0.62758702 0.16258803
0.79977095 -0.62289697 0.16569002
0.79177696 -0.61833 0.16973402
0.79128098 -0.60852504 0.16639501
0.794577 -0.59715801 0.16157499
0.77509803 -0.59857202 0.17188501
0.75487101 -0.60041803 0.18171202
0.74104398 -0.600492 0.18635401
0.73874301 -0.59646803 0.18708903
0.71978897 -0.70407897 0.20552702
0.80416399 -0.63404202 0.160386
0.80553401 -0.62777799 0.15819199
0.79928899 -0.62456697 0.160869
0.79407901 -0.61738098 0.16225901
0.79224801 -0.607674 0.159959
0.80203599 -0.59422499 0.15288499
0.79700303 -0.59055197 0.15576001
0.75733203 -0.59836799 0.17723799
0.73753899 -0.59656203 0.18467401
0.812051 -0.62994599 0.15412198
0.796018 -0.62254101 0.156377
0.79337698 -0.61504501 0.15633401
0.79389602 -0.60661101 0.15343599
0.80323601 -0.59427798 0.14746998
0.724922 -0.70270801 0.19231401
0.79356796 -0.62157702 0.15054601
0.79212499 -0.61612999 0.150636
0.79293704 -0.60738397 0.14819902
0.802665 -0.59611499 0.14236002
0.79211998 -0.62123102 0.14449601
0.79314595 -0.61402303 0.143369
0.79203004 -0.60865504 0.14366101
0.79171503 -0.62318099 0.137034
0.78970802 -0.61840302 0.139679
0.78909498 -0.61309797 0.13890901
0.79422098 -0.62784302 0.13178898
0.79243106 -0.62437499 0.13090397
0.78833199 -0.619295 0.134021
0.78756499 -0.61429101 0.13371702
0.79555494 -0.62803501 0.12678799
0.793329 -0.62518102 0.12555902
0.78873199 -0.62061298 0.12671299
0.78545702 -0.616014 0.129334
0.79542899 -0.62814999 0.12152898
0.79099405 -0.62538797 0.12134198
0.78880399 -0.61985898 0.12033898
0.786865 -0.61541498 0.12119699
0.792503 -0.62888902 0.116956
0.79010695 -0.62439501 0.11509698
0.78852403 -0.61800098 0.11539201
0.78865099 -0.61288899 0.11300599
0.794662 -0.62732798 0.10911199
0.79354596 -0.62308198 0.107049
0.78896403 -0.61815602 0.10850801
0.79161501 -0.61078799 0.10576101
0.79287696 -0.62782598 0.102963
0.78951204 -0.62408501 0.10410199
0.78947306 -0.61796999 0.10177098
0.789271 -0.61231703 0.101111
0.79437101 -0.62680697 0.095678985
0.79127401 -0.62264097 0.096479006
0.78813201 -0.617221 0.097487003
0.79057401 -0.610798 0.093457006
0.792072 -0.627244 0.090183996
0.79066497 -0.62203997 0.089917004
0.78760999 -0.61748403 0.092216007
0.78930002 -0.61136699 0.087817013
0.794182 -0.62595904 0.081658982
0.78994596 -0.62292498 0.084660009
0.78800499 -0.61714298 0.085841
0.78995103 -0.610659 0.081136979
0.79414099 -0.62669802 0.075732015
0.79078597 -0.62298697 0.077957012
0.78703797 -0.61781001 0.080216989
0.790133 -0.61040598 0.074660011
0.79074097 -0.62857699 0.073720984
0.791466 -0.62338102 0.072524011
0.78746498 -0.61764401 0.073642023
0.791641 -0.60867196 0.068547986
0.79126799 -0.62711698 0.070342995
0.78937602 -0.62146097 0.070049986
0.78552598 -0.61652803 0.070408985
0.79515195 -0.60563201 0.063162014
0.58858103 -0.86164498 2.331713
0.58050704 -0.85901201 2.321943
0.57676703 -0.85456002 2.324203
0.574323 -0.84948099 2.3220129
0.59512901 -0.86429495 2.3249929
0.59170198 -0.86144501 2.324703
0.58543098 -0.85830706 2.313293
0.58198202 -0.85253304 2.317683
0.57967001 -0.84764504 2.3174229
0.57828301 -0.84270597 2.320653
0.59316003 -0.86444902 2.3085229
0.59027404 -0.86133498 2.3085229
0.58931804 -0.85731399 2.305753
0.58780998 -0.85180801 2.307543
0.58507901 -0.84577101 2.3127129
0.58470201 -0.840352 2.3186131
0.60374999 -0.86926699 2.296473
0.59638304 -0.86576301 2.290513
0.594432 -0.85979402 2.2996531
0.59296203 -0.854496 2.3014929
0.59268701 -0.84964597 2.300633
0.59093398 -0.84490502 2.303133
0.59234202 -0.83965701 2.3117831
0.60288697 -0.87312502 2.2816629
0.60125303 -0.86947995 2.2809529
0.59963399 -0.86484802 2.2842131
0.59972501 -0.85937202 2.288723
0.59795898 -0.85264802 2.294493
0.59816897 -0.84576899 2.298903
0.59776503 -0.84063303 2.303993
0.597525 -0.83750802 2.307173
0.61059797 -0.87729502 2.271693
0.60566199 -0.87380302 2.2701931
0.605802 -0.86847097 2.272383
0.60395902 -0.86276299 2.2792029
0.60520697 -0.85714602 2.2859528
0.60422999 -0.85249496 2.287653
0.60394299 -0.84636998 2.2927029
0.603544 -0.840801 2.3001029
0.60135102 -0.83669096 2.3041029
0.66120601 -0.99812698 2.282403
0.65923899 -0.99363101 2.2794929
0.65924698 -0.98861003 2.2814031
0.61909199 -0.88050401 2.267833
0.61278701 -0.877482 2.2616529
0.61155105 -0.87142998 2.2671731
0.60997003 -0.86688596 2.2677529
0.609963 -0.86174005 2.2717829
0.60831797 -0.85588896 2.2791429
0.61259401 -0.84834296 2.2921031
0.61490899 -0.84225601 2.304553
0.66162497 -1.00081 2.2739329
0.66093904 -0.99784106 2.273793
0.66074699 -0.99363601 2.273663
0.65936095 -0.98860002 2.2719228
0.65930295 -0.98506403 2.2743828
0.58224499 -0.94309801 2.142513
0.58230901 -0.938815 2.146143
0.58102798 -0.93512803 2.1446731
0.616961 -0.88191706 2.2503729
0.61780602 -0.87745595 2.254483
0.61727101 -0.87124097 2.2596428
0.61500001 -0.86500901 2.2644129
0.61429697 -0.85990798 2.266243
0.61527503 -0.85512102 2.2737031
0.61928004 -0.84378505 2.3016329
0.66585505 -1.00015 2.2693131
0.66433698 -0.99684799 2.2691031
0.66396004 -0.992127 2.266983
0.66381502 -0.98690498 2.266073
0.66296798 -0.98349899 2.268043
0.59155297 -0.95017302 2.1465931
0.589001 -0.94828498 2.1432531
0.58367598 -0.94496101 2.1360731
0.580468 -0.94026899 2.133203
0.58062196 -0.93564105 2.1376128
0.58061099 -0.93064201 2.1354229
0.62687403 -0.88516504 2.2488229
0.624138 -0.88029897 2.247673
0.62268102 -0.87405401 2.2518229
0.62256002 -0.868761 2.2551529
0.62152803 -0.86447603 2.2607729
0.62033296 -0.85859197 2.265183
0.61881 -0.85453695 2.266283
0.67020899 -0.99961698 2.261013
0.66970301 -0.99599504 2.2625129
0.67004895 -0.98974699 2.2612128
0.66799599 -0.98442596 2.2610331
0.66933298 -0.98119795 2.2661729
0.58766401 -0.94712603 2.133563
0.58560902 -0.94291002 2.1305029
0.58306402 -0.93911302 2.128073
0.58226895 -0.93456399 2.128813
0.582753 -0.92776495 2.1273031
0.58613497 -0.92300397 2.136873
0.58666098 -0.91838205 2.1366329
0.634736 -0.893112 2.237323
0.63286 -0.88927299 2.241693
0.62898803 -0.88544601 2.2380228
0.62974298 -0.879031 2.240073
0.62775004 -0.87353796 2.2457628
0.62655604 -0.86858398 2.250493
0.62578601 -0.86395895 2.253983
0.62945002 -0.85407501 2.2770431
0.67755097 -0.99795896 2.2580431
0.67597395 -0.99375099 2.256943
0.67711997 -0.989003 2.2595031
0.67432803 -0.98439795 2.2549629
0.67494398 -0.98032999 2.262573
0.60400504 -0.94121301 2.144613
0.59535998 -0.94050103 2.134793
0.58754903 -0.93752402 2.125443
0.58737099 -0.93158096 2.123843
0.588687 -0.92530799 2.1248829
0.58921003 -0.920371 2.131983
0.59525102 -0.91570097 2.143553
0.63985097 -0.89209396 2.2363529
0.63694102 -0.88898599 2.2354829
0.63525599 -0.88302904 2.233273
0.63469601 -0.87698901 2.2354829
0.63282102 -0.87258697 2.239363
0.63129699 -0.86758798 2.246423
0.63637799 -0.861826 2.2624428
0.68374395 -0.99692804 2.2503929
0.68263602 -0.99408501 2.2547028
0.68158698 -0.988864 2.2533529
0.68185896 -0.98289496 2.2498128
0.68060797 -0.979581 2.2552831
0.60288697 -0.93741995 2.136153
0.59438097 -0.93448997 2.1232629
0.59254199 -0.92889297 2.1206031
0.59549499 -0.92337698 2.1239328
0.59306401 -0.91966003 2.1259129
0.59465402 -0.91559303 2.129813
0.639018 -0.89119005 2.2212031
0.63903099 -0.88671899 2.224843
0.63922799 -0.882074 2.2275431
0.63827902 -0.87710601 2.227643
0.63738996 -0.87222999 2.2338531
0.63567799 -0.86865097 2.2361631
0.69036204 -0.996369 2.2447929
0.68724197 -0.99293703 2.247793
0.68706399 -0.98716497 2.2451129
0.68627799 -0.981538 2.242033
0.68746805 -0.97724402 2.2479331
0.604137 -0.93124998 2.127933
0.60100198 -0.92661399 2.122843
0.60130501 -0.92171997 2.1240029
0.60168302 -0.91720903 2.1275129
0.60882598 -0.911075 2.138063
0.64155406 -0.89051199 2.206883
0.64226604 -0.88632399 2.2150431
0.64316499 -0.880916 2.2228429
0.64158601 -0.87584198 2.2172129
0.64160502 -0.87141401 2.227423
0.69937599 -0.99695998 2.2426829
0.69381404 -0.99187106 2.2404029
0.691733 -0.98492897 2.236063
0.69188398 -0.97852498 2.239053
0.69413805 -0.97306001 2.242003
0.61445701 -0.92260802 2.131793
0.608913 -0.91939902 2.127073
0.61350602 -0.912678 2.134023
0.62342703 -0.90396202 2.150393
0.63665003 -0.89335501 2.1811929
0.64195502 -0.88664299 2.1991029
0.64429396 -0.8804 2.2105131
0.64512199 -0.87490898 2.2110229
0.64187598 -0.87158501 2.2094131
0.73523802 -1.04457 2.270623
0.73219299 -1.03658 2.2663629
0.72998399 -1.03012 2.2651229
0.72641295 -1.02417 2.2603631
0.72299403 -1.01729 2.256043
0.71793199 -1.01035 2.250463
0.708691 -1.00255 2.2397029
0.70259202 -0.99576205 2.2365029
0.69790101 -0.98936898 2.2312031
0.69954497 -0.98403096 2.2354829
0.69647497 -0.97915101 2.2319229
0.69522697 -0.97271597 2.2314129
0.69573301 -0.965514 2.2298629
0.69606596 -0.95875502 2.229003
0.63343698 -0.91745204 2.1466131
0.62405103 -0.914545 2.1379828
0.62639701 -0.90794504 2.1445329
0.63092798 -0.901775 2.1504731
0.63599402 -0.89532 2.1659129
0.64039701 -0.88860703 2.182143
0.64466399 -0.87996399 2.2001331
0.64099294 -0.87460798 2.1969728
0.64036596 -0.87131602 2.1982529
0.73455399 -1.0494 2.2622831
0.73224902 -1.0425 2.2559528
0.72993201 -1.03598 2.2542329
0.72748399 -1.02956 2.251673
0.72269601 -1.0217199 2.2456729
0.717677 -1.0147799 2.239573
0.714432 -1.0083799 2.2371931
0.71138495 -1.0029 2.229913
0.70902604 -0.99715698 2.232583
0.70341104 -0.99115896 2.225023
0.69822198 -0.98376501 2.217803
0.697833 -0.97582299 2.2207029
0.69641995 -0.96968299 2.2212129
0.69207001 -0.96453202 2.2107131
0.69148099 -0.95942497 2.2137129
0.689363 -0.95369101 2.2087128
0.68765295 -0.94612098 2.204803
0.68306804 -0.93926102 2.1991529
0.67906195 -0.93267196 2.196063
0.67583799 -0.92552298 2.1940529
0.67066002 -0.91973197 2.190093
0.65705198 -0.91536003 2.1707129
0.645841 -0.91061503 2.1587129
0.63522398 -0.90595496 2.1464431
0.63536704 -0.90071702 2.147963
0.63644403 -0.89639902 2.152823
0.63660097 -0.89223099 2.1587331
0.73888701 -1.05012 2.2573328
0.73642701 -1.0428901 2.2494831
0.73066497 -1.0353299 2.2421131
0.72957301 -1.02917 2.243223
0.72107595 -1.01696 2.231293
0.71217901 -1.00325 2.216893
0.70762902 -0.99605203 2.2140532
0.70332301 -0.98894399 2.211983
0.69993103 -0.98374903 2.2038729
0.696163 -0.97692299 2.1995931
0.69592905 -0.96965796 2.206723
0.693115 -0.96415901 2.1995029
0.69146401 -0.95811403 2.2009931
0.68767405 -0.95098603 2.1943929
0.68263197 -0.943973 2.187263
0.67924798 -0.93692499 2.1875031
0.67665702 -0.93069506 2.1868131
0.67205298 -0.925394 2.179913
0.66889298 -0.91967696 2.179553
0.66634804 -0.91395104 2.175473
0.65950894 -0.90880203 2.1662931
0.64848 -0.90435499 2.1541631
0.64209294 -0.89950502 2.1500731
0.63765502 -0.896415 2.1448829
0.73858297 -1.04804 2.2445631
0.70931703 -1.00142 2.199003
0.70400703 -0.99463302 2.1901531
0.70248103 -0.98874301 2.1961629
0.69778705 -0.98223299 2.1866729
0.69589597 -0.97562897 2.1824529
0.69410402 -0.96902001 2.1872129
0.69332296 -0.962071 2.189513
0.69206297 -0.95597196 2.1873329
0.691827 -0.94853896 2.1873128
0.68594599 -0.94382697 2.1821129
0.682558 -0.93907404 2.181843
0.67740798 -0.93121004 2.1805429
0.67359805 -0.92480904 2.175833
0.671808 -0.91767198 2.1753929
0.66672897 -0.91122299 2.1673329
0.66352999 -0.906937 2.1632531
0.66158795 -0.90278506 2.1637731
0.65113604 -0.89909303 2.1529131
0.70970297 -0.99944198 2.1872931
0.70399696 -0.99366599 2.1785629
0.70036298 -0.98759401 2.1777129
0.696558 -0.980286 2.1725929
0.69460404 -0.97530001 2.1701531
0.69585997 -0.96992993 2.1753929
0.69602603 -0.96202797 2.180203
0.699036 -0.953785 2.1845829
0.70203298 -0.94713801 2.188493
0.69458002 -0.94351405 2.1852729
0.671251 -0.91083503 2.169003
0.66758502 -0.905725 2.1643929
0.65685797 -0.90258402 2.1499031
0.71609199 -1.00122 2.1896429
0.71269202 -0.994914 2.1860731
0.70804101 -0.98872596 2.180783
0.70109397 -0.98214203 2.1722431
0.69820505 -0.97461998 2.1699429
0.69862098 -0.96667397 2.1734931
0.70429099 -0.958179 2.1840529
0.71594298 -0.94895899 2.199543
0.71748 -0.94452906 2.2028329
0.70816904 -0.94268203 2.1929231
0.73039496 -0.94611901 2.2135329
0.72723395 -0.94366598 2.2103329
0.71590698 -0.94197702 2.195343
0.64104497 -0.86639398 2.0911729
0.64332199 -0.86125898 2.0975831
0.64767998 -0.85400701 2.1073129
0.734393 -0.94264704 2.2145629
0.64621902 -0.86799896 2.0925829
0.647313 -0.86444199 2.0969629
0.64748496 -0.86013299 2.0981431
0.64657205 -0.85457301 2.098793
0.64459199 -0.84719902 2.0971029
0.647874 -0.83745694 2.1066229
0.64773905 -0.83028197 2.110713
0.65091795 -0.82431704 2.120183
0.65167201 -0.820925 2.1241229
0.64587098 -0.86779404 2.0860629
0.64929003 -0.862858 2.0927429
0.64776301 -0.85705 2.089993
0.64667201 -0.850932 2.090203
0.64461303 -0.84532404 2.0880029
0.64485902 -0.83922201 2.0925529
0.64688301 -0.83187699 2.1015329
0.64990997 -0.82542396 2.112083
0.64984494 -0.82172304 2.1153729
0.64565903 -0.85701895 2.078043
0.64501601 -0.85161597 2.0772431
0.644494 -0.84622496 2.078753
0.64321601 -0.83980596 2.0772929
0.64396799 -0.832946 2.083873
0.65116 -0.82603401 2.106113
0.65158403 -0.82187104 2.112103
0.64109004 -0.85228503 2.0639231
0.64187795 -0.84512901 2.064203
0.63716596 -0.83918601 2.0548129
0.63748199 -0.83447301 2.059973
0.63488996 -0.82805395 2.054383
0.63385898 -0.82275498 2.0535729
0.60312998 -0.86216199 1.971783
0.61469603 -0.85103899 1.994953
0.62634999 -0.84191597 2.0239031
0.63152403 -0.83384597 2.0377631
0.62988901 -0.827627 2.0358329
0.63062501 -0.82246697 2.040123
0.63569301 -0.81840301 2.0535331
0.60743099 -0.85460901 1.9725231
0.61735898 -0.84461504 1.994473
0.62410498 -0.83587402 2.011723
0.62821096 -0.828897 2.023613
0.627455 -0.82287806 2.0234931
0.62604403 -0.81618798 2.021013
0.63050497 -0.81008697 2.0289631
0.61198598 -0.87569702 1.9604629
0.60917199 -0.87076598 1.958233
0.60797501 -0.86429805 1.9584731
0.60776198 -0.85880798 1.962103
0.610811 -0.85290301 1.966913
0.61111099 -0.84700894 1.971513
0.61496603 -0.83822703 1.9817529
0.62500501 -0.82775497 2.0058329
0.62581903 -0.81975603 2.009923
0.62582403 -0.813667 2.0112128
0.62837702 -0.808676 2.0176129
0.62330896 -0.86583704 1.971023
0.62203002 -0.86067998 1.969673
0.61587602 -0.85559195 1.9634329
0.614066 -0.84921896 1.963143
0.61559302 -0.84237599 1.968823
0.61680502 -0.83602798 1.972303
0.620529 -0.82904404 1.983573
0.62327999 -0.82116997 1.993683
0.62525398 -0.81460702 2.001533
0.62561399 -0.80798894 2.0022929
0.63 -0.80130994 2.0116129
0.63071799 -0.85696197 1.9735531
0.62873697 -0.85213304 1.970903
0.62124598 -0.84775704 1.9625831
0.61671102 -0.84338701 1.9598329
0.616445 -0.83760697 1.961033
0.62054801 -0.82983804 1.9704629
0.62274396 -0.82128096 1.9780029
0.62501997 -0.81363195 1.989903
0.624093 -0.806391 1.987133
0.62884599 -0.79949898 2.0000231
0.63258803 -0.79465503 2.008713
0.64072305 -0.84756303 1.9771429
0.63658798 -0.84318 1.974473
0.62728 -0.83888495 1.965143
0.62495703 -0.83251101 1.965073
0.62579602 -0.82506698 1.966843
0.62471098 -0.81817901 1.9690731
0.62416196 -0.81191498 1.9749429
0.624304 -0.80461305 1.976683
0.62678397 -0.79832101 1.985513
0.62761396 -0.79330999 1.990163
0.70407897 -0.91214502 2.015553
0.70649099 -0.90721202 2.0235529
0.704126 -0.90264702 2.022733
0.706177 -0.89631796 2.0267329
0.70536304 -0.89014101 2.0266831
0.66121298 -0.84635198 1.988363
0.65726 -0.842987 1.9861231
0.64737505 -0.83962798 1.978483
0.64096904 -0.83556604 1.9742529
0.63555902 -0.828879 1.968033
0.62783301 -0.82345599 1.957883
0.62413603 -0.818569 1.9569529
0.62141103 -0.81298304 1.9575529
0.62228 -0.80595595 1.9628431
0.62337399 -0.79869002 1.968363
0.62558496 -0.79182601 1.976163
0.62799001 -0.78579694 1.9806529
0.70717001 -0.912521 2.012743
0.70536798 -0.90811801 2.014133
0.70673501 -0.902143 2.020833
0.70492697 -0.89661402 2.0179429
0.705091 -0.89037204 2.020283
0.70598394 -0.88321406 2.023253
0.70113701 -0.87539101 2.0167429
0.69996399 -0.86710501 2.0182829
0.69628799 -0.86033094 2.0167031
0.69511396 -0.85423797 2.0183029
0.68368101 -0.84995902 2.0053329
0.67006201 -0.84537101 1.993573
0.67036599 -0.83988899 1.9944029
0.66237503 -0.83523595 1.988573
0.65129095 -0.83080703 1.978013
0.64669901 -0.82445395 1.971963
0.63721901 -0.82101405 1.9617529
0.62909502 -0.81696403 1.9534529
0.62407202 -0.81220001 1.950163
0.620704 -0.80735201 1.9494729
0.61990398 -0.80025202 1.949533
0.62236804 -0.79197997 1.959933
0.62378001 -0.78614306 1.966243
0.62103999 -0.78126901 1.9602929
0.614384 -0.75682402 1.9622431
0.607261 -0.75648201 1.9517931
0.708215 -0.91228205 2.0081129
0.708314 -0.90801805 2.009783
0.70803803 -0.90120399 2.0135131
0.708067 -0.89338404 2.015563
0.70616204 -0.88654405 2.0156929
0.70209002 -0.880822 2.0116529
0.70318604 -0.87486196 2.0136631
0.70185202 -0.86854303 2.0139031
0.700526 -0.86143303 2.0154929
0.695131 -0.85409701 2.0107429
0.69102895 -0.84709501 2.008883
0.68076104 -0.843629 1.999853
0.68175298 -0.83735001 2.000973
0.67813301 -0.83082604 1.999123
0.66975898 -0.82663298 1.993953
0.66378599 -0.82073802 1.9873329
0.64952105 -0.81715602 1.9693229
0.63646001 -0.81420797 1.9539829
0.62950301 -0.81057298 1.9481729
0.62483501 -0.80500299 1.9443331
0.62045103 -0.79874605 1.9370731
0.62103003 -0.79157901 1.945333
0.62027198 -0.78556097 1.950933
0.61622 -0.78058296 1.943743
0.61390597 -0.77514398 1.9423329
0.61009699 -0.768152 1.940683
0.60972601 -0.76024002 1.947143
0.60850203 -0.75571096 1.9473829
0.60557002 -0.75284797 1.944633
0.71556997 -0.90681398 2.014843
0.71305496 -0.90189499 2.0133028
0.70924497 -0.89552301 2.010253
0.70860803 -0.88793099 2.0122929
0.70755404 -0.87958699 2.013763
0.705715 -0.87104201 2.011853
0.70627195 -0.86368299 2.014173
0.70247495 -0.85804498 2.0110731
0.70497596 -0.85143 2.014163
0.69832003 -0.84593999 2.0098732
0.69185096 -0.84018797 2.006393
0.69499201 -0.83138198 2.010973
0.69414496 -0.82421094 2.012553
0.68834001 -0.81895602 2.009613
0.69092202 -0.80993795 2.0133631
0.67406601 -0.80992299 1.9942529
0.647834 -0.80981696 1.961333
0.63294798 -0.80701202 1.9433029
0.62669301 -0.80203599 1.9369029
0.62362802 -0.79773301 1.9314929
0.61926901 -0.79223096 1.928683
0.617791 -0.78474098 1.9348731
0.61611801 -0.77748799 1.9352831
0.61259997 -0.77145106 1.9342129
0.61432201 -0.76403898 1.942963
0.61097503 -0.75930601 1.940513
0.61049497 -0.75315499 1.942283
0.61008298 -0.74960101 1.945533
0.71254402 -0.86227399 2.017323
0.70694101 -0.85649699 2.0098031
0.70927 -0.85035896 2.0133431
0.70614302 -0.84560698 2.0121529
0.70120698 -0.83663595 2.0103729
0.701424 -0.82872903 2.011513
0.70023596 -0.82367796 2.012893
0.69933802 -0.81655902 2.013983
0.69874799 -0.80874705 2.016783
0.69444501 -0.80396301 2.0132132
0.68768305 -0.80246496 2.0053129
0.63887501 -0.80335999 1.9401931
0.63132197 -0.80044699 1.933913
0.62499899 -0.79583704 1.924003
0.62180901 -0.78970301 1.9207629
0.61937302 -0.78526199 1.925063
0.61840999 -0.77900004 1.9270329
0.618321 -0.77170402 1.930913
0.61652803 -0.76428705 1.9349029
0.61593497 -0.75662696 1.9381931
0.614407 -0.751122 1.9389031
0.61086702 -0.74890703 1.938773
0.71738899 -0.84828699 2.021363
0.71070099 -0.82658404 2.0203528
0.70314497 -0.82199699 2.0111032
0.70252997 -0.81490195 2.0119631
0.70221001 -0.80756795 2.0142529
0.70134699 -0.80196798 2.0156829
0.69879895 -0.79851604 2.013293
0.64625502 -0.798563 1.938253
0.63528705 -0.79804605 1.928093
0.62872297 -0.79286104 1.9173731
0.62495703 -0.78683698 1.916443
0.621885 -0.78267801 1.9195329
0.62393796 -0.77509099 1.925313
0.62345701 -0.76818001 1.9292231
0.62173998 -0.76132399 1.9339031
0.61883199 -0.754022 1.9366429
0.61771703 -0.74952006 1.9387331
0.61497003 -0.74738199 1.937853
0.705401 -0.79941005 2.0159631
0.70099199 -0.79684097 2.010623
0.65012705 -0.796597 1.9341331
0.639543 -0.79604697 1.920983
0.62925798 -0.79275203 1.904633
0.62525702 -0.78712195 1.906093
0.62543201 -0.78037906 1.914453
0.62931901 -0.77183402 1.924493
0.63187599 -0.764745 1.934863
0.64715403 -0.79659796 1.920413
0.63870001 -0.79491204 1.9072529
0.62868899 -0.79227096 1.892363
0.625476 -0.78695899 1.8941431
0.62605304 -0.78038102 1.9021029
0.63639498 -0.76715106 1.932713
0.64606303 -0.79588801 1.905723
0.63624901 -0.794429 1.8929131
0.62782198 -0.79225194 1.8826829
0.62507701 -0.78739405 1.8811431
0.62449199 -0.78103995 1.8860831
0.62640101 -0.776384 1.8915131
0.65227205 -0.79377198 1.903953
0.64226502 -0.79350698 1.8909531
0.63161099 -0.79095298 1.878823
0.62752402 -0.78507596 1.8734931
0.62383598 -0.78102601 1.874683
0.62362802 -0.77603894 1.8757831
0.65190101 -0.79255998 1.8948531
0.64082605 -0.791623 1.879753
0.632523 -0.788571 1.8704131
0.62739801 -0.78453302 1.8620331
0.62539899 -0.77851301 1.866933
0.626252 -0.773283 1.871313
0.62246698 -0.77211797 1.8672031
0.64637494 -0.78948897 1.8790931
0.636886 -0.78767997 1.8658631
0.630714 -0.78400004 1.856343
0.62676501 -0.77888399 1.855103
0.62741798 -0.773278 1.864163
0.64562798 -0.78786397 1.867883
0.63637799 -0.78646797 1.8540629
0.63181996 -0.78210402 1.849143
0.62708497 -0.77811301 1.8446029
0.62511396 -0.774656 1.8460631
0.64548898 -0.78641099 1.8571631
0.63723701 -0.78495598 1.844803
0.63157701 -0.78053397 1.838683
0.62832904 -0.77614099 1.839233
0.62642896 -0.77342498 1.8357831
0.64352202 -0.78591299 1.8437829
0.63642699 -0.78382301 1.8328129
0.63222301 -0.78032702 1.830493
0.62750602 -0.77675003 1.8273829
0.61874199 -0.77507699 1.8144929
0.64311701 -0.78513098 1.832083
0.63683897 -0.78347802 1.822773
0.633479 -0.77963603 1.8240831
0.62472302 -0.77678102 1.8128731
0.60020304 -0.77800596 1.781763
0.63910401 -0.78335601 1.816113
0.63371301 -0.77992994 1.8123829
0.62446499 -0.777183 1.8012331
0.59067297 -0.778826 1.7596331
0.58318299 -0.77880597 1.751083
0.65088201 -0.78221703 1.820883
0.64149398 -0.78184199 1.8096631
0.63328201 -0.779338 1.8003931
0.62556303 -0.77728498 1.7903931
0.59730303 -0.77788597 1.7564631
0.59157801 -0.77674103 1.7519031
0.64898801 -0.78238702 1.8114231
0.64142901 -0.78095597 1.800603
0.63197601 -0.77849698 1.788833
0.61669999 -0.77743697 1.771203
0.60411704 -0.77625 1.757113
0.59483504 -0.77650803 1.746393
0.65231401 -0.78115797 1.810663
0.63653803 -0.78098196 1.7818531
0.627635 -0.77842003 1.775323
0.61811 -0.77643996 1.7642031
0.60818601 -0.77556998 1.7527431
0.65151101 -0.77993202 1.790403
0.64218599 -0.780357 1.778463
0.63227999 -0.77803397 1.770393
0.61922097 -0.77656001 1.7553531
0.61105502 -0.77589798 1.7461231
0.65227997 -0.780653 1.782563
0.64428002 -0.77958 1.772693
0.63182998 -0.77772599 1.7593631
0.62175399 -0.77664399 1.7482131
0.67174399 -0.77989304 1.7907131
0.65876502 -0.77999705 1.778783
0.64350897 -0.77973294 1.7616031
0.63200402 -0.77794999 1.749423
0.62460601 -0.77700502 1.7414931
0.66953903 -0.78089499 1.781293
0.65981501 -0.77997398 1.7704229
0.64330703 -0.779553 1.751893
0.635288 -0.77770895 1.743253
0.691809 -0.78648102 1.786783
0.68855399 -0.78348601 1.786643
0.671718 -0.78241801 1.771553
0.65766096 -0.78019601 1.7591929
0.64445996 -0.77939904 1.7435431
