# .PCD v0.7 - Point Cloud Data file format
VERSION 0.7
FIELDS x y z
SIZE 4 4 4
TYPE F F F
COUNT 1 1 1
WIDTH 142
HEIGHT 1
VIEWPOINT 0 0 0 1 0 0 0
POINTS 142
DATA ascii
1.1831501 -0.43564799 2.8234398
1.1860399 -0.39841899 2.7767501
1.17981 -0.42487702 2.8235002
1.1811299 -0.43592799 2.8347399
1.18432 -0.44819698 2.8361402
1.1801699 -0.40604901 2.7924201
1.17871 -0.43950999 2.8143799
1.18645 -0.46763802 2.8332
1.18107 -0.44725299 2.8198998
1.17933 -0.451913 2.81552
1.18515 -0.44403401 2.8086998
1.18094 -0.43245801 2.7928202
1.1805999 -0.42373902 2.7888401
1.1850801 -0.40626299 2.7865
1.19363 -0.43571898 2.7955101
1.18616 -0.42635602 2.7868202
1.1781501 -0.40482602 2.766
1.17171 -0.46402001 2.83182
1.17362 -0.44723701 2.8263299
1.17387 -0.45634997 2.8224201
1.18188 -0.459209 2.8220301
1.17888 -0.44884601 2.8151002
1.17546 -0.43836898 2.8091102
1.18655 -0.41277999 2.7950101
1.1791101 -0.434095 2.79477
1.18622 -0.40538898 2.7862301
1.18308 -0.42507499 2.7834899
1.18247 -0.42393798 2.77582
1.18372 -0.417382 2.7736199
1.17865 -0.40446898 2.7654102
1.18608 -0.39115897 2.7620902
1.1936799 -0.424766 2.7792699
1.17291 -0.44663101 2.8287101
1.18311 -0.44651401 2.8353701
1.17233 -0.459584 2.8270402
1.17809 -0.46146402 2.82301
1.17191 -0.45087701 2.8151002
1.1712201 -0.44075501 2.8088
1.176 -0.45237201 2.8109798
1.17214 -0.44130298 2.8029902
1.17662 -0.44234797 2.7999201
1.1763999 -0.43201101 2.7943301
1.17698 -0.420055 2.7874398
1.18337 -0.43710202 2.79548
1.18648 -0.39999598 2.7760501
1.1698201 -0.444047 2.82479
1.17177 -0.46036899 2.8241203
1.1691101 -0.45092899 2.8206398
1.17914 -0.46534199 2.8227801
1.1708699 -0.45231 2.8134301
1.1703399 -0.44265401 2.80972
1.17598 -0.454184 2.8106298
1.17237 -0.44109797 2.8021302
1.1711 -0.403115 2.77279
1.1663201 -0.461876 2.8271101
1.1610199 -0.45096698 2.8204901
1.16381 -0.44897899 2.8129199
1.1657701 -0.423969 2.79006
1.1759601 -0.401779 2.7836301
1.1614801 -0.415892 2.7854502
1.15961 -0.406427 2.7769401
1.17686 -0.45660001 2.83656
1.1884201 -0.45728001 2.83781
1.1683999 -0.44870701 2.8253701
1.1733899 -0.44470701 2.82025
1.17365 -0.44306302 2.8126402
1.1801699 -0.440014 2.8122501
1.18029 -0.45383498 2.83303
1.1724501 -0.446623 2.8294299
1.17091 -0.44490799 2.8204501
1.17749 -0.44780999 2.81639
1.1763901 -0.44266602 2.8185
1.18628 -0.44154999 2.81387
1.1783201 -0.43911201 2.8116801
1.17761 -0.42340302 2.8148599
1.18661 -0.43493 2.80862
1.17857 -0.41836601 2.7836599
1.1895601 -0.418825 2.7857599
1.18021 -0.400619 2.7653601
1.17356 -0.44764701 2.8429599
1.17779 -0.44264901 2.84863
1.17181 -0.44720402 2.8334799
1.17109 -0.44676799 2.82599
1.17507 -0.44395199 2.8223102
1.17546 -0.42983201 2.8247602
1.17854 -0.42179298 2.8267601
1.1753299 -0.42786098 2.8178
1.17778 -0.41989699 2.8137302
1.17954 -0.415499 2.80583
1.18687 -0.40896598 2.7903602
1.17942 -0.39911997 2.78689
1.17311 -0.45593399 2.8345599
1.1747 -0.45422 2.8219399
1.1860601 -0.45725301 2.8242402
1.1833999 -0.45256698 2.8216202
1.1893001 -0.45561099 2.82166
1.1779699 -0.43723899 2.8120999
1.18608 -0.43559602 2.8118601
1.18725 -0.432037 2.8049803
1.18108 -0.413726 2.8022001
1.1859 -0.42489898 2.7972698
1.18169 -0.39899501 2.7818201
1.18163 -0.39341301 2.7759302
1.17094 -0.45204699 2.8347502
1.17905 -0.46057302 2.82833
1.17135 -0.456159 2.8211701
1.18168 -0.46057999 2.8226502
1.18011 -0.45611301 2.82072
1.1717501 -0.44906601 2.8156099
1.18407 -0.45938599 2.81867
1.1860501 -0.454961 2.8194501
1.18059 -0.448663 2.8143601
1.17259 -0.44207802 2.8091202
1.18576 -0.45311299 2.81479
1.18796 -0.44463298 2.8137
1.1773 -0.43904701 2.8048401
1.18735 -0.435323 2.8051002
1.18853 -0.43169498 2.7983201
1.1528 -0.41297299 2.76599
1.16685 -0.41050202 2.7726102
1.18057 -0.41016701 2.7679102
1.18866 -0.40665999 2.7684302
1.1935 -0.443685 2.84042
1.19019 -0.437664 2.8308201
1.19148 -0.449669 2.8213301
1.1895 -0.43414399 2.8130403
1.19933 -0.395248 2.7875102
1.17968 -0.442 2.8443999
1.17998 -0.42100498 2.8119299
1.1793599 -0.40526101 2.7904599
1.17663 -0.394678 2.7809799
1.1929001 -0.43797901 2.84582
1.19058 -0.42951 2.82125
1.1925 -0.43196702 2.8308702
1.1796399 -0.409114 2.7938001
1.18107 -0.39632401 2.77721
1.1898999 -0.44510502 2.8406501
1.19449 -0.42991298 2.82497
1.19538 -0.41424197 2.8149803
1.1938701 -0.42293203 2.8136401
1.1731 -0.44468498 2.8475201
1.1883399 -0.39905497 2.77107
