# .PCD v0.7 - Point Cloud Data file format
VERSION 0.7
FIELDS x y z
SIZE 4 4 4
TYPE F F F
COUNT 1 1 1
WIDTH 823
HEIGHT 1
VIEWPOINT 0 0 0 1 0 0 0
POINTS 823
DATA ascii
1.17107 -0.411084 1.98481
1.17489 -0.44851798 1.93827
1.19069 -0.46541598 1.94408
1.18809 -0.42803398 1.9336801
1.20795 -0.42539901 1.93758
1.1652 -0.398931 1.9918
1.1738501 -0.38828301 1.99862
1.1641201 -0.41891399 1.9907901
1.16729 -0.39942199 1.98611
1.16865 -0.39175901 1.98409
1.1736 -0.394274 1.9779401
1.171 -0.41456401 1.9731101
1.17492 -0.42690498 1.9437399
1.1699901 -0.44217801 1.9326001
1.17064 -0.44375199 1.9232901
1.17755 -0.429019 1.925
1.1735801 -0.452986 1.9214101
1.17474 -0.43751898 1.91716
1.17286 -0.44919801 1.9061801
1.18615 -0.43238899 1.90504
1.16426 -0.39239201 2.0001099
1.15706 -0.41690201 1.99738
1.1710601 -0.388969 1.9946702
1.15574 -0.41714698 1.98484
1.16817 -0.396357 1.9822601
1.1632199 -0.42340198 1.9837101
1.16563 -0.40566003 1.9768301
1.1692901 -0.39766899 1.9742999
1.16232 -0.42404997 1.9730301
1.16282 -0.425881 1.9635201
1.16663 -0.41863301 1.9600601
1.1639299 -0.42763698 1.9548001
1.16795 -0.42110699 1.9526001
1.1663899 -0.428554 1.9460502
1.1712201 -0.420679 1.94718
1.16751 -0.43181401 1.9375701
1.17357 -0.42334899 1.93905
1.17501 -0.45363399 1.9402701
1.16824 -0.441208 1.93208
1.17015 -0.45112899 1.92959
1.1670899 -0.44324502 1.9211402
1.17147 -0.43365398 1.9227301
1.18047 -0.42567298 1.92488
1.1685901 -0.452086 1.9199899
1.17258 -0.43927503 1.91468
1.16776 -0.46409699 1.9086701
1.16978 -0.45582598 1.91149
1.1997 -0.42587897 1.91962
1.16821 -0.47662103 1.90414
1.17417 -0.472417 1.9090701
1.16956 -0.459692 1.90294
1.17337 -0.44930303 1.8998401
1.17097 -0.47911099 1.90132
1.17075 -0.47219002 1.89948
1.1618 -0.39775601 1.9985501
1.1688501 -0.39122599 1.99921
1.16229 -0.39847198 1.99069
1.1782 -0.37747398 1.9902899
1.15789 -0.40851897 1.9783301
1.16355 -0.399122 1.97909
1.1705899 -0.38964 1.9805901
1.15818 -0.41701499 1.9736
1.1619 -0.40969798 1.97177
1.1597 -0.42788699 1.96814
1.15966 -0.41898701 1.9653101
1.1620899 -0.41133597 1.96369
1.16284 -0.42620099 1.9610801
1.16706 -0.416704 1.9599301
1.1657599 -0.42634103 1.9527899
1.17239 -0.419835 1.9430901
1.16853 -0.43729699 1.9366299
1.17001 -0.43076301 1.93817
1.1753601 -0.42286599 1.93741
1.18575 -0.41515598 1.9373599
1.181 -0.42311299 1.9296401
1.174 -0.45760399 1.9274601
1.1686 -0.44424 1.9176199
1.22981 -0.40614799 1.93893
1.16298 -0.458588 1.9125202
1.1708 -0.44735599 1.91142
1.18415 -0.42880002 1.91508
1.1991 -0.42356098 1.92085
1.16377 -0.461712 1.90466
1.16768 -0.456377 1.90754
1.17093 -0.46831903 1.90326
1.17971 -0.43920201 1.89619
1.17275 -0.38265702 2.00051
1.16336 -0.39591703 1.9925799
1.15804 -0.40625802 1.97875
1.1629599 -0.39538899 1.9797
1.15763 -0.41939899 1.97638
1.15985 -0.40967399 1.9703602
1.17177 -0.39270601 1.97455
1.15933 -0.42380199 1.9684
1.1621499 -0.412808 1.96522
1.1612899 -0.429241 1.9619
1.1651599 -0.416697 1.9596801
1.16399 -0.428619 1.9531701
1.16705 -0.41521302 1.9499899
1.17322 -0.40977901 1.9485401
1.17018 -0.41904899 1.94225
1.17691 -0.41073897 1.9434601
1.16636 -0.42941299 1.9332401
1.17625 -0.42177299 1.93556
1.15817 -0.446302 1.9291101
1.1674 -0.43130001 1.9243201
1.1557 -0.44533199 1.91478
1.17432 -0.427587 1.9174
1.22307 -0.40492901 1.9330601
1.15737 -0.44823101 1.90645
1.16354 -0.443773 1.91081
1.23131 -0.40711799 1.93024
1.16382 -0.455331 1.9053
1.1610399 -0.44509202 1.8990899
1.179 -0.42856702 1.89803
1.18832 -0.42276999 1.9044101
1.21472 -0.37833899 1.9933701
1.24331 -0.39029703 1.94862
1.18264 -0.37653801 1.9678
1.20388 -0.38377601 1.9561
1.1889499 -0.38111499 1.9574499
1.20403 -0.38516101 1.9473001
1.1972799 -0.39130902 1.94392
1.22458 -0.40069699 1.92472
1.23409 -0.40815899 1.91971
1.23774 -0.41889 1.9178799
1.20637 -0.40018001 1.9269201
1.23044 -0.41005403 1.9125601
1.23403 -0.421161 1.9116101
1.2363 -0.43144 1.9137
1.22384 -0.413394 1.90827
1.23347 -0.42260501 1.9007001
1.23511 -0.43316501 1.9053501
1.21394 -0.383293 1.98632
1.22419 -0.39041197 1.98203
1.19925 -0.37704602 1.9863101
1.18738 -0.37611598 1.9851199
1.2247599 -0.39146399 1.95689
1.18856 -0.37689 1.9709899
1.19804 -0.381363 1.96504
1.1789601 -0.382429 1.9692501
1.19048 -0.383513 1.96053
1.20428 -0.38869801 1.9526801
1.22463 -0.40257198 1.93714
1.1968 -0.39153999 1.94802
1.2103701 -0.39740798 1.94041
1.22892 -0.41075099 1.92856
1.19206 -0.39671201 1.94362
1.2261599 -0.41469002 1.91983
1.2362599 -0.42127201 1.9126199
1.22484 -0.416554 1.9095199
1.23102 -0.42556098 1.9084799
1.2331901 -0.43562901 1.89897
1.23922 -0.44124299 1.8954401
1.22202 -0.39687401 1.99763
1.20206 -0.37637401 2.0018301
1.21741 -0.39175799 1.9915299
1.19463 -0.37632197 1.99942
1.20739 -0.384509 1.989
1.2179799 -0.39229402 1.97858
1.2202801 -0.39989799 1.97947
1.20867 -0.38534901 1.97498
1.22803 -0.39930001 1.96237
1.21856 -0.39342999 1.9586
1.20224 -0.38123101 1.9563
1.19172 -0.385057 1.9536
1.20181 -0.38807598 1.94879
1.18405 -0.38904998 1.95179
1.1929001 -0.390398 1.9465201
1.22877 -0.41315299 1.92084
1.2398 -0.41774699 1.91194
1.19143 -0.394921 1.9389402
1.20515 -0.40029201 1.92711
1.23364 -0.41854501 1.9083802
1.23895 -0.42395902 1.90528
1.18255 -0.40034199 1.93964
1.21035 -0.408564 1.9153202
1.22403 -0.41533601 1.90523
1.23352 -0.42092702 1.8997
1.23488 -0.426613 1.89737
1.20816 -0.41027099 1.9062101
1.19981 -0.38296601 1.9621701
1.19507 -0.385169 1.95603
1.20056 -0.38887 1.95163
1.20577 -0.39387599 1.9473801
1.19565 -0.39227501 1.9475101
1.20417 -0.39651901 1.93891
1.20292 -0.399151 1.9301699
1.2022799 -0.401894 1.92085
1.2092199 -0.40453899 1.91537
1.20292 -0.404441 1.9120899
1.21014 -0.40679902 1.90556
1.2150199 -0.41089401 1.8986
1.20919 -0.409641 1.89546
1.22822 -0.43708801 1.9008501
1.16557 -0.39489201 2.0008001
1.1669899 -0.39561999 1.9965301
1.16545 -0.39546099 1.9917401
1.16474 -0.39638999 1.98527
1.16668 -0.39933398 1.98009
1.1672699 -0.40466598 1.9757901
1.16488 -0.39751399 1.97569
1.1721901 -0.36118302 1.97401
1.16405 -0.40461102 1.96521
1.16987 -0.40942401 1.9593401
1.17338 -0.38449201 1.96076
1.17698 -0.38970003 1.94918
1.18753 -0.391545 1.9439101
1.17281 -0.42116797 1.94012
1.17897 -0.396189 1.93994
1.19908 -0.394052 1.9401001
1.1680501 -0.42502102 1.9348199
1.1869301 -0.39752901 1.9352301
1.20689 -0.39355099 1.93607
1.16986 -0.42587298 1.92985
1.1950001 -0.39822701 1.9307102
1.2075499 -0.39455101 1.93155
1.17972 -0.430031 1.92559
1.1898 -0.400895 1.9256601
1.20612 -0.39581698 1.9274499
1.1743901 -0.42817199 1.9204299
1.19672 -0.40159303 1.92197
1.21717 -0.398821 1.9250201
1.17032 -0.41335401 1.9036599
1.17216 -0.43737802 1.89856
1.1619999 -0.393857 2.00089
1.15707 -0.379237 1.9928201
1.16643 -0.37098899 1.98778
1.1827201 -0.36046699 1.9831601
1.21614 -0.44623297 1.98149
1.18171 -0.35978299 1.9736999
1.18628 -0.35627601 1.9740801
1.16704 -0.404511 1.9667701
1.17071 -0.384572 1.9662601
1.16623 -0.40210497 1.9614301
1.17013 -0.392019 1.9619299
1.1717501 -0.384745 1.9621
1.17865 -0.38107899 1.9632502
1.17029 -0.419076 1.95847
1.16816 -0.41199699 1.9581399
1.1708599 -0.39567602 1.9561402
1.17814 -0.38872397 1.9583501
1.16082 -0.41437 1.9521701
1.18863 -0.39418998 1.9527
1.1733201 -0.420551 1.9406799
1.19625 -0.396997 1.94146
1.17348 -0.42152199 1.93559
1.1963 -0.397989 1.9355999
1.20435 -0.39985001 1.9313102
1.18355 -0.39950001 1.92574
1.20846 -0.400913 1.9268401
1.16627 -0.403658 1.9188501
1.23427 -0.40083697 1.92628
1.16713 -0.40598801 1.9138299
1.17505 -0.43303201 1.90865
1.17257 -0.43196097 1.9040701
1.15651 -0.368527 2.0029402
1.16089 -0.396043 1.9989401
1.1567 -0.37142301 1.99731
1.1519101 -0.377794 1.9902201
1.15284 -0.37483299 1.98544
1.15453 -0.37762502 1.9797299
1.1571801 -0.38099203 1.9740701
1.1639199 -0.40277401 1.97018
1.17844 -0.37622502 1.9662201
1.16537 -0.37949502 1.95886
1.1634899 -0.38671502 1.9535501
1.1653 -0.38900003 1.94716
1.18109 -0.38748401 1.94541
1.1717299 -0.418942 1.9426001
1.16408 -0.39712399 1.94241
1.18859 -0.390284 1.94078
1.19662 -0.39184397 1.9360901
1.16714 -0.39840698 1.9300901
1.18151 -0.39439401 1.9299701
1.1963201 -0.39281398 1.93119
1.18107 -0.39557597 1.92511
1.1936001 -0.39299598 1.92629
1.16706 -0.40053099 1.9200602
1.1806999 -0.39791501 1.92048
1.19877 -0.39771998 1.9215
1.16956 -0.402592 1.9149899
1.16749 -0.436535 1.9086701
1.16737 -0.41307598 1.9061301
1.16466 -0.412034 1.90069
1.1961499 -0.413064 1.8949701
1.15045 -0.371333 2.00192
1.1603299 -0.36875302 2.00108
1.14684 -0.37746498 1.9962399
1.15451 -0.37381801 1.99595
1.16137 -0.36758998 1.9953601
1.14759 -0.378411 1.9906501
1.15584 -0.37451303 1.98948
1.15359 -0.37561101 1.9834601
1.15127 -0.38113299 1.97852
1.15406 -0.385548 1.9721302
1.15423 -0.36253798 1.9724499
1.15555 -0.35837001 1.97061
1.15461 -0.38547501 1.96597
1.15707 -0.37770501 1.9670001
1.1547799 -0.36514801 1.96753
1.15569 -0.38738799 1.96086
1.1571499 -0.37963799 1.9618801
1.16044 -0.39241001 1.9546701
1.1646 -0.39491099 1.94796
1.18734 -0.38737899 1.94853
1.17048 -0.41651002 1.9447501
1.16329 -0.39256901 1.94207
1.2053 -0.39312801 1.9441
1.16522 -0.396409 1.9370301
1.19362 -0.38988301 1.93875
1.16553 -0.39873698 1.9309601
1.18645 -0.389485 1.9325202
1.16459 -0.39707902 1.92591
1.19055 -0.390313 1.9269201
1.20639 -0.38946399 1.9286801
1.16822 -0.39931402 1.92134
1.19181 -0.393206 1.92181
1.1604 -0.40594199 1.91205
1.16853 -0.400089 1.91503
1.15957 -0.40579602 1.90719
1.16391 -0.40990201 1.9019501
1.15573 -0.36868998 2.0010002
1.15415 -0.37305599 1.9956
1.1577801 -0.37630501 1.98878
1.16456 -0.403294 1.9863
1.1550599 -0.373647 1.98221
1.1564499 -0.374051 1.97653
1.16056 -0.366436 1.9762601
1.1567199 -0.38850498 1.9653201
1.16062 -0.38120401 1.9632699
1.18081 -0.377065 1.9649301
1.15881 -0.39015302 1.9578202
1.15828 -0.39068198 1.9514401
1.1804299 -0.38656101 1.9520801
1.16618 -0.39625701 1.94547
1.18077 -0.39359799 1.9456
1.20082 -0.39518699 1.94541
1.16254 -0.39385799 1.9390601
1.2004399 -0.396207 1.93998
1.1649899 -0.39553699 1.9336901
1.17959 -0.396007 1.9315801
1.19341 -0.39331001 1.9329699
1.1707599 -0.44216201 1.9260299
1.16624 -0.39732498 1.92653
1.1805 -0.39747399 1.92653
1.1899099 -0.394077 1.92667
1.21093 -0.39656398 1.92811
1.16968 -0.43175498 1.9208301
1.16555 -0.402962 1.91998
1.19862 -0.39873001 1.92194
1.1670899 -0.40183899 1.9141101
1.18446 -0.40068501 1.9161301
1.2068 -0.40454701 1.91891
1.1691101 -0.44601399 1.90126
1.1582 -0.40961897 1.90047
1.16029 -0.41349497 1.8942401
1.14957 -0.38203701 1.9723902
1.17115 -0.378647 1.9705499
1.15178 -0.380485 1.9691101
1.18573 -0.38362998 1.9628799
1.18734 -0.382994 1.9545801
1.19616 -0.38935798 1.9533099
1.21594 -0.398862 1.9497701
1.18881 -0.385849 1.9452499
1.19433 -0.38889599 1.9468302
1.20515 -0.39428002 1.94461
1.18659 -0.38832 1.9380001
1.1972899 -0.38987201 1.93866
1.21006 -0.39635301 1.9361999
1.2232499 -0.40497699 1.9327701
1.1920099 -0.39171299 1.93232
1.20057 -0.39821899 1.93047
1.19428 -0.39433497 1.92445
1.2044799 -0.40056098 1.92242
1.18752 -0.40074101 1.9154601
1.19771 -0.40200803 1.9166
1.20639 -0.408865 1.91459
1.19671 -0.404291 1.9085699
1.2060399 -0.40945801 1.9064401
1.1747299 -0.410393 1.9022299
1.19029 -0.407695 1.9014801
1.20069 -0.41033402 1.9014401
1.1984 -0.413214 1.89448
1.19046 -0.372511 1.9723001
1.18434 -0.374118 1.96746
1.1834999 -0.37529999 1.9621301
1.19574 -0.38391799 1.95901
1.19245 -0.38313201 1.95443
1.2049099 -0.39249298 1.94403
1.2125599 -0.39681 1.9417701
1.20576 -0.39611501 1.93431
1.2014 -0.39845699 1.9268701
1.1971099 -0.39965001 1.92028
1.2058101 -0.40291801 1.9209399
1.19681 -0.39918399 1.91442
1.19949 -0.405168 1.9138299
1.19004 -0.40368301 1.9089501
1.2034301 -0.402859 1.90741
1.19139 -0.40461898 1.9023801
1.1996601 -0.40592 1.90229
1.20654 -0.41166699 1.89906
1.1971 -0.40959203 1.8947001
1.20417 -0.38424501 1.98427
1.1945601 -0.37194198 1.9777
1.19365 -0.373427 1.9715101
1.20689 -0.38222501 1.9704001
1.18287 -0.37776199 1.9601001
1.19926 -0.38025901 1.9583501
1.1843801 -0.37865102 1.9545101
1.19519 -0.38260898 1.9519401
1.1888601 -0.38804799 1.9469399
1.20513 -0.39045298 1.94318
1.206 -0.392728 1.93638
1.20426 -0.39689299 1.92836
1.2127 -0.39881501 1.92922
1.20173 -0.39876401 1.9224499
1.20987 -0.40260699 1.9225
1.1910399 -0.40270802 1.9198101
1.20737 -0.40317002 1.9169
1.21349 -0.40509799 1.9082401
1.2112499 -0.40706599 1.90046
1.21793 -0.410768 1.9021801
1.20446 -0.40995097 1.8935901
1.21315 -0.41338199 1.89535
1.19218 -0.395069 1.9411099
1.2061599 -0.39565602 1.93914
1.20752 -0.39645499 1.9352601
1.21224 -0.40138599 1.93448
1.20024 -0.399638 1.9292101
1.19125 -0.403317 1.92354
1.2027401 -0.377076 2.00018
1.20499 -0.380916 1.99383
1.20944 -0.38535598 1.97781
1.21377 -0.385932 1.9721302
1.2263 -0.39437801 1.9585
1.22207 -0.40059298 1.9341501
1.21157 -0.40349999 1.9204601
1.20382 -0.40597197 1.9147
1.19625 -0.40807 1.9089199
1.19129 -0.40974 1.90391
1.20674 -0.41266102 1.8963901
1.15923 -0.39901599 1.9945199
1.1443499 -0.436591 1.9792401
1.16519 -0.394252 1.98927
1.1773601 -0.378638 1.99194
1.1546 -0.43509603 1.97741
1.15659 -0.416179 1.97991
1.16248 -0.42127401 1.97577
1.1620899 -0.40130901 1.9757901
1.17787 -0.372345 1.98054
1.16422 -0.408503 1.97141
1.16651 -0.396669 1.9715201
1.1664 -0.40940398 1.96573
1.16901 -0.39464599 1.96621
1.16836 -0.40681499 1.95998
1.1699901 -0.39345798 1.96184
1.17088 -0.38345799 1.96367
1.16987 -0.41710898 1.9534301
1.16664 -0.42445701 1.9466901
1.16956 -0.41350499 1.9489999
1.16804 -0.42354301 1.9422901
1.1707599 -0.43091899 1.9330601
1.16671 -0.42669401 1.9356799
1.1725399 -0.42923 1.9276601
1.16959 -0.42559502 1.92951
1.17003 -0.43342099 1.92216
1.1727201 -0.439623 1.91563
1.17268 -0.42858502 1.91702
1.17039 -0.44161099 1.9103301
1.1731501 -0.44019002 1.90584
1.17413 -0.42958599 1.90442
1.1717601 -0.441688 1.8997501
1.1944699 -0.41196302 1.89692
1.19239 -0.40955299 1.89766
1.1973799 -0.40948799 1.89496
1.17018 -0.389687 2.00209
1.16431 -0.40428102 1.99406
1.1657801 -0.40573102 1.9868702
1.16493 -0.40298599 1.9805301
1.1860501 -0.42620799 1.9786501
1.16456 -0.40365002 1.9756501
1.1645401 -0.41350299 1.9707299
1.1633999 -0.403826 1.97027
1.16494 -0.40969101 1.96543
1.16681 -0.39897701 1.9668601
1.1811299 -0.37669799 1.9678
1.1643801 -0.41440299 1.95972
1.1688401 -0.399872 1.9615701
1.17969 -0.38318902 1.9634
1.18451 -0.373512 1.96486
1.1697299 -0.420701 1.95386
1.16813 -0.40981302 1.95569
1.17281 -0.41881001 1.94753
1.17248 -0.41963902 1.9427201
1.17285 -0.41101199 1.94333
1.1812999 -0.40012199 1.9386001
1.17611 -0.41778401 1.93216
1.19179 -0.39967 1.93371
1.1919399 -0.39274502 1.93522
1.17662 -0.42615899 1.9271899
1.1997399 -0.39135399 1.9329901
1.17471 -0.42903802 1.9208599
1.17599 -0.431934 1.9147201
1.18285 -0.42090902 1.90904
1.17538 -0.43054 1.9037701
1.1851001 -0.42039099 1.90434
1.17752 -0.43146598 1.89869
1.17786 -0.44026101 1.89345
1.17126 -0.380849 1.9979001
1.1694599 -0.39831799 1.99137
1.1676999 -0.38895902 1.99254
1.19266 -0.41026199 1.9879601
1.16892 -0.39641899 1.98586
1.16658 -0.39525601 1.9800601
1.18051 -0.41825801 1.97472
1.16942 -0.39795199 1.97543
1.17521 -0.41415298 1.9693302
1.17186 -0.39568999 1.9646001
1.16852 -0.382184 1.96518
1.17483 -0.42313701 1.95802
1.17239 -0.403079 1.9596499
1.17378 -0.39297298 1.96121
1.17643 -0.38472998 1.9622601
1.1743 -0.37936699 1.96293
1.1749099 -0.42132598 1.9527701
1.16845 -0.41660401 1.9528601
1.1712899 -0.40749198 1.954
1.1733999 -0.39714599 1.95564
1.17581 -0.42150602 1.94824
1.17293 -0.405577 1.9498001
1.18349 -0.39632902 1.95079
1.17478 -0.421931 1.9437702
1.17372 -0.41537499 1.94258
1.1755 -0.41297901 1.9380499
1.1798201 -0.42015898 1.9324899
1.1757801 -0.40958899 1.9331501
1.18075 -0.42551398 1.9255301
1.18093 -0.42611599 1.91651
1.18581 -0.42423499 1.91278
1.18804 -0.42119998 1.9054401
1.2082599 -0.412902 1.8960501
1.21234 -0.41135103 1.8930701
1.1689601 -0.39235902 2.0015299
1.16926 -0.38457698 2.0005801
1.16611 -0.40207601 1.9926901
1.16904 -0.385993 1.99528
1.1654201 -0.40204102 1.98728
1.16636 -0.39375198 1.9899499
1.17513 -0.41250598 1.98403
1.1643699 -0.402547 1.98314
1.16546 -0.39409801 1.9834601
1.17309 -0.41327202 1.97841
1.1663201 -0.40214401 1.9794
1.16536 -0.39516997 1.978
1.16615 -0.387135 1.9783701
1.16873 -0.392214 1.97367
1.1739601 -0.377139 1.97366
1.1691101 -0.399766 1.96793
1.1733999 -0.38097098 1.97007
1.18097 -0.37466499 1.96953
1.17038 -0.40026599 1.9636
1.17273 -0.39245701 1.96421
1.19069 -0.37219501 1.9656
1.17554 -0.40849701 1.9583801
1.17309 -0.39994201 1.9599701
1.19323 -0.37654099 1.96211
1.17327 -0.41178399 1.9527701
1.1766 -0.408755 1.94858
1.1791 -0.400392 1.9491
1.1783 -0.40786499 1.9439801
1.18524 -0.43205601 1.9377201
1.2013 -0.44238299 1.93107
1.1852 -0.43341702 1.9325202
1.17943 -0.42778501 1.92642
1.18152 -0.41865298 1.9281501
1.18135 -0.42584598 1.91822
1.17567 -0.444462 1.9009601
1.17434 -0.43776599 1.9012201
1.17654 -0.43105 1.9013001
1.17696 -0.436667 1.8972299
1.1617 -0.39857498 2.00249
1.16567 -0.39029899 2.0040801
1.16572 -0.397946 1.99834
1.1720099 -0.38436002 2.0003099
1.1649899 -0.397306 1.9922
1.1681 -0.39840499 1.9871401
1.16864 -0.39736998 1.9816101
1.16844 -0.389485 1.9828202
1.1710601 -0.39650699 1.9780301
1.16733 -0.396413 1.9734399
1.17958 -0.41509101 1.9686301
1.16676 -0.405211 1.96666
1.17172 -0.41319001 1.9627099
1.1739601 -0.41341001 1.95798
1.1743699 -0.387716 1.95969
1.18527 -0.377756 1.9618801
1.17144 -0.40479401 1.9539801
1.18115 -0.388017 1.9553
1.17094 -0.41451699 1.9473701
1.17469 -0.40620098 1.9482001
1.17688 -0.39672402 1.9504901
1.18198 -0.391417 1.9493401
1.17538 -0.41382802 1.9433099
1.1724401 -0.40618598 1.94373
1.1895 -0.39169201 1.9457
1.17448 -0.414103 1.93761
1.18255 -0.39896703 1.94112
1.17518 -0.408324 1.9344101
1.18786 -0.43694001 1.9231201
1.17761 -0.421839 1.9241101
1.1766601 -0.43086201 1.91436
1.17528 -0.44024101 1.9018101
1.17836 -0.43180001 1.9045199
1.17353 -0.44626999 1.89766
1.17483 -0.43324903 1.8987
1.17318 -0.43986198 1.89362
1.23291 -0.413537 2.0022299
1.23276 -0.41993099 2.00143
1.23491 -0.40756598 1.9958501
1.2355599 -0.422286 1.99265
1.22944 -0.426833 1.9870001
1.23174 -0.407612 1.9810101
1.2327501 -0.405826 1.9756202
1.23467 -0.41472599 1.97504
1.2358201 -0.42681199 1.9742001
1.22279 -0.39690101 1.97177
1.23404 -0.40599602 1.97007
1.24271 -0.42836899 1.9674801
1.24375 -0.428983 1.96162
1.2414299 -0.42913201 1.9564199
1.2511699 -0.445481 1.9242301
1.2491601 -0.447905 1.91662
1.24788 -0.45100102 1.9100101
1.24695 -0.45155603 1.9056101
1.23097 -0.43677399 1.90123
1.24336 -0.46032003 1.8986599
1.23261 -0.41211799 2.0011899
1.22962 -0.41905603 1.9888699
1.2244201 -0.40366298 1.98427
1.23386 -0.42009103 1.9807901
1.22928 -0.425484 1.9840201
1.2273201 -0.40401101 1.97735
1.23441 -0.41258702 1.9757
1.2365299 -0.42129201 1.97431
1.237 -0.42751399 1.9752001
1.22189 -0.39844102 1.9721302
1.2325701 -0.40614799 1.97027
1.2384501 -0.423796 1.9689801
1.2356 -0.42848599 1.9693701
1.23088 -0.40561798 1.96522
1.2356 -0.41345599 1.9638501
1.23827 -0.42198101 1.9640399
1.23677 -0.42847499 1.9630499
1.23852 -0.422676 1.95796
1.24404 -0.43239799 1.9538699
1.2447699 -0.42616999 1.9496601
1.24239 -0.43470299 1.94353
1.2483001 -0.43618402 1.9290601
1.24165 -0.44896802 1.9110299
1.23318 -0.442453 1.9007502
1.2392401 -0.44986302 1.9007901
1.2175 -0.400619 1.9988102
1.2272899 -0.41790903 1.99731
1.2292501 -0.41986001 1.9906601
1.2295201 -0.42151299 1.98401
1.22338 -0.40141299 1.9783701
1.23059 -0.41384202 1.9775
1.22998 -0.42406601 1.9769
1.2128199 -0.388776 1.9731101
1.22357 -0.39855599 1.9712801
1.22764 -0.41048199 1.9716501
1.23156 -0.423118 1.9710001
1.22911 -0.401245 1.9642801
1.2286 -0.409832 1.9650799
1.23367 -0.42255101 1.96443
1.23485 -0.42169899 1.95875
1.23524 -0.43382198 1.95706
1.2441001 -0.43687302 1.94447
1.2490699 -0.44253299 1.92404
1.2458999 -0.453255 1.90483
1.23599 -0.41775399 2.0053701
1.2404901 -0.42109901 1.99709
1.23954 -0.426175 1.9964801
1.2358999 -0.419554 1.9904199
1.23806 -0.42041099 1.98289
1.2278501 -0.43348399 1.98543
1.2424099 -0.43210098 1.97594
1.23004 -0.43550998 1.9796201
1.22298 -0.43854401 1.98044
1.24779 -0.42528301 1.9686401
1.25107 -0.43649799 1.9679
1.23063 -0.40564603 1.9677401
1.25168 -0.43384102 1.9621301
1.25014 -0.43685502 1.9568701
1.25278 -0.44921502 1.9281
1.25328 -0.450661 1.92202
1.24885 -0.45273498 1.90487
1.24872 -0.460787 1.9037201
1.2511901 -0.45485198 1.89869
1.2481099 -0.46150601 1.8978201
1.2332901 -0.41630599 2.0086501
1.23515 -0.412653 2.0009899
1.23669 -0.41918999 2.00085
1.23431 -0.41840699 1.99409
1.21854 -0.396586 1.9905601
1.2229199 -0.39897701 1.98431
1.23439 -0.41483799 1.97978
1.24141 -0.427845 1.9783901
1.23282 -0.43012902 1.97886
1.2142501 -0.387043 1.9752201
1.22866 -0.40138501 1.9747101
1.2421601 -0.429418 1.9725701
1.22654 -0.40164199 1.9693401
1.2384501 -0.42713299 1.96526
1.23525 -0.43338403 1.9680099
1.23184 -0.40708101 1.9628
1.23839 -0.42084301 1.9592199
1.24226 -0.43246102 1.9576499
1.24098 -0.42955601 1.9461801
1.24753 -0.447907 1.91804
1.2492601 -0.45487401 1.90397
1.24984 -0.45861599 1.8965701
1.19823 -0.41118598 1.96966
1.19566 -0.39459899 2.0035102
1.20333 -0.41614601 1.9550202
1.2075701 -0.38180402 1.9572901
1.21648 -0.413077 1.89939
1.22008 -0.40973598 1.89483
1.22405 -0.40094003 1.9020801
1.20022 -0.37681702 1.9867101
1.19551 -0.37393299 1.96516
1.20533 -0.42345199 1.9429801
1.2083499 -0.43085301 1.93302
1.21184 -0.44090998 1.9116299
1.23358 -0.46123999 1.91028
1.22146 -0.402704 1.9141201
1.21155 -0.40067101 1.9090701
1.2247599 -0.409181 1.9049801
1.2323999 -0.400379 1.9143701
1.2272899 -0.416282 1.89503
1.2397 -0.40407699 1.9105201
1.1966701 -0.39508098 2.0028901
1.20085 -0.401797 1.9829401
1.2077401 -0.41770801 1.955
1.2065899 -0.42773899 1.93138
1.2349 -0.369784 1.97237
1.20637 -0.41890702 1.94979
1.21506 -0.43228599 1.9374001
1.22437 -0.40227902 1.92257
1.22102 -0.412146 1.90694
1.22673 -0.41417199 1.9022101
1.1982399 -0.36745498 1.9944
1.23526 -0.40100101 1.95581
1.2345999 -0.40590501 1.9574499
1.2235501 -0.39361599 1.96026
1.2330201 -0.41044399 1.94839
1.19473 -0.372832 1.98276
1.2280201 -0.40357199 1.9359699
1.22989 -0.41342399 1.93056
1.2323201 -0.431357 1.92343
1.22837 -0.40938598 1.9220599
1.23233 -0.41709599 1.91666
1.23136 -0.43485698 1.9142401
1.22886 -0.442426 1.9147501
1.2244 -0.41043401 1.91585
1.2254901 -0.416062 1.91405
1.23059 -0.426211 1.90922
1.23374 -0.43565699 1.9042801
1.2237101 -0.41657901 1.9074701
1.22654 -0.42401299 1.90309
1.2303901 -0.434921 1.8987399
1.2264199 -0.404414 1.9696301
1.2341 -0.40750301 1.9507401
1.23243 -0.41610298 1.9403
1.23305 -0.408611 1.9306601
1.2349501 -0.41769201 1.9282601
1.18846 -0.35923499 1.9755901
1.23226 -0.409821 1.9214901
1.2323899 -0.41947499 1.9205999
1.22745 -0.41200697 1.9170002
1.2311 -0.42112899 1.9115801
1.23434 -0.43117499 1.90291
1.2335601 -0.43976003 1.9018401
1.23107 -0.42461398 1.8998902
1.2326599 -0.43369099 1.8962899
1.2304599 -0.36553502 1.97343
1.22684 -0.36973399 1.9688001
1.22926 -0.40393698 1.94665
1.23154 -0.40907398 1.9325601
1.2285299 -0.40590999 1.92623
1.18637 -0.35624999 1.9744101
1.20487 -0.37799999 1.9468701
1.229 -0.416529 1.9144101
1.2330999 -0.42924801 1.9075501
1.2169 -0.39626703 1.9184899
1.22334 -0.40735802 1.91207
1.23156 -0.42145199 1.9023001
1.20873 -0.395046 1.91886
1.2238899 -0.41004798 1.893
1.21886 -0.392562 1.99621
1.22791 -0.39805803 1.9742001
1.23245 -0.40145001 1.95692
1.2292401 -0.41391701 1.93274
1.2280101 -0.40212798 1.93095
1.2295201 -0.414994 1.92102
1.2256501 -0.40472499 1.9220101
1.2301201 -0.41529599 1.91162
1.22831 -0.42424199 1.91028
1.22736 -0.43455502 1.9054401
1.22622 -0.407105 1.9128799
1.22905 -0.41831198 1.90334
1.2254901 -0.41168702 1.9029901
1.2295099 -0.39949402 1.9813501
1.22711 -0.40886298 1.9714401
1.23027 -0.41012299 1.95927
1.23772 -0.41948399 1.91343
1.23531 -0.42748401 1.91416
1.2336 -0.436591 1.9083099
1.23456 -0.40555301 1.9131202
1.2338201 -0.415014 1.90931
1.2337999 -0.42829701 1.9046401
1.23358 -0.40866002 1.9049201
