# .PCD v0.7 - Point Cloud Data file format
VERSION 0.7
FIELDS x y z
SIZE 4 4 4
TYPE F F F
COUNT 1 1 1
WIDTH 1515
HEIGHT 1
VIEWPOINT 0 0 0 1 0 0 0
POINTS 1515
DATA ascii
1.21805 -0.382952 0.65369707
1.2140499 -0.37626302 0.65414804
1.21083 -0.365466 0.65412605
1.21032 -0.354794 0.655204
1.21227 -0.38050997 0.64857703
1.20954 -0.37226599 0.64887899
1.20341 -0.361727 0.64937901
1.2111 -0.35613498 0.64971602
1.21121 -0.34810102 0.65087599
1.21312 -0.38129601 0.6430881
1.20722 -0.37357301 0.64316607
1.2076499 -0.36435199 0.64422399
1.20578 -0.35550702 0.64567
1.2070401 -0.37926301 0.63888502
1.2074701 -0.37411401 0.63687807
1.207 -0.36519101 0.63855404
1.20848 -0.355591 0.64045501
1.20789 -0.37947601 0.63335103
1.2555799 -0.42777801 0.60979003
1.24938 -0.42118099 0.610847
1.23558 -0.41042501 0.61268502
1.2348599 -0.41982898 0.60966003
1.2389801 -0.415696 0.609918
1.2157199 -0.39811403 0.61278003
1.19241 -0.368792 0.61662203
1.19115 -0.37088001 0.61162704
1.18985 -0.37846002 0.60650998
1.19612 -0.39004502 0.589589
1.1967701 -0.38144797 0.58919603
1.23103 -0.33880901 0.58660102
1.23822 -0.332578 0.58515203
1.19886 -0.39036599 0.58301198
1.1969301 -0.38155499 0.58468902
1.2020401 -0.36221698 0.58368707
1.1970099 -0.38136902 0.57843405
1.19479 -0.37078202 0.57698405
1.21136 -0.401779 0.56719303
1.2032399 -0.39398602 0.56814706
1.2205 -0.41493401 0.55871505
1.2115799 -0.40565801 0.56174201
1.20435 -0.39710602 0.56281108
1.21647 -0.41341001 0.55601203
1.20953 -0.40553299 0.55721802
1.2018 -0.39477599 0.55889207
1.22837 -0.340092 0.55682403
1.2125499 -0.41158298 0.55100501
1.20542 -0.403124 0.55338705
1.19541 -0.39188701 0.55485606
1.2198 -0.340801 0.55295706
1.21306 -0.41159803 0.54412103
1.20365 -0.40297198 0.54836005
1.2272201 -0.33829701 0.54543602
1.20067 -0.40088099 0.54240602
1.20472 -0.40246299 0.53523999
1.184 -0.37984401 0.51111603
1.18048 -0.37890399 0.50573301
1.18478 -0.36886901 0.50649405
1.1813999 -0.37698799 0.50019205
1.184 -0.36873099 0.500875
1.17484 -0.39592898 0.49026302
1.17994 -0.36830199 0.48990905
1.17037 -0.39290798 0.48620704
1.1744599 -0.38661999 0.484337
1.17084 -0.394218 0.48066002
1.1726201 -0.38504601 0.47969204
1.1682299 -0.38262099 0.47573006
1.17115 -0.37588102 0.474085
1.17638 -0.36696702 0.46742499
1.1813301 -0.36546099 0.46148404
1.17834 -0.37671399 0.45496002
1.17716 -0.36724299 0.45749605
1.17747 -0.37615898 0.45055702
1.1820301 -0.36887902 0.45044205
1.18519 -0.36038601 0.44893104
1.18002 -0.37597302 0.44491401
1.18244 -0.366256 0.44508603
1.18111 -0.366487 0.43955603
1.1810299 -0.36931801 0.43361804
1.1822 -0.359505 0.43421704
1.17471 -0.373721 0.42710403
1.17573 -0.36596298 0.42987904
1.1813201 -0.35831699 0.42777303
1.20266 -0.36316898 0.65766501
1.20619 -0.35839403 0.65621102
1.20398 -0.36654899 0.64969605
1.20603 -0.35797 0.65136606
1.2047499 -0.34909198 0.65108305
1.21426 -0.380869 0.64221901
1.20509 -0.36984199 0.64289999
1.20348 -0.35804901 0.64615709
1.20479 -0.34865701 0.64486003
1.22296 -0.39209098 0.63633299
1.20108 -0.35806301 0.63915902
1.19028 -0.353984 0.62926304
1.2701499 -0.29494101 0.61627901
1.1865699 -0.36276099 0.62385404
1.1918399 -0.35563999 0.62423003
1.2698799 -0.29582 0.61346406
1.1828099 -0.37293801 0.61719805
1.26696 -0.29608101 0.61122304
1.18529 -0.38320598 0.61119002
1.18514 -0.37068698 0.61229706
1.17998 -0.381937 0.60678405
1.18494 -0.37451899 0.60645103
1.1936001 -0.35650903 0.59532005
1.18952 -0.383416 0.58846104
1.19042 -0.37550801 0.58985102
1.1927301 -0.36570099 0.58740401
1.19762 -0.35631001 0.58896708
1.2327501 -0.34152099 0.58582503
1.1905301 -0.374639 0.58311105
1.19373 -0.36650002 0.58243102
1.1900001 -0.37835398 0.57642603
1.2146801 -0.41291499 0.56327403
1.20753 -0.40303501 0.56631303
1.21306 -0.41202998 0.56003106
1.2030101 -0.40088099 0.561809
1.1863301 -0.383066 0.56497306
1.22075 -0.34248 0.56124204
1.21111 -0.410317 0.55439502
1.19584 -0.39613 0.55761409
1.2153 -0.34300098 0.55740905
1.22699 -0.33516103 0.55590302
1.21694 -0.41458401 0.54864204
1.20224 -0.401012 0.55165803
1.2151 -0.40996701 0.54644203
1.18068 -0.372136 0.50468504
1.17689 -0.36043701 0.49314904
1.1662899 -0.37953401 0.47668207
1.17011 -0.37044701 0.47627404
1.17084 -0.36700299 0.46997803
1.1726999 -0.368559 0.46386302
1.1745601 -0.35948002 0.46368504
1.17242 -0.36868301 0.45799804
1.1753399 -0.35823199 0.45790204
1.17116 -0.376838 0.45268205
1.17557 -0.370148 0.45009205
1.1779799 -0.36053199 0.45168704
1.17468 -0.378833 0.44582602
1.17524 -0.37082699 0.44403604
1.17818 -0.362481 0.44592705
1.1777999 -0.37202099 0.43768704
1.1779799 -0.361552 0.44002503
1.17353 -0.36609298 0.43458003
1.1752601 -0.35759899 0.43551102
1.17415 -0.368671 0.42825103
1.17764 -0.35911599 0.42906901
1.1701 -0.35612899 0.37100503
1.1725299 -0.35845903 0.36305201
1.20499 -0.37238801 0.65653205
1.20416 -0.36583 0.65644205
1.2012401 -0.370215 0.65134102
1.20346 -0.36377999 0.649979
1.1994799 -0.35258901 0.65122503
1.20849 -0.34781101 0.65088201
1.20023 -0.37078202 0.64375603
1.19793 -0.36172599 0.64497405
1.20436 -0.35529599 0.64545202
1.20055 -0.36353698 0.63874006
1.20436 -0.35259601 0.63985801
1.22715 -0.419339 0.61578804
1.1899199 -0.35893399 0.62762201
1.19758 -0.35363498 0.62747705
1.26706 -0.29792801 0.61795801
1.18384 -0.36603501 0.62252402
1.26346 -0.29313999 0.615951
1.18321 -0.37890097 0.61492002
1.1951799 -0.393042 0.590801
1.18872 -0.38319197 0.59263903
1.19603 -0.35124099 0.59151804
1.23374 -0.33508301 0.58927608
1.1903701 -0.380458 0.58635604
1.19073 -0.36972001 0.58664405
1.19144 -0.36136502 0.58522904
1.1993001 -0.35319999 0.58565003
1.23131 -0.33561501 0.58263105
1.2624199 -0.330975 0.58406603
1.2039399 -0.39671502 0.57378304
1.1931601 -0.38424501 0.57741201
1.18888 -0.37114102 0.580167
1.1959 -0.39169899 0.57197303
1.19005 -0.38157699 0.57302099
1.21926 -0.33925098 0.56054503
1.2232701 -0.34005797 0.55405104
1.1733899 -0.375415 0.50968903
1.17774 -0.35436001 0.51057905
1.1762 -0.36655301 0.50227201
1.1811299 -0.35810003 0.50310302
1.1776999 -0.365722 0.49658704
1.18065 -0.35640201 0.49064103
1.1728901 -0.36407399 0.48486304
1.1769 -0.35515401 0.48532203
1.16596 -0.38064602 0.47932303
1.16952 -0.36104697 0.48061401
1.17591 -0.354543 0.47885606
1.16705 -0.37033698 0.47574303
1.17372 -0.36175901 0.47320902
1.23024 -0.35330102 0.46016002
1.17489 -0.36354697 0.46574402
1.1801 -0.35322601 0.46742204
1.1743699 -0.36418 0.45948401
1.18142 -0.35626099 0.46019202
1.17223 -0.37366799 0.45499203
1.17241 -0.36363098 0.45518902
1.17767 -0.35708499 0.454667
1.17601 -0.37751499 0.44713303
1.17398 -0.36496499 0.44929004
1.1789299 -0.353742 0.44846803
1.17177 -0.371721 0.44303802
1.17265 -0.361242 0.44243202
1.1752 -0.35230598 0.44294205
1.1729699 -0.36239702 0.43589506
1.17194 -0.35334098 0.43854904
1.1731601 -0.3655 0.43009603
1.17232 -0.36098599 0.42486805
1.17133 -0.35228297 0.37474903
1.1700701 -0.364259 0.36729202
1.17136 -0.354763 0.36879402
1.17071 -0.360567 0.36217201
1.1698 -0.35117802 0.36456603
1.2070099 -0.37057999 0.657583
1.20671 -0.36265001 0.65874803
1.2085299 -0.351455 0.657947
1.20682 -0.371236 0.65124899
1.1999 -0.35602701 0.65284002
1.21373 -0.38887501 0.64123505
1.2053701 -0.37598899 0.64363599
1.2039701 -0.364553 0.64533907
1.20555 -0.35137403 0.64665103
1.20977 -0.38579699 0.63835806
1.20166 -0.35994899 0.63903105
1.18854 -0.35543701 0.627316
1.1955301 -0.34918898 0.62772202
1.26986 -0.29962799 0.61788201
1.18452 -0.37298301 0.62126005
1.18165 -0.35982898 0.62334204
1.18791 -0.35375702 0.62234902
1.26843 -0.29962099 0.61453801
1.18381 -0.37866601 0.614402
1.27913 -0.29945201 0.60897404
1.18217 -0.40219003 0.60827601
1.1814801 -0.37481898 0.60941702
1.19907 -0.34937 0.60173702
1.1937799 -0.35576999 0.595662
1.1878901 -0.377729 0.59107506
1.19382 -0.35687599 0.58966404
1.19935 -0.348526 0.58906806
1.22631 -0.33969602 0.58852303
1.2330101 -0.33050901 0.58846307
1.18462 -0.37021801 0.58426905
1.18558 -0.36296201 0.58434302
1.23621 -0.33363 0.58064502
1.22672 -0.33900201 0.56107306
1.1543 -0.36172798 0.53779799
1.17546 -0.372621 0.50652802
1.1810501 -0.363199 0.50837302
1.17793 -0.361963 0.50237602
1.17401 -0.36164299 0.49738204
1.1782299 -0.35176 0.48982903
1.18287 -0.34676701 0.49057207
1.1689 -0.38334399 0.48341504
1.1738 -0.35692 0.48402306
1.17725 -0.347482 0.48487404
1.16686 -0.37656298 0.47780702
1.1689601 -0.36462399 0.47824401
1.17584 -0.357492 0.47699702
1.1770099 -0.34898603 0.47920904
1.16662 -0.36770499 0.47316003
1.17074 -0.36935398 0.46571305
1.17277 -0.35907102 0.46558902
1.1776999 -0.35182998 0.46539703
1.17275 -0.37257302 0.45918706
1.17574 -0.36035001 0.45875204
1.17188 -0.366633 0.45311803
1.1729 -0.35784 0.45322502
1.1775 -0.35099 0.45286101
1.17365 -0.364205 0.44417405
1.17513 -0.35744998 0.44671804
1.1804399 -0.34956199 0.44633201
1.1728901 -0.363893 0.43730104
1.1765599 -0.35933399 0.43881404
1.17717 -0.35070702 0.44096702
1.17273 -0.36368999 0.43090603
1.1748 -0.35908601 0.43321601
1.17496 -0.35748401 0.42671204
1.16432 -0.37900299 0.37950104
1.17225 -0.36018798 0.36763602
1.17221 -0.35905498 0.36063805
1.21 -0.37381303 0.65904403
1.2068 -0.36314401 0.65900099
1.20829 -0.37290999 0.65348208
1.20595 -0.36383802 0.652161
1.20683 -0.35064399 0.65300804
1.20601 -0.37058398 0.64745504
1.2011 -0.35832298 0.64657301
1.20479 -0.34880403 0.64535606
1.20205 -0.367737 0.64070404
1.1992401 -0.35595599 0.63947207
1.1940399 -0.36856899 0.62499309
1.18994 -0.36636102 0.61982405
1.18476 -0.404724 0.60702604
1.1910399 -0.381437 0.60584503
1.19337 -0.35432997 0.60051304
1.1979699 -0.387061 0.59210306
1.19643 -0.35575297 0.59302706
1.1970099 -0.37628898 0.58620203
1.19645 -0.36004201 0.58608902
1.22998 -0.33695599 0.58639699
1.20075 -0.386125 0.579561
1.19473 -0.37145698 0.57938504
1.2165101 -0.33390799 0.57321805
1.20005 -0.3953 0.565624
1.18858 -0.37805697 0.56750005
1.22291 -0.336775 0.56486005
1.1979699 -0.39434502 0.56269503
1.2401999 -0.35791099 0.51166403
1.24413 -0.35714 0.50393802
1.17775 -0.37216401 0.50057602
1.18426 -0.361377 0.50103301
1.18147 -0.36396703 0.49363503
1.16943 -0.38197398 0.47902203
1.17197 -0.37187099 0.47423401
1.1760601 -0.37800899 0.46602702
1.17416 -0.37075502 0.46032202
1.17765 -0.359678 0.45998204
1.17957 -0.37936297 0.45190704
1.17948 -0.36569598 0.45315602
1.1775299 -0.37235001 0.44605306
1.1779 -0.359622 0.44825801
1.18055 -0.362661 0.43986005
1.17834 -0.37234902 0.43313304
1.1781 -0.36094299 0.43246502
1.17752 -0.37139902 0.42635804
1.17695 -0.36083302 0.42697304
1.21067 -0.35466 0.39161602
1.1717299 -0.35943803 0.37236503
1.17049 -0.35782102 0.36611903
1.3028301 -0.35326001 0.62497801
1.2982899 -0.34969002 0.61871803
1.30671 -0.35001799 0.61835599
1.3002499 -0.35336798 0.61125803
1.3013099 -0.35281399 0.60486901
1.29166 -0.352415 0.597516
1.2991201 -0.35377601 0.59890205
1.28627 -0.34034303 0.59270203
1.2914701 -0.349029 0.59279901
1.2960401 -0.35354197 0.59164804
1.28794 -0.33930001 0.58619601
1.29484 -0.34571898 0.58637506
1.3005 -0.350205 0.58414805
1.29155 -0.34128502 0.58037204
1.29794 -0.34621897 0.58009607
1.28791 -0.34231099 0.57368708
1.29715 -0.345451 0.57401901
1.31039 -0.34200802 0.56648999
1.30595 -0.343339 0.55406106
1.26819 -0.33141997 0.53955507
1.2756701 -0.34850499 0.52325499
1.27029 -0.34606302 0.51884401
1.27686 -0.362919 0.46203902
1.29677 -0.37428901 0.46263203
1.2754101 -0.36332297 0.45564306
1.2385 -0.35813001 0.44429505
1.27785 -0.36435199 0.44933602
1.29133 -0.37141702 0.44786203
1.24613 -0.35388801 0.44178903
1.2765599 -0.36267501 0.44313803
1.2872599 -0.36521098 0.44230202
1.29793 -0.36435601 0.44300902
1.2904401 -0.36977002 0.37173203
1.2832401 -0.37969601 0.36831704
1.28325 -0.37309101 0.36496103
1.30056 -0.380178 0.59053504
1.30819 -0.36189097 0.55906105
1.28699 -0.393107 0.53145808
1.27829 -0.40961897 0.52937007
1.29106 -0.38739201 0.52603704
1.28157 -0.40527302 0.52522004
1.23852 -0.35665101 0.45097905
1.24324 -0.353753 0.44773704
1.25457 -0.35289699 0.44966504
1.2423999 -0.35459802 0.44182101
1.2797199 -0.40027902 0.41965503
1.2712001 -0.41108102 0.41733205
1.28371 -0.39463601 0.41726804
1.27592 -0.40578899 0.41479805
1.28145 -0.39417303 0.41227803
1.2772499 -0.40322602 0.40903103
1.28703 -0.382447 0.40889603
1.27888 -0.39533401 0.40528703
1.29108 -0.372886 0.40445903
1.27961 -0.38623798 0.40080205
1.2815199 -0.37703601 0.39562303
1.2839301 -0.36987799 0.38865003
1.2674199 -0.39662701 0.38584805
1.29538 -0.35469699 0.38784504
1.28403 -0.36628601 0.38357803
1.2809199 -0.37675899 0.38208202
1.28405 -0.35979697 0.38028005
1.28228 -0.36757198 0.37703905
1.2798899 -0.35990298 0.37255803
1.28002 -0.36612302 0.36997104
1.2798101 -0.376571 0.36904502
1.286 -0.34978801 0.37063202
1.27564 -0.36090001 0.36421105
1.2786499 -0.369297 0.36374202
1.3105201 -0.35642502 0.65226907
1.30639 -0.357849 0.647264
1.3109 -0.36158901 0.64749002
1.30957 -0.356264 0.64216101
1.3102299 -0.36315399 0.64017105
1.30634 -0.356437 0.63443106
1.30968 -0.36171502 0.63470805
1.31004 -0.36980399 0.63425601
1.30265 -0.35491601 0.62788302
1.3081399 -0.362528 0.62934303
1.30275 -0.36155102 0.62290305
1.2975301 -0.35640299 0.61737704
1.30134 -0.36183202 0.60481203
1.29659 -0.35583699 0.60039204
1.30819 -0.37654999 0.59861404
1.2904201 -0.35051301 0.59269202
1.2961999 -0.356067 0.59420401
1.2983299 -0.36325902 0.59323502
1.2876199 -0.34918702 0.58680803
1.29635 -0.35220701 0.58742201
1.29942 -0.33863202 0.58373505
1.2887501 -0.34836602 0.58283401
1.29822 -0.350326 0.58179998
1.2991099 -0.35990003 0.58154404
1.30362 -0.370372 0.58080804
1.2882401 -0.34849498 0.57687604
1.29694 -0.35381401 0.57608002
1.29441 -0.35016301 0.57032704
1.29821 -0.36091599 0.56910807
1.29419 -0.35257301 0.56472802
1.2857801 -0.34375703 0.55288303
1.2882401 -0.35556701 0.54506701
1.28737 -0.35563001 0.53887606
1.27797 -0.41169301 0.52808702
1.2837399 -0.35512501 0.53342301
1.29215 -0.36080602 0.53482801
1.2998101 -0.376142 0.530904
1.27619 -0.413028 0.52580702
1.27448 -0.348093 0.52824003
1.28294 -0.35390598 0.52734405
1.27511 -0.35138699 0.52197599
1.2845 -0.35428298 0.52202106
1.2994299 -0.36629903 0.46817303
1.24832 -0.35231498 0.45067203
1.2889 -0.38823101 0.429331
1.2930299 -0.37879503 0.42614305
1.28599 -0.39130402 0.42352402
1.2778801 -0.40046 0.42187005
1.2942599 -0.375451 0.42083904
1.2879601 -0.38820302 0.41925403
1.27842 -0.400271 0.41831002
1.28899 -0.379033 0.41438103
1.29245 -0.38347501 0.41436303
1.2767501 -0.40057001 0.41490605
1.29118 -0.366759 0.41098103
1.28957 -0.37472999 0.40932503
1.28716 -0.38363701 0.40741104
1.2788301 -0.36413503 0.40142703
1.2825799 -0.37051898 0.404098
1.2831799 -0.37870201 0.40111905
1.2793801 -0.36178601 0.39566705
1.2810299 -0.37004003 0.39752904
1.2846 -0.376432 0.39523101
1.28107 -0.385456 0.39340004
1.28089 -0.36028999 0.39079705
1.2832 -0.368126 0.39192605
1.28543 -0.37648103 0.38904303
1.2816299 -0.38508901 0.38743004
1.27687 -0.35946801 0.38515702
1.28468 -0.36592701 0.38563702
1.2895 -0.37362301 0.38360605
1.28754 -0.38161498 0.38259706
1.2761199 -0.35968798 0.37820503
1.2872 -0.36743698 0.37903103
1.2868401 -0.37678298 0.37736303
1.2860899 -0.38252103 0.37628704
1.2662799 -0.35514998 0.37247804
1.27458 -0.35945302 0.37048003
1.2845799 -0.36588699 0.37235603
1.2879201 -0.37386101 0.37283802
1.2868299 -0.38110298 0.37072206
1.26959 -0.354276 0.36719203
1.27307 -0.35967201 0.36430004
1.28229 -0.36488602 0.36489102
1.2885001 -0.3732 0.36647305
1.27997 -0.35816202 0.36086902
1.3013999 -0.36085603 0.63634104
1.30562 -0.36753502 0.63714105
1.30147 -0.357914 0.631854
1.3072901 -0.36754 0.63086301
1.2962101 -0.354689 0.62696904
1.30336 -0.36033601 0.626396
1.3016499 -0.36095402 0.61987799
1.2983 -0.42243698 0.61334205
1.3028901 -0.36038601 0.61340904
1.2956799 -0.35460702 0.60846204
1.29917 -0.36114299 0.60267103
1.30694 -0.387032 0.60151404
1.29079 -0.35269797 0.59665304
1.29705 -0.35900903 0.59772801
1.30618 -0.38689801 0.59683502
1.29085 -0.34923699 0.59276903
1.29697 -0.35818699 0.591856
1.28956 -0.34162799 0.58635402
1.2940199 -0.34850201 0.58799803
1.2988499 -0.35570702 0.58609903
1.28616 -0.34223098 0.58125705
1.2944701 -0.34851798 0.58259004
1.29827 -0.35709202 0.58085603
1.29273 -0.34911701 0.57686102
1.29694 -0.358013 0.57466203
1.29713 -0.358634 0.56814301
1.29558 -0.35804799 0.55844802
1.2859399 -0.35227501 0.550017
1.28348 -0.34929401 0.54450303
1.2887399 -0.35962299 0.54487604
1.28276 -0.41036099 0.54009604
1.28493 -0.35895699 0.538086
1.28101 -0.353282 0.53335905
1.28513 -0.35993999 0.53325105
1.29656 -0.37620997 0.53256398
1.27724 -0.35320899 0.52770603
1.2853 -0.35956401 0.529001
1.27811 -0.35388401 0.52203405
1.29988 -0.37757 0.44287705
1.29261 -0.382175 0.43621704
1.2776999 -0.398662 0.43075401
1.26209 -0.414637 0.42529601
1.29268 -0.36617401 0.43207103
1.29182 -0.375429 0.43226901
1.28745 -0.38717097 0.42995003
1.2762001 -0.401034 0.42573401
1.26895 -0.41167301 0.42345202
1.28913 -0.36435902 0.42679006
1.29259 -0.370368 0.42740402
1.2894299 -0.38159502 0.42564502
1.28351 -0.39457101 0.42301404
1.28653 -0.37417701 0.42057002
1.2875 -0.38500899 0.41867602
1.27352 -0.40929902 0.41375202
1.28441 -0.36623201 0.41641504
1.28493 -0.37579602 0.41367203
1.28864 -0.38355702 0.41368905
1.2804201 -0.39651099 0.41150403
1.27056 -0.41027302 0.40773001
1.27847 -0.367434 0.40839803
1.2833099 -0.37466702 0.40822804
1.2867501 -0.382375 0.40842706
1.27431 -0.39879 0.40505204
1.26482 -0.412449 0.40324506
1.2813699 -0.373411 0.40244702
1.2824299 -0.38264501 0.40101203
1.28186 -0.37449902 0.39488205
1.28333 -0.38032901 0.39456105
1.2820599 -0.36582902 0.39065602
1.2842799 -0.372807 0.38995305
1.28579 -0.378245 0.38853005
1.27455 -0.3642 0.38372105
1.28334 -0.37172198 0.38445306
1.2836 -0.38031501 0.38188201
1.27894 -0.36447102 0.37805703
1.28161 -0.375229 0.37734303
1.26158 -0.35589901 0.36874905
1.27057 -0.35825297 0.37272805
1.27659 -0.363545 0.37132102
1.2813201 -0.37142602 0.37176803
1.26063 -0.35493401 0.36237201
1.27053 -0.358289 0.36563304
1.2789199 -0.36567798 0.36627004
1.30477 -0.36357498 0.63779104
1.30101 -0.35841203 0.63497704
1.30599 -0.36545101 0.63277203
1.30348 -0.36120701 0.628519
1.30873 -0.36652401 0.62664503
1.3039999 -0.36187801 0.62164998
1.29274 -0.30280501 0.61300403
1.29584 -0.30217898 0.61071306
1.29304 -0.306584 0.61018103
1.2980499 -0.30238399 0.60731101
1.2961501 -0.306003 0.60776502
1.2886 -0.34938598 0.59843707
1.2956599 -0.35799399 0.59958404
1.29636 -0.366007 0.59753698
1.2877001 -0.34849399 0.59421301
1.29322 -0.35626999 0.59419602
1.2962601 -0.37559101 0.59267402
1.2951199 -0.38666001 0.59348905
1.2930901 -0.34733897 0.58988702
1.29811 -0.35706502 0.58887506
1.3028799 -0.372062 0.58731705
1.2879201 -0.33883998 0.58434904
1.29091 -0.34642801 0.58372504
1.2961301 -0.354269 0.58436203
1.28588 -0.39371899 0.57931006
1.29405 -0.35522801 0.57789505
1.2967 -0.363599 0.57752806
1.29467 -0.35564601 0.57254201
1.2968899 -0.36320001 0.57273
1.2932 -0.356208 0.56727701
1.2900599 -0.35301998 0.56082505
1.2887601 -0.35556301 0.54930103
1.28509 -0.35714802 0.542795
1.28192 -0.356846 0.53775305
1.27368 -0.35183498 0.53172302
1.2789 -0.35783002 0.53311604
1.29459 -0.38340402 0.53156203
1.2811501 -0.35789901 0.52807206
1.29491 -0.39071 0.47454101
1.2847301 -0.39900601 0.47233802
1.28634 -0.39610198 0.46691802
1.2961 -0.386904 0.46373603
1.2856599 -0.39577302 0.45991302
1.2927099 -0.38824201 0.45705903
1.30013 -0.377664 0.45401901
1.29041 -0.388877 0.45083404
1.30373 -0.367241 0.44997606
1.29325 -0.38015801 0.44680005
1.28513 -0.39158401 0.44383103
1.2961999 -0.37063399 0.44191605
1.2865601 -0.38435 0.43951502
1.2790101 -0.396088 0.43665603
1.2930701 -0.36271998 0.43670502
1.2923399 -0.37064701 0.43542004
1.291 -0.37966901 0.43497103
1.28476 -0.39131501 0.43290302
1.2859801 -0.36390498 0.42936301
1.29211 -0.36821201 0.43154502
1.29282 -0.37603199 0.43035203
1.28742 -0.38740003 0.42801902
1.28176 -0.36388502 0.42345402
1.2876899 -0.37006301 0.42550603
1.2895399 -0.37967399 0.42319003
1.28771 -0.39122298 0.42221203
1.28467 -0.37103599 0.41811603
1.2904299 -0.37850103 0.41840702
1.2886 -0.38713199 0.41718805
1.2813201 -0.40033901 0.41482803
1.27153 -0.41239601 0.41052303
1.2847199 -0.371851 0.41163203
1.28917 -0.378878 0.41371304
1.28528 -0.389476 0.41082904
1.27593 -0.40239298 0.40710002
1.2769101 -0.37109903 0.40405902
1.2850599 -0.38000098 0.40686801
1.26993 -0.395174 0.39508602
1.2839999 -0.37232399 0.39432201
1.2839999 -0.37963402 0.39392903
1.2655001 -0.39978299 0.38762203
1.27784 -0.363565 0.38649902
1.28026 -0.37151298 0.38778201
1.28543 -0.37931401 0.38954705
1.2803199 -0.36292702 0.38148004
1.2833 -0.369773 0.38262901
1.28382 -0.37995201 0.38274804
1.26749 -0.399497 0.37489003
1.27739 -0.362093 0.37558001
1.2852401 -0.36835399 0.37753704
1.28618 -0.37670201 0.37796801
1.27877 -0.38875401 0.37441903
1.26993 -0.358751 0.36870903
1.2776101 -0.36278802 0.36965203
1.2813201 -0.36840099 0.37148902
1.2853301 -0.377967 0.37110505
1.26606 -0.35898301 0.36239403
1.28297 -0.36972302 0.36591804
1.28688 -0.37767398 0.36571202
1.19258 -0.34379199 0.62555307
1.1937001 -0.35058603 0.61307502
1.19412 -0.34520501 0.61612803
1.1955 -0.33794898 0.61816305
1.19361 -0.34486499 0.60965806
1.1937799 -0.35240898 0.59955508
1.19656 -0.34585202 0.59989107
1.18856 -0.34514701 0.62907302
1.1917701 -0.34194002 0.62489104
1.19195 -0.33712003 0.63089502
1.18874 -0.34458402 0.61737704
1.18999 -0.34065101 0.61834502
1.19405 -0.337668 0.61695307
1.18933 -0.34517503 0.604505
1.19188 -0.341158 0.60854506
1.19326 -0.34151798 0.596165
1.16635 -0.33554402 0.56152701
1.1745501 -0.358816 0.49335402
1.1717501 -0.35190299 0.50463903
1.17597 -0.35346699 0.48905304
1.1765599 -0.34597901 0.49404904
1.1810299 -0.33998901 0.49022201
1.17681 -0.34546602 0.48642305
1.1943099 -0.34136599 0.63178504
1.18944 -0.34419399 0.62296301
1.19392 -0.33943698 0.62358803
1.1912301 -0.34782299 0.60670203
1.19405 -0.340489 0.61168307
1.20145 -0.33586898 0.60855806
1.19008 -0.348582 0.59780604
1.19407 -0.34487098 0.59729403
1.19681 -0.33598202 0.60070503
1.17755 -0.35406101 0.48757201
1.1762 -0.345283 0.49698302
1.18255 -0.34134799 0.48866105
1.17672 -0.345947 0.48418003
1.18187 -0.34142101 0.47901103
1.17671 -0.346093 0.47268704
1.17925 -0.35389099 0.452032
1.17497 -0.344217 0.46354201
1.17641 -0.33778098 0.46355101
1.1773601 -0.356727 0.42765602
1.1715599 -0.34175301 0.45404103
1.24151 -0.398698 0.64192802
1.23511 -0.39721403 0.64565301
1.2321399 -0.39247 0.648826
1.23384 -0.39797002 0.63721406
1.22943 -0.39274397 0.63904005
1.22539 -0.39559701 0.63122702
1.23088 -0.39721802 0.61742103
1.21969 -0.39732799 0.62575603
1.21553 -0.38678399 0.626037
1.22881 -0.39940399 0.60813504
1.2196701 -0.398415 0.61671805
1.21386 -0.39389899 0.62201303
1.2283 -0.40011901 0.59947902
1.21917 -0.40040797 0.60733902
1.2144001 -0.395262 0.61012405
1.22335 -0.40214199 0.59380603
1.22171 -0.40554699 0.58206403
1.22506 -0.41073599 0.56338102
1.21902 -0.40722302 0.56687403
1.2046 -0.39628601 0.57248002
1.19274 -0.39201599 0.57869804
1.2101001 -0.40343899 0.56368303
1.2032 -0.396027 0.56068605
1.1922799 -0.39302701 0.57018203
1.2104499 -0.40178201 0.55004102
1.20187 -0.39554 0.55128103
1.20437 -0.39577702 0.54056406
1.2136199 -0.40667197 0.52348304
1.20617 -0.396207 0.529383
1.20252 -0.38866901 0.528458
1.20499 -0.39592999 0.51812398
1.23941 -0.39810798 0.64750403
1.2358999 -0.39566299 0.64937502
1.23058 -0.39664599 0.64488107
1.22831 -0.39195701 0.64325607
1.23432 -0.393507 0.63031405
1.22475 -0.39392897 0.63777906
1.21892 -0.39587399 0.634718
1.2211499 -0.39064097 0.62905103
1.2178299 -0.39468399 0.62445307
1.21575 -0.39501703 0.61435598
1.2194101 -0.38968199 0.59327602
1.22612 -0.39977902 0.58109504
1.21571 -0.38994399 0.58721805
1.23233 -0.40527302 0.56770301
1.2169499 -0.383737 0.57773405
1.2385399 -0.40824902 0.55521399
1.21797 -0.406845 0.57298505
1.1914901 -0.39327899 0.58638501
1.2235501 -0.41095501 0.56143403
1.2159101 -0.40727299 0.56692201
1.1920201 -0.397457 0.58180308
1.21773 -0.40832698 0.55939603
1.20599 -0.404791 0.56803405
1.18806 -0.386608 0.57433701
1.23052 -0.39597401 0.65405005
1.22956 -0.39588001 0.64725906
1.22566 -0.39319697 0.65177202
1.22357 -0.38691002 0.64893103
1.2230201 -0.392454 0.64259905
1.22057 -0.39313802 0.63394403
1.21536 -0.384785 0.63417506
1.21197 -0.385901 0.62704402
1.21196 -0.39407799 0.62034202
1.20796 -0.38777697 0.62130702
1.2196499 -0.38597801 0.65536499
1.21524 -0.38187 0.64490205
1.21416 -0.37821499 0.64705104
1.21399 -0.38575801 0.64282906
1.21093 -0.38324299 0.64436603
1.21236 -0.37939999 0.64261198
1.25578 -0.40476501 0.64718002
1.2568699 -0.40719002 0.64074808
1.2467901 -0.40231401 0.64217705
1.2361699 -0.39587298 0.640728
1.25525 -0.40827203 0.63558203
1.24446 -0.40324602 0.63589501
1.2330899 -0.39950299 0.63539302
1.2405 -0.405635 0.63038301
1.22961 -0.39986402 0.63038504
1.2545099 -0.41005698 0.62386101
1.2370501 -0.40697497 0.62463003
1.2257199 -0.40104699 0.62461698
1.2130101 -0.39764702 0.62466002
1.20815 -0.38912702 0.62468404
1.24808 -0.41046399 0.618644
1.2323101 -0.40795502 0.61828804
1.2106199 -0.39526403 0.61995608
1.20017 -0.37683102 0.61923003
1.24911 -0.41081297 0.612275
1.23325 -0.409394 0.61271501
1.22479 -0.403061 0.61261803
1.21319 -0.39742199 0.61500305
1.20754 -0.38844398 0.61434007
1.25498 -0.41043401 0.60617203
1.237 -0.40784302 0.60684502
1.22797 -0.39997002 0.60535806
1.24725 -0.40981701 0.60024202
1.2339901 -0.40546101 0.60023099
1.22817 -0.39907798 0.60010803
1.22772 -0.38837102 0.60035205
1.24605 -0.407886 0.59194702
1.2407299 -0.40408599 0.59396905
1.23392 -0.395134 0.59355003
1.25016 -0.40638402 0.58546805
1.23806 -0.40529799 0.58677202
1.23226 -0.39487401 0.58623803
1.24641 -0.41144502 0.57995802
1.2406 -0.40655997 0.57955098
1.2309999 -0.399542 0.58014303
1.24403 -0.413335 0.5747
1.23245 -0.409931 0.57504201
1.22031 -0.39341098 0.57506007
1.24851 -0.416861 0.56944203
1.23918 -0.414929 0.56903404
1.22769 -0.41027001 0.56930602
1.2406601 -0.42056701 0.56291902
1.2328601 -0.41657397 0.56364501
1.2255599 -0.41180801 0.56422603
1.21928 -0.40435001 0.564457
1.20805 -0.396837 0.56481403
1.24568 -0.41864699 0.55438399
1.23668 -0.416646 0.55703002
1.2240599 -0.41263101 0.55913806
1.2109101 -0.39968398 0.55893302
1.20058 -0.39172402 0.558945
1.2385601 -0.41666698 0.55045104
1.22846 -0.41314399 0.55299205
1.2175499 -0.40648401 0.55286002
1.2053 -0.39907902 0.55331403
1.19807 -0.39184701 0.55286902
1.28256 -0.40724099 0.53614002
1.24745 -0.412541 0.54256505
1.21145 -0.39951801 0.54672402
1.1980799 -0.39574 0.54814506
1.2568901 -0.409527 0.53385198
1.23043 -0.409435 0.53916103
1.21187 -0.40602002 0.54122204
1.20392 -0.39982101 0.54268003
1.19891 -0.39209703 0.54205
1.19538 -0.38224497 0.54094303
1.19077 -0.37470901 0.53944004
1.19516 -0.36627302 0.53918701
1.25774 -0.40914902 0.52724403
1.23561 -0.40870801 0.53044504
1.20682 -0.397385 0.53593302
1.19947 -0.38900003 0.536116
1.24989 -0.41073 0.52223104
1.2305501 -0.40921903 0.52481705
1.20715 -0.401216 0.53014702
1.20188 -0.39014 0.52907205
1.23311 -0.41014701 0.51853907
1.21324 -0.39733899 0.52242398
1.23215 -0.41004902 0.51259202
1.21522 -0.39247599 0.51560903
1.21966 -0.38910198 0.50824302
1.24331 -0.39465302 0.64147508
1.24602 -0.396036 0.63486308
1.22991 -0.392445 0.634691
1.23867 -0.39878699 0.62896603
1.24808 -0.40427101 0.622576
1.23339 -0.39961103 0.62332308
1.26065 -0.40730202 0.61584401
1.24236 -0.40465501 0.61744201
1.22983 -0.40188703 0.61850202
1.2244899 -0.39458501 0.61904407
1.2487999 -0.40490898 0.61193705
1.22987 -0.40159199 0.61295706
1.21385 -0.39740899 0.61456102
1.24191 -0.40507001 0.60641801
1.22768 -0.40166599 0.60620201
1.2154499 -0.396433 0.60820305
1.24005 -0.40397 0.60002601
1.23303 -0.401124 0.60029703
1.23578 -0.404376 0.59413606
1.22774 -0.39994898 0.594643
1.2207199 -0.39337599 0.59476805
1.21575 -0.38821399 0.59645003
1.23809 -0.40469602 0.58757299
1.23114 -0.40068901 0.58778208
1.2161 -0.370812 0.58898401
1.23975 -0.40614301 0.58075702
1.2270501 -0.40261599 0.58203906
1.2217 -0.39494899 0.58327901
1.24974 -0.40836498 0.57503903
1.24378 -0.40609199 0.574673
1.2326599 -0.40270197 0.57624102
1.24474 -0.41100299 0.56977004
1.23479 -0.408142 0.570669
1.24198 -0.413149 0.56428802
1.23725 -0.40947101 0.56464601
1.2212501 -0.39536098 0.56753802
1.23988 -0.41304299 0.55837905
1.22989 -0.40984002 0.55963802
1.21664 -0.39731202 0.56251603
1.20283 -0.371856 0.56071699
1.24787 -0.41074002 0.55014205
1.21377 -0.39718497 0.55653208
1.2418 -0.408234 0.54591501
1.21433 -0.40019903 0.55090302
1.20637 -0.39112702 0.55034006
1.2826101 -0.40347999 0.53353101
1.25301 -0.40579799 0.53826803
1.23509 -0.40266702 0.54109001
1.20789 -0.39188999 0.54325205
1.19542 -0.38728401 0.54527307
1.24304 -0.40542197 0.53404599
1.2030101 -0.39024299 0.53862303
1.2761199 -0.40595299 0.52268404
1.25359 -0.40425801 0.52599901
1.20749 -0.391381 0.53270805
1.2390599 -0.40681499 0.52234703
1.2109101 -0.39890099 0.52625406
1.20674 -0.39100498 0.52660006
1.2466 -0.40716401 0.51516503
1.22741 -0.403963 0.51764005
1.2143 -0.39740199 0.52056104
1.2268599 -0.40414903 0.51236802
1.2242501 -0.36902902 0.47408605
1.21638 -0.37592301 0.47357804
1.21788 -0.37349099 0.46793902
1.21784 -0.36860803 0.46897101
1.20981 -0.37972301 0.46489003
1.21793 -0.367906 0.46229503
1.2144001 -0.37446401 0.45774001
1.21067 -0.38899502 0.45346302
1.2103 -0.37887698 0.45360801
1.21797 -0.36775398 0.45023304
1.20671 -0.39048499 0.44880605
1.21202 -0.37846801 0.44627804
1.21252 -0.40106201 0.44229504
1.2095 -0.38993099 0.442568
1.21069 -0.37939098 0.43989304
1.21606 -0.36946899 0.43782803
1.20873 -0.38775298 0.43663803
1.2125 -0.377285 0.43361703
1.2083 -0.38910303 0.43067104
1.23621 -0.411865 0.41935202
1.2104499 -0.384776 0.42304802
1.1716 -0.37023997 0.42605805
1.23779 -0.40630502 0.41301101
1.2306401 -0.40484101 0.37552804
1.2294 -0.40581903 0.37075004
1.22837 -0.40695301 0.36562604
1.25933 -0.40598097 0.618994
1.25361 -0.40367198 0.61534506
1.2597899 -0.40267301 0.60918701
1.25851 -0.40267602 0.603598
1.25032 -0.40290502 0.57895106
1.25028 -0.40541801 0.57520103
1.24349 -0.40522701 0.57396603
1.24245 -0.40810397 0.570382
1.23637 -0.40740898 0.56931305
1.23796 -0.40965199 0.56454605
1.2357 -0.40781799 0.56478602
1.2392299 -0.40923199 0.55778402
1.23474 -0.40795398 0.56030405
1.23972 -0.409365 0.55169803
1.23818 -0.40712699 0.55399102
1.24103 -0.406351 0.54770303
1.24707 -0.40570801 0.54094201
1.25236 -0.404127 0.53377002
1.24827 -0.40356499 0.52701706
1.23778 -0.40495601 0.52402604
1.2063401 -0.40708697 0.52963907
1.16864 -0.39453602 0.53508103
1.23919 -0.404973 0.519265
1.1708 -0.39230099 0.52347803
1.23025 -0.40629399 0.50768107
1.18542 -0.41402999 0.48417503
1.1717299 -0.392928 0.48507103
1.23612 -0.40644401 0.43677902
1.2089499 -0.40290999 0.44340301
1.23621 -0.40648702 0.43078902
1.1971 -0.38523901 0.37295303
1.2404 -0.393296 0.62566203
1.2252899 -0.365592 0.61839402
1.2338901 -0.39408797 0.61472803
1.2151999 -0.388901 0.61619204
1.23795 -0.39608699 0.60963404
1.2194999 -0.391761 0.61086202
1.22778 -0.39528 0.60506403
1.2239801 -0.39409599 0.59825003
1.21551 -0.39045298 0.600501
1.22584 -0.39352199 0.59324908
1.21751 -0.39047402 0.59399104
1.22611 -0.39327201 0.58857608
1.21653 -0.39075401 0.58857
1.2224 -0.39495498 0.583058
1.21541 -0.38980702 0.58430898
1.19655 -0.38606301 0.58512408
1.2828799 -0.32689601 0.57245904
1.2516201 -0.40024298 0.56993705
1.23656 -0.39681599 0.574
1.22104 -0.392517 0.57778406
1.25546 -0.33975399 0.57056308
1.24771 -0.40092602 0.56767601
1.23352 -0.39759499 0.57010198
1.22558 -0.39410001 0.57033604
1.18643 -0.378288 0.57628703
1.25652 -0.40344501 0.56152701
1.2445999 -0.400879 0.56412905
1.23281 -0.39762002 0.564354
1.2256 -0.394418 0.56537002
1.2448699 -0.401609 0.55884099
1.23527 -0.39809799 0.55862004
1.2258201 -0.39499101 0.56012201
1.24796 -0.40064603 0.55212706
1.23138 -0.39786097 0.55499506
1.2262599 -0.39469701 0.55411702
1.2330999 -0.39776799 0.54984701
1.28067 -0.396956 0.52070701
1.18863 -0.360439 0.53740805
1.24271 -0.39683497 0.52409101
1.2409101 -0.39708197 0.51903903
1.23095 -0.397659 0.51566404
1.22383 -0.39533001 0.51505202
1.23212 -0.39846501 0.50984102
1.22112 -0.39550799 0.51005006
1.1852 -0.40981999 0.48722306
1.18186 -0.38027999 0.40201801
1.20069 -0.39305699 0.37462303
1.19752 -0.38368401 0.36900502
1.22031 -0.36194098 0.62310702
1.29321 -0.28558299 0.61252803
1.2339901 -0.39000598 0.61647201
1.21702 -0.36768001 0.61890101
1.2874 -0.294029 0.60713202
1.2106099 -0.389449 0.61475205
1.20761 -0.38398898 0.61054403
1.22454 -0.363592 0.59574801
1.1939701 -0.38829601 0.595249
1.1978099 -0.38656101 0.58944404
1.25227 -0.33879501 0.57397705
1.2033 -0.35763001 0.56007504
1.21787 -0.346367 0.55823904
1.21071 -0.38010702 0.55006504
1.19735 -0.36803001 0.55239004
1.2067 -0.38080001 0.54597104
1.20579 -0.376591 0.54476702
1.20609 -0.38015097 0.53997999
1.22138 -0.34049901 0.53855705
1.1884999 -0.36886901 0.53834403
1.1877201 -0.35687801 0.538104
1.21579 -0.34270099 0.53657204
1.19213 -0.369524 0.53300303
1.2031701 -0.38945401 0.52480602
1.19068 -0.35910597 0.52692705
1.2119401 -0.37261599 0.50609505
1.20804 -0.37534699 0.50165504
1.20046 -0.37788701 0.48706406
1.24041 -0.33919299 0.46414506
1.23728 -0.33862498 0.46012104
1.20509 -0.37555099 0.46392101
1.23246 -0.34006 0.45575702
1.2128 -0.38551301 0.45587105
1.20531 -0.37775397 0.45869702
1.23571 -0.34043598 0.44949704
1.2128501 -0.385043 0.45062202
1.20987 -0.37634498 0.45135403
1.2147599 -0.38453799 0.44461703
1.20611 -0.37658599 0.44698802
1.21121 -0.38532397 0.43869904
1.20816 -0.375644 0.44102505
1.20614 -0.38620898 0.43569505
1.2081 -0.385169 0.43087402
1.20541 -0.37603298 0.42998004
1.2087899 -0.38438702 0.42472503
1.1875499 -0.37830698 0.40628502
1.18808 -0.37954 0.40022102
1.19882 -0.36731997 0.37464505
1.28257 -0.29974899 0.62063301
1.28534 -0.300892 0.61800802
1.2989999 -0.34409401 0.60266304
1.30037 -0.352588 0.60226303
1.30416 -0.36244899 0.603486
1.3034301 -0.346634 0.59926504
1.30527 -0.356013 0.59848505
1.3137 -0.38335401 0.59905005
1.30082 -0.34638599 0.59483904
1.31028 -0.35713401 0.59369504
1.29685 -0.355308 0.58867002
1.30154 -0.35917899 0.58255905
1.2836701 -0.41563702 0.58134902
1.30112 -0.35807201 0.57670003
1.30325 -0.35663199 0.57097101
1.27166 -0.431128 0.56241906
1.2839501 -0.355652 0.54297304
1.30045 -0.37634999 0.53002501
1.29182 -0.41674098 0.47283804
1.29467 -0.41384 0.46782005
1.28945 -0.41600102 0.46691605
1.3016499 -0.37368199 0.46390504
1.29424 -0.41418898 0.46256301
1.29399 -0.41662499 0.46221203
1.2968601 -0.37243098 0.45938405
1.29392 -0.41388199 0.45762402
1.29474 -0.41656199 0.45592102
1.2905999 -0.41431499 0.45108002
1.2876101 -0.41720101 0.44843003
1.28916 -0.41540402 0.44397405
1.28093 -0.41806301 0.441533
1.29 -0.41602403 0.43769506
1.28347 -0.419025 0.43759206
1.28793 -0.422627 0.43872106
1.2935899 -0.41550702 0.43289304
1.28901 -0.41913101 0.43314305
1.2844501 -0.42252201 0.43350303
1.29714 -0.41539001 0.42941606
1.29414 -0.41874 0.42883804
1.28759 -0.42249 0.42749503
1.2956901 -0.41569901 0.42489403
1.2917501 -0.419384 0.42293203
1.28676 -0.41288701 0.39111602
1.28196 -0.41619 0.38578501
1.2874 -0.41248599 0.38122502
1.2720701 -0.41925499 0.37795502
1.28785 -0.412624 0.37546203
1.27799 -0.41834399 0.37436801
1.25682 -0.42908001 0.36824504
1.29491 -0.41134202 0.37232503
1.2778 -0.41886798 0.36807305
1.25624 -0.42942101 0.36279103
1.28968 -0.412368 0.36481303
1.27689 -0.419689 0.36155805
1.29861 -0.40784699 0.36317402
1.28283 -0.30603901 0.62185705
1.2974899 -0.308202 0.61766303
1.29179 -0.30245101 0.61339605
1.2953501 -0.34560397 0.60313398
1.2948599 -0.353679 0.60298103
1.29392 -0.364856 0.60343903
1.30515 -0.425421 0.60712701
1.29413 -0.34540799 0.59897006
1.31301 -0.38913301 0.601219
1.29278 -0.34926999 0.59342605
1.29483 -0.36472401 0.59332705
1.2849001 -0.347736 0.58885199
1.2926401 -0.357041 0.589252
1.3106799 -0.380061 0.58923906
1.2989501 -0.360275 0.58426404
1.30056 -0.368218 0.58149606
1.31113 -0.38069302 0.58420706
1.2978301 -0.36030301 0.57659805
1.30036 -0.36653 0.57599401
1.2910899 -0.35234201 0.57001501
1.29818 -0.35938799 0.57086599
1.2824299 -0.421022 0.57189006
1.295 -0.34904301 0.563842
1.29924 -0.360874 0.56571603
1.2802401 -0.42577201 0.56681204
1.2950701 -0.356004 0.560148
1.2838901 -0.35356799 0.54943103
1.25832 -0.424851 0.49609202
1.24968 -0.42837298 0.49499103
1.26248 -0.425053 0.49052003
1.24691 -0.430289 0.48929504
1.26845 -0.423917 0.48526204
1.25614 -0.42889801 0.48544204
1.28268 -0.42123699 0.48378205
1.27301 -0.423421 0.48103005
1.25895 -0.42879599 0.480073
1.28185 -0.42082801 0.47870904
1.2695099 -0.42378199 0.47583103
1.25044 -0.428819 0.47275901
1.27516 -0.42005298 0.47233605
1.26063 -0.42270401 0.46887603
1.3007201 -0.383441 0.46687806
1.30071 -0.38595799 0.46735001
1.2665401 -0.41888401 0.46584207
1.29988 -0.38285598 0.46135402
1.26176 -0.41838798 0.46162602
1.29854 -0.38225499 0.45409504
1.30434 -0.38659501 0.45776704
1.3070301 -0.380934 0.45055303
1.2953999 -0.38121602 0.44852802
1.3025301 -0.38548198 0.45181406
1.29362 -0.380988 0.44336003
1.3000301 -0.38492501 0.44585904
1.28951 -0.38089001 0.43691903
1.2937801 -0.38453799 0.43815902
1.29041 -0.38170201 0.43148902
1.2917999 -0.384514 0.43227103
1.2858701 -0.38115001 0.42398101
1.29225 -0.38511002 0.42740604
1.28925 -0.38421398 0.420973
1.28179 -0.382622 0.41332105
1.27697 -0.38168401 0.40567103
1.2863499 -0.38419202 0.40126804
1.28325 -0.38117599 0.39544904
1.28853 -0.38471299 0.39684501
1.2867199 -0.38199002 0.38960403
1.28877 -0.385032 0.39219803
1.28625 -0.381484 0.38337106
1.28794 -0.38445801 0.38589603
1.2833501 -0.3813 0.37760001
1.29047 -0.38532799 0.37988403
1.28751 -0.38187698 0.37315002
1.2891499 -0.38484502 0.373757
1.2728701 -0.42089 0.36831301
1.2861501 -0.38226399 0.367046
1.2916499 -0.38604301 0.36864004
1.2920101 -0.38563702 0.36289802
1.29574 -0.30686599 0.61927301
1.28536 -0.31176701 0.61352301
1.30321 -0.30730399 0.61033404
1.30168 -0.41812199 0.61520106
1.29828 -0.34932998 0.60375899
1.2993 -0.35179099 0.59987605
1.29623 -0.36147299 0.60044003
1.31043 -0.38958001 0.60239005
1.2991999 -0.34575802 0.59550703
1.2972 -0.35386798 0.59611702
1.2966 -0.36095902 0.59522706
1.30787 -0.38643798 0.59676301
1.29579 -0.35292399 0.59153801
1.31005 -0.38826802 0.59216905
1.29539 -0.355041 0.58621198
1.3088299 -0.37898299 0.58480805
1.30188 -0.36107898 0.57883906
1.3010401 -0.35729301 0.57042605
1.28856 -0.41738302 0.576231
1.2964799 -0.35219601 0.56471205
1.3041 -0.35603401 0.56104904
1.28396 -0.35773101 0.54977202
1.2731199 -0.42134202 0.50528306
1.25392 -0.42598701 0.49682701
1.2745099 -0.42240399 0.49306405
1.25165 -0.42665198 0.48994905
1.27659 -0.42154098 0.487452
1.2600399 -0.42632499 0.48587906
1.2434 -0.43249199 0.48399404
1.27063 -0.42303601 0.48182601
1.25263 -0.42807302 0.47983003
1.28822 -0.41588798 0.47661605
1.2756801 -0.422014 0.47674504
1.2591701 -0.42700601 0.47587705
1.29333 -0.40970403 0.47274506
1.2882299 -0.41554698 0.47211903
1.28251 -0.42114398 0.47188005
1.25536 -0.42568299 0.46961203
1.29794 -0.39402401 0.46614003
1.29821 -0.399315 0.46639502
1.29537 -0.406773 0.46811703
1.28907 -0.41441199 0.46743202
1.2989399 -0.39467603 0.46155205
1.2960899 -0.39877701 0.46025103
1.29302 -0.40598702 0.46157104
1.2863001 -0.41404599 0.460325
1.2814701 -0.41870999 0.45843804
1.2977099 -0.395172 0.45527104
1.29559 -0.400415 0.45598203
1.2909 -0.40711498 0.45497
1.28291 -0.41369802 0.45337704
1.27625 -0.417593 0.45158204
1.2951601 -0.39423001 0.44888604
1.2939301 -0.39963999 0.44966805
1.2903301 -0.40801999 0.44831604
1.2805099 -0.414249 0.44732001
1.2777801 -0.418423 0.44707504
1.2973399 -0.39563501 0.44361904
1.2952299 -0.401216 0.44410905
1.29397 -0.407336 0.44297203
1.28863 -0.413993 0.44301102
1.2985801 -0.39581901 0.43808705
1.2962899 -0.40128899 0.43790105
1.29316 -0.40939 0.43856204
1.2863001 -0.41527 0.43670502
1.2989501 -0.39615899 0.43298003
1.2907001 -0.40887502 0.43214303
1.2861 -0.415263 0.43165204
1.28514 -0.41984403 0.431463
1.2936701 -0.40797001 0.42546901
1.2902299 -0.41585201 0.42775604
1.28865 -0.42074698 0.42566901
1.2955499 -0.39525601 0.41358104
1.2887801 -0.39022201 0.40493503
1.2883501 -0.39734599 0.40678504
1.2852499 -0.40765801 0.40613306
1.27776 -0.41482699 0.40600604
1.30019 -0.388684 0.401822
1.2906899 -0.39086699 0.40028405
1.2888401 -0.399524 0.40003204
1.28539 -0.40816799 0.39991605
1.27922 -0.41388303 0.40041202
1.28711 -0.38459203 0.39354002
1.2905999 -0.39193001 0.39484704
1.2898899 -0.398821 0.39500806
1.28623 -0.40623403 0.39433205
1.28327 -0.41390899 0.39595506
1.2840101 -0.38350299 0.38762006
1.29059 -0.39003199 0.39009404
1.2890601 -0.39767399 0.38964802
1.2852401 -0.40698102 0.38753304
1.28009 -0.41400599 0.38925704
1.2754 -0.41843799 0.38837203
1.2907699 -0.391415 0.38513604
1.28862 -0.39934599 0.38242903
1.2831199 -0.407868 0.38153803
1.2814101 -0.41404203 0.38360703
1.2769101 -0.418823 0.38287303
1.2875 -0.389916 0.376589
1.28721 -0.39706099 0.37597406
1.28686 -0.40668499 0.37654805
1.2791001 -0.414538 0.37691703
1.28582 -0.38979802 0.37010401
1.28936 -0.39968202 0.37218902
1.28784 -0.40656799 0.37101203
1.281 -0.41343102 0.37056804
1.2874401 -0.39844501 0.36621103
1.2832899 -0.407686 0.36442402
1.27683 -0.41576499 0.36451405
1.29676 -0.31139699 0.61266905
1.30038 -0.31013301 0.60808003
1.3029201 -0.419691 0.613617
1.29302 -0.35043702 0.59893805
1.29457 -0.350788 0.59401304
1.3099201 -0.39033499 0.59414202
1.28239 -0.340271 0.59082305
1.29849 -0.36006802 0.58182001
1.30372 -0.368384 0.58218199
1.2971699 -0.358592 0.57596105
1.2997999 -0.35632899 0.56789505
1.2739 -0.42278901 0.49967203
1.2530999 -0.426002 0.49841201
1.2727 -0.42298901 0.49436301
1.26104 -0.42708802 0.49358603
1.24516 -0.43248501 0.49247506
1.27112 -0.42269501 0.48842904
1.2546901 -0.42929599 0.48718703
1.2739 -0.42247799 0.48232704
1.26078 -0.42756698 0.481538
1.24588 -0.43372399 0.48068306
1.28228 -0.418084 0.47863701
1.2693 -0.42252102 0.47646603
1.25058 -0.427084 0.47442603
1.2947201 -0.388684 0.47037706
1.28936 -0.40951401 0.47215602
1.28399 -0.417573 0.47295105
1.2628701 -0.420187 0.46988502
1.2510099 -0.42471698 0.46926403
1.27351 -0.36596403 0.45698002
1.29668 -0.39259103 0.465819
1.29424 -0.40165001 0.46437103
1.29002 -0.410871 0.46706
1.2611699 -0.41740501 0.46488002
1.29076 -0.38999698 0.45851603
1.2945199 -0.40226799 0.45876405
1.29273 -0.410079 0.46056405
1.2855999 -0.41640499 0.46254402
1.27253 -0.37190899 0.44906402
1.2887199 -0.38689899 0.45268402
1.29074 -0.39868501 0.45258003
1.29483 -0.40936002 0.45520201
1.29099 -0.41484001 0.45518401
1.29131 -0.39219299 0.44734302
1.29231 -0.400906 0.44742003
1.29207 -0.40902901 0.44819504
1.28802 -0.41384 0.44808304
1.29379 -0.39605001 0.44171202
1.29333 -0.402417 0.44179302
1.2923199 -0.41010299 0.44226903
1.2920101 -0.41566798 0.44278604
1.2923801 -0.402136 0.43491703
1.2939 -0.41126701 0.436407
1.29063 -0.41652098 0.43656403
1.29425 -0.40484002 0.43069202
1.2908299 -0.41085997 0.42872402
1.2899001 -0.41763002 0.43000603
1.26592 -0.415907 0.41905102
1.28651 -0.39488801 0.41416004
1.2853301 -0.39939603 0.40963504
1.27995 -0.40886399 0.40977401
1.2340699 -0.41234198 0.40211904
1.2843801 -0.39451399 0.40379703
1.2861099 -0.40227699 0.40338302
1.28014 -0.40929499 0.40273303
1.2859801 -0.39633399 0.39729005
1.28864 -0.402547 0.39823705
1.28422 -0.408176 0.39802104
1.23676 -0.415023 0.39214504
1.2881799 -0.396846 0.39189804
1.28644 -0.40220001 0.39182004
1.2809399 -0.41102698 0.39224502
1.28662 -0.39639199 0.38597906
1.2842599 -0.400978 0.38434902
1.27996 -0.40837601 0.38481903
1.28804 -0.398368 0.37922603
1.28705 -0.40486899 0.38007405
1.2839799 -0.41111901 0.38062602
1.27315 -0.41525501 0.37907001
1.28862 -0.39816898 0.37207603
1.28687 -0.403736 0.37391204
1.28204 -0.41094798 0.37521502
1.28697 -0.39774501 0.36538401
1.28804 -0.40310398 0.36827603
1.28143 -0.41055599 0.36749303
1.2862899 -0.41233501 0.36260304
1.2775 -0.41713902 0.36122403
1.2863699 -0.305641 0.61836207
1.25831 -0.40783599 0.62810802
1.2989 -0.30470899 0.60999507
1.2978301 -0.36128399 0.600263
1.2935801 -0.34804299 0.59485203
1.2973599 -0.36105901 0.59422004
1.3095599 -0.38937199 0.59825903
1.28461 -0.34035197 0.591196
1.2955999 -0.358123 0.59013003
1.30033 -0.37195399 0.58980602
1.30599 -0.388807 0.59130204
1.30265 -0.36841401 0.583646
1.30515 -0.389382 0.585235
1.2849801 -0.41553399 0.57994604
1.27842 -0.42773801 0.56238204
1.21999 -0.41172001 0.51036406
1.25422 -0.42661098 0.49850503
1.27202 -0.42592898 0.49309599
1.25416 -0.43013901 0.49191201
1.28266 -0.421473 0.48815304
1.2742 -0.42612898 0.48776802
1.26247 -0.429144 0.486855
1.2484 -0.434214 0.48585501
1.27604 -0.42556801 0.482582
1.2593499 -0.429685 0.48049805
1.29193 -0.37763801 0.46940303
1.28951 -0.42066503 0.47695601
1.27203 -0.42519501 0.47527406
1.2542701 -0.428691 0.47373101
1.2969501 -0.39103803 0.46897903
1.2846 -0.421076 0.47001305
1.2702 -0.42506599 0.46896502
1.2743801 -0.36385798 0.45598403
1.29495 -0.392122 0.46227506
1.2975399 -0.406679 0.46367005
1.28894 -0.41442502 0.46343705
1.28174 -0.42127401 0.46420002
1.2700801 -0.42303601 0.46249801
1.29339 -0.390742 0.45541301
1.29742 -0.40266401 0.45796704
1.2946401 -0.41253501 0.45795402
1.28289 -0.41890597 0.45694301
1.27256 -0.420993 0.45582303
1.29207 -0.39096099 0.44872606
1.29381 -0.403014 0.45101401
1.2901801 -0.41328701 0.45171303
1.2841499 -0.418778 0.44990802
1.2752 -0.42137101 0.44968703
1.28116 -0.38387099 0.43906403
1.29502 -0.40140998 0.44380704
1.29017 -0.41280702 0.44446805
1.28216 -0.420111 0.44426402
1.27473 -0.37659198 0.43303803
1.2942799 -0.40594798 0.43790203
1.2974899 -0.417137 0.43952504
1.28584 -0.42015597 0.43804702
1.2784101 -0.42374501 0.43930903
1.28782 -0.39166802 0.43047506
1.2953501 -0.40391499 0.43176001
1.29403 -0.41529599 0.43260401
1.2908901 -0.42387402 0.43255803
1.2828701 -0.42547101 0.43358603
1.29678 -0.40897301 0.42639804
1.29748 -0.41740298 0.42770702
1.2923 -0.42247799 0.42731601
1.28193 -0.392667 0.41404903
1.2929801 -0.415281 0.42199302
1.27999 -0.39743999 0.40859804
1.27119 -0.38358298 0.39890403
1.28019 -0.39849898 0.40136704
1.27877 -0.41012999 0.40520105
1.24044 -0.41601899 0.39980504
1.2844 -0.40136397 0.39655602
1.2820899 -0.41015097 0.39843503
1.28204 -0.39740503 0.39047301
1.28505 -0.409749 0.39263803
1.27961 -0.417826 0.39310002
1.27211 -0.422768 0.39283204
1.2826401 -0.39308101 0.38381103
1.28822 -0.405242 0.386379
1.28241 -0.413194 0.38653404
1.27707 -0.42023101 0.38663402
1.2733001 -0.42424598 0.38655803
1.2839999 -0.39503601 0.37788704
1.28418 -0.40087003 0.37890702
1.2877901 -0.412034 0.38109604
1.28192 -0.419698 0.38097405
1.27253 -0.423599 0.37947601
1.28728 -0.398166 0.37265503
1.28933 -0.40613499 0.37497303
1.2859399 -0.413782 0.37478504
1.27986 -0.421424 0.37413606
1.28877 -0.39958999 0.36649802
1.2896401 -0.40724799 0.36802402
1.2835499 -0.41531798 0.36868003
1.2757599 -0.422308 0.36633101
1.25085 -0.430154 0.36272305
1.2920599 -0.40847501 0.36215302
1.28364 -0.41423699 0.36152703
1.2816499 -0.42406601 0.36220604
1.2712899 -0.42892399 0.36042202
