# .PCD v0.7 - Point Cloud Data file format
VERSION 0.7
FIELDS x y z
SIZE 4 4 4
TYPE F F F
COUNT 1 1 1
WIDTH 1549
HEIGHT 1
VIEWPOINT 0 0 0 1 0 0 0
POINTS 1549
DATA ascii
1.3121201 -0.443744 0.60804605
1.3124601 -0.45375901 0.60707206
1.3155999 -0.460278 0.60579103
1.29584 -0.30217898 0.61071306
1.29304 -0.306584 0.61018103
1.29851 -0.36016101 0.60990602
1.30112 -0.36543 0.609662
1.30725 -0.37392601 0.61109602
1.3085899 -0.38347301 0.61063302
1.3038601 -0.394499 0.60818201
1.30327 -0.40557203 0.607526
1.30542 -0.414056 0.60891002
1.31036 -0.42215902 0.60701102
1.3136001 -0.430612 0.605501
1.3197701 -0.43846199 0.60533702
1.32218 -0.44724602 0.60564101
1.3235 -0.45541599 0.60423905
1.32881 -0.46323502 0.60209304
1.2980499 -0.30238399 0.60731101
1.2961501 -0.306003 0.60776502
1.2967399 -0.31227601 0.60565603
1.27845 -0.332672 0.60072803
1.29634 -0.35867801 0.60441804
1.29731 -0.36612099 0.60324305
1.3017399 -0.373155 0.60528404
1.30388 -0.38322103 0.60493201
1.29836 -0.39372101 0.60247606
1.3000301 -0.40235099 0.60260201
1.3054601 -0.41364101 0.60341907
1.3124299 -0.42454299 0.60239303
1.3173399 -0.43307498 0.60146201
1.31756 -0.44072101 0.60101402
1.3211501 -0.447925 0.60109901
1.3284199 -0.45631 0.59978002
1.3333299 -0.46449101 0.59777606
1.3274001 -0.476769 0.59669107
1.32435 -0.48841 0.59485406
1.3299099 -0.494818 0.59338003
1.29245 -0.30472401 0.60308903
1.29995 -0.30670699 0.60385805
1.30084 -0.31336999 0.60165703
1.2943 -0.325214 0.59954506
1.29105 -0.33645803 0.59890503
1.2886 -0.34938598 0.59843707
1.2956599 -0.35799399 0.59958404
1.29636 -0.366007 0.59753698
1.29925 -0.376068 0.59931105
1.3011301 -0.38581502 0.59931904
1.2891099 -0.39733899 0.59741402
1.28599 -0.406546 0.59767705
1.3022701 -0.42587897 0.59914505
1.30961 -0.434075 0.59779906
1.3209399 -0.44050398 0.59733802
1.32748 -0.44937 0.59651601
1.33419 -0.456339 0.59600604
1.3350501 -0.46342 0.59449202
1.32899 -0.476109 0.593086
1.32883 -0.48699799 0.59251302
1.3337801 -0.49531102 0.59030002
1.3293201 -0.50497401 0.58898705
1.34297 -0.51099998 0.58797002
1.3037699 -0.30835199 0.59952301
1.29522 -0.31775799 0.59648401
1.2933201 -0.326949 0.59432101
1.2915699 -0.33780399 0.59504402
1.2877001 -0.34849399 0.59421301
1.29322 -0.35626999 0.59419602
1.30235 -0.363839 0.59243506
1.2962601 -0.37559101 0.59267402
1.2951199 -0.38666001 0.59348905
1.2863201 -0.39727798 0.59300202
1.3085699 -0.44306499 0.59365004
1.31536 -0.45004901 0.59303904
1.3284199 -0.45714802 0.59282404
1.33113 -0.46720502 0.59149706
1.32657 -0.47851002 0.58994806
1.33061 -0.488087 0.58895105
1.33777 -0.49496201 0.58752108
1.33513 -0.505638 0.58582306
1.34674 -0.51369303 0.58481705
1.29582 -0.313425 0.59365302
1.2946 -0.32014501 0.59185004
1.2957801 -0.32640201 0.59082603
1.29079 -0.336447 0.58941197
1.2930901 -0.34733897 0.58988702
1.29811 -0.35706502 0.58887506
1.30295 -0.36366001 0.58815902
1.3028799 -0.372062 0.58731705
1.29819 -0.383167 0.58735102
1.2858 -0.39397299 0.587098
1.334 -0.49789602 0.58473802
1.3283 -0.508928 0.582358
1.3425701 -0.513578 0.58173907
1.2858 -0.32144099 0.58894902
1.2866499 -0.32890302 0.58746803
1.2879201 -0.33883998 0.58434904
1.29091 -0.34642801 0.58372504
1.2961301 -0.354269 0.58436203
1.30294 -0.36286098 0.58320904
1.3020799 -0.37331402 0.58182603
1.3010001 -0.381118 0.582434
1.28588 -0.39371899 0.57931006
1.28417 -0.34865102 0.57720304
1.29405 -0.35522801 0.57789505
1.2967 -0.363599 0.57752806
1.3003501 -0.37071201 0.57719606
1.2990601 -0.38184398 0.57649404
1.28266 -0.397048 0.57203603
1.2674199 -0.40880403 0.57023102
1.26853 -0.348481 0.56940198
1.28351 -0.35138598 0.57144904
1.29467 -0.35564601 0.57254201
1.2968899 -0.36320001 0.57273
1.3004899 -0.37286401 0.57172304
1.2964 -0.384514 0.56989598
1.2839301 -0.397248 0.56710601
1.2763 -0.40779701 0.56599104
1.26492 -0.41621101 0.56536001
1.26589 -0.34791601 0.56459206
1.28022 -0.34939 0.56526107
1.2932 -0.356208 0.56727701
1.3017 -0.364456 0.56766003
1.3002299 -0.37436298 0.56536901
1.29386 -0.38725102 0.56398904
1.28299 -0.40057498 0.56201398
1.27473 -0.41059503 0.56058204
1.2689199 -0.41625199 0.56124002
1.27765 -0.34325501 0.56118399
1.2809399 -0.34687698 0.559793
1.2900599 -0.35301998 0.56082505
1.29628 -0.364057 0.56083703
1.29933 -0.37273103 0.56057304
1.29848 -0.38120601 0.55969304
1.29056 -0.39427602 0.557293
1.27887 -0.407906 0.55586404
1.2747 -0.415093 0.55613703
1.28319 -0.331999 0.553644
1.28703 -0.33819598 0.55565
1.28996 -0.34563401 0.55588305
1.2903399 -0.35517502 0.55518502
1.29242 -0.36444402 0.55347002
1.2981 -0.37278402 0.55589002
1.29656 -0.38317502 0.55382001
1.2899801 -0.39402401 0.55165803
1.2846401 -0.403842 0.55101705
1.27825 -0.41363999 0.54925001
1.27937 -0.31388399 0.54786003
1.2878599 -0.31765199 0.54889601
1.29224 -0.327005 0.55052102
1.28996 -0.33794498 0.551
1.2889199 -0.34741798 0.55109
1.2887601 -0.35556301 0.54930103
1.28908 -0.36453602 0.54766405
1.29251 -0.37486303 0.54840708
1.29154 -0.38708198 0.54770398
1.29039 -0.39631501 0.54744804
1.2809 -0.40712202 0.54508704
1.27547 -0.41574699 0.54305303
1.28899 -0.415535 0.54459208
1.35741 -0.411244 0.54555804
1.29048 -0.310835 0.54575104
1.29161 -0.31830901 0.54634404
1.2955 -0.32444099 0.54695803
1.29353 -0.33237302 0.54635102
1.28898 -0.34488299 0.54537404
1.28509 -0.35714802 0.542795
1.29116 -0.36642602 0.54306203
1.2959501 -0.37420398 0.54280204
1.29608 -0.38230899 0.54360503
1.29198 -0.39442298 0.54185206
1.2840899 -0.40724999 0.54052806
1.2942101 -0.41035998 0.54040003
1.35642 -0.40657601 0.54320407
1.3719901 -0.40777999 0.54474604
1.28782 -0.296857 0.53831601
1.2916299 -0.30490699 0.540438
1.29213 -0.31431299 0.541219
1.2931199 -0.32410598 0.54265904
1.2896899 -0.33505902 0.54071307
1.2814 -0.348894 0.53789204
1.28192 -0.356846 0.53775305
1.28681 -0.36334598 0.53773999
1.2905999 -0.37236801 0.53744298
1.29531 -0.38176399 0.53784007
1.29399 -0.39166 0.53573006
1.2959199 -0.40192199 0.53612006
1.32601 -0.40448397 0.53748804
1.35513 -0.405341 0.54029304
1.3666201 -0.40995702 0.54124308
1.36543 -0.41615501 0.54024506
1.28845 -0.28978598 0.53505903
1.2909199 -0.29640499 0.53573501
1.2910899 -0.305646 0.53688502
1.2885499 -0.31287801 0.53575701
1.29091 -0.323158 0.53727704
1.27315 -0.34286898 0.53342199
1.27368 -0.35183498 0.53172302
1.2789 -0.35783002 0.53311604
1.2897201 -0.36497399 0.53217405
1.29515 -0.374015 0.53309005
1.29459 -0.38340402 0.53156203
1.29716 -0.39286599 0.53094804
1.30849 -0.400107 0.53097898
1.32312 -0.40393001 0.53287905
1.3392301 -0.406039 0.53528506
1.3587199 -0.41013598 0.53771603
1.38183 -0.41229802 0.538077
1.3703301 -0.419292 0.53758001
1.2856899 -0.28298402 0.53123903
1.2899899 -0.28721499 0.53140801
1.2909 -0.29408002 0.53097308
1.29176 -0.30291799 0.53222901
1.2849699 -0.31242201 0.53178602
1.26624 -0.35458699 0.52673101
1.2811501 -0.35789901 0.52807206
1.28837 -0.364499 0.526205
1.2946899 -0.37365898 0.52661103
1.29668 -0.38496497 0.52621198
1.3027 -0.392809 0.52639502
1.30548 -0.39970198 0.52447206
1.31793 -0.40377498 0.52748799
1.30433 -0.41138402 0.52303702
1.40944 -0.407648 0.53545403
1.4138901 -0.411116 0.53437304
1.2849699 -0.273752 0.52469403
1.2928799 -0.278346 0.52709204
1.29392 -0.28532898 0.52686203
1.29256 -0.294532 0.52781904
1.2804101 -0.303626 0.52673602
1.28531 -0.35907102 0.52221304
1.2909801 -0.36615601 0.52128702
1.29898 -0.372457 0.52108902
1.30294 -0.379412 0.52231604
1.3028901 -0.39057299 0.52057403
1.3037801 -0.399782 0.51968306
1.30839 -0.40595698 0.51961005
1.32125 -0.41827899 0.51491004
1.4154401 -0.40773702 0.53107804
1.29782 -0.27076399 0.52295202
1.2937601 -0.27721301 0.52289408
1.2979801 -0.28140101 0.522237
1.2928599 -0.29054999 0.52322203
1.28531 -0.360416 0.51492906
1.2887801 -0.36413503 0.51667702
1.29557 -0.37013501 0.51610506
1.3014301 -0.37950501 0.51608706
1.3083701 -0.388854 0.51443601
1.303 -0.40069801 0.51475108
1.30337 -0.40913102 0.51385903
1.31613 -0.412994 0.51359302
1.33759 -0.415456 0.51410204
1.40504 -0.40907699 0.52508706
1.29711 -0.26877701 0.51817507
1.29931 -0.27353299 0.51847702
1.29693 -0.27974901 0.51750702
1.2899699 -0.35919997 0.50970507
1.28976 -0.36455002 0.51127601
1.3007201 -0.370913 0.51036102
1.3092301 -0.38008201 0.51073599
1.3096499 -0.38868698 0.50946003
1.31078 -0.39692199 0.50991607
1.3076199 -0.407841 0.509942
1.32221 -0.41287398 0.50905699
1.3438499 -0.415014 0.51174003
1.3729401 -0.413147 0.51697105
1.4060899 -0.41080102 0.52268404
1.2885699 -0.25161201 0.50856102
1.2995399 -0.25552499 0.51074499
1.30076 -0.26512 0.51374507
1.29922 -0.27184701 0.51343608
1.28558 -0.27972999 0.51124603
1.28502 -0.360037 0.50439203
1.29203 -0.36364299 0.50528604
1.30084 -0.36923301 0.50433105
1.3092901 -0.37663102 0.50525206
1.31384 -0.38435298 0.50642401
1.3125501 -0.39333802 0.50504106
1.31362 -0.40412799 0.50461602
1.3208299 -0.41047001 0.50385702
1.33209 -0.414969 0.50643504
1.34953 -0.41732299 0.51025099
1.29493 -0.232866 0.50469506
1.3059 -0.236728 0.50636303
1.30197 -0.24702901 0.50761408
1.3029201 -0.25337401 0.508542
1.29925 -0.262283 0.50937504
1.2960601 -0.27138999 0.50995904
1.28794 -0.359918 0.49996802
1.2955201 -0.36413801 0.49907303
1.30765 -0.36985803 0.500615
1.31033 -0.37670201 0.50064802
1.3129699 -0.38404801 0.50092906
1.31365 -0.39470798 0.49955505
1.30905 -0.405588 0.49788705
1.30925 -0.41300499 0.49814302
1.3000799 -0.23193701 0.50218201
1.3053501 -0.23608999 0.50294703
1.30457 -0.242682 0.50378603
1.3031 -0.250808 0.50530702
1.2867999 -0.360827 0.49276602
1.29812 -0.363455 0.49374503
1.30022 -0.36950502 0.49503502
1.3103399 -0.37600601 0.49606705
1.3116601 -0.385939 0.49471405
1.3077099 -0.39665401 0.49283502
1.3006301 -0.40596402 0.49117807
1.2965699 -0.230799 0.49665001
1.3042599 -0.23451701 0.49860802
1.3068299 -0.239933 0.49987602
1.30336 -0.245823 0.49991304
1.28602 -0.35998002 0.48601905
1.2906799 -0.36424598 0.48765206
1.3014901 -0.370125 0.48982003
1.3098301 -0.37790298 0.49052304
1.3072701 -0.38713002 0.48832202
1.3001801 -0.39755902 0.48608401
1.29079 -0.40555698 0.48402801
1.2975301 -0.22909001 0.49223205
1.29851 -0.233209 0.49246705
1.3022701 -0.238409 0.49388406
1.28089 -0.36045897 0.47956505
1.2888499 -0.36348802 0.48190004
1.29735 -0.36855599 0.48395005
1.30414 -0.37704101 0.48391503
1.30019 -0.38889098 0.48127204
1.28965 -0.39912701 0.47876799
1.29763 -0.22785601 0.48723403
1.2956101 -0.23314899 0.48678407
1.29207 -0.238314 0.48608804
1.28254 -0.359272 0.47472304
1.28837 -0.362396 0.47694701
1.29607 -0.368821 0.47775406
1.30592 -0.37790501 0.47699106
1.29491 -0.39071 0.47454101
1.2847301 -0.39900601 0.47233802
1.29073 -0.22286801 0.48093805
1.29545 -0.22649401 0.48151603
1.2942901 -0.231497 0.48091301
1.28513 -0.35833901 0.47078502
1.2948599 -0.361092 0.47246003
1.31112 -0.36658999 0.47325301
1.3107699 -0.375018 0.47275001
1.2998101 -0.38534501 0.47022605
1.28634 -0.39610198 0.46691802
1.2975999 -0.218593 0.47662503
1.2961099 -0.22440201 0.47629502
1.2880701 -0.230436 0.47438803
1.29965 -0.35490298 0.46884903
1.3172799 -0.35610902 0.46981904
1.3215401 -0.362555 0.47018501
1.3129201 -0.37310699 0.46841004
1.2961 -0.386904 0.46373603
1.2856599 -0.39577302 0.45991302
1.29915 -0.209548 0.47104505
1.3006599 -0.21530099 0.47222304
1.29373 -0.22326 0.47179902
1.2837199 -0.23042999 0.47052002
1.31935 -0.349114 0.46659905
1.3310601 -0.350117 0.46676704
1.32248 -0.36093798 0.46544003
1.30952 -0.37478802 0.46168202
1.2927099 -0.38824201 0.45705903
1.28093 -0.39714599 0.45294601
1.2997999 -0.21276501 0.46785301
1.33618 -0.34332401 0.46366203
1.3316001 -0.350319 0.46208405
1.3177299 -0.363089 0.45851901
1.30013 -0.377664 0.45401901
1.29041 -0.388877 0.45083404
1.27493 -0.39949101 0.44574106
1.3362399 -0.33897302 0.45926502
1.33909 -0.34232602 0.45976704
1.3221899 -0.35314202 0.45506704
1.30373 -0.367241 0.44997606
1.29325 -0.38015801 0.44680005
1.28513 -0.39158401 0.44383103
1.2721801 -0.40278301 0.43878305
1.3942 -0.299799 0.46269304
1.4027499 -0.302176 0.46396905
1.4003501 -0.30694202 0.46364704
1.32853 -0.34564301 0.45338002
1.30765 -0.357793 0.44663104
1.2961999 -0.37063399 0.44191605
1.2865601 -0.38435 0.43951502
1.2790101 -0.396088 0.43665603
1.26974 -0.40606201 0.43317702
1.25743 -0.41385299 0.43058503
1.3964599 -0.29194501 0.45961502
1.4018101 -0.30629599 0.46121302
1.31319 -0.351062 0.44532204
1.2930701 -0.36271998 0.43670502
1.2923399 -0.37064701 0.43542004
1.291 -0.37966901 0.43497103
1.28476 -0.39131501 0.43290302
1.2743 -0.40369499 0.42960003
1.2715499 -0.41089198 0.42802903
1.278 -0.36096299 0.42719203
1.2859801 -0.36390498 0.42936301
1.29211 -0.36821201 0.43154502
1.29282 -0.37603199 0.43035203
1.28742 -0.38740003 0.42801902
1.28439 -0.398193 0.42656803
1.27583 -0.40929198 0.42359602
1.2664701 -0.41820499 0.41953504
1.27179 -0.360955 0.42050004
1.28176 -0.36388502 0.42345402
1.2876899 -0.37006301 0.42550603
1.2895399 -0.37967399 0.42319003
1.28771 -0.39122298 0.42221203
1.28037 -0.402482 0.42046204
1.276 -0.410833 0.41753304
1.2646 -0.41993901 0.41282704
1.25942 -0.36363801 0.41221201
1.2764801 -0.36377898 0.41736102
1.28467 -0.37103599 0.41811603
1.2904299 -0.37850103 0.41840702
1.2886 -0.38713199 0.41718805
1.2813201 -0.40033901 0.41482803
1.27153 -0.41239601 0.41052303
1.2594399 -0.42143199 0.40607002
1.25304 -0.36444402 0.40513906
1.2735 -0.365518 0.41053703
1.2847199 -0.371851 0.41163203
1.28917 -0.378878 0.41371304
1.28528 -0.389476 0.41082904
1.27593 -0.40239298 0.40710002
1.26573 -0.41359001 0.40371403
1.25521 -0.421615 0.40075803
1.2459999 -0.36530998 0.39904803
1.2555001 -0.36765999 0.40069604
1.2769101 -0.37109903 0.40405902
1.2850599 -0.38000098 0.40686801
1.27545 -0.39297298 0.40235603
1.25893 -0.40740299 0.39762104
1.25314 -0.41589698 0.39653003
1.25695 -0.36281502 0.39702404
1.26586 -0.366074 0.39711803
1.2741899 -0.37185699 0.39704904
1.2808 -0.38081101 0.39861202
1.26993 -0.395174 0.39508602
1.25333 -0.407727 0.39155704
1.26122 -0.36263198 0.392111
1.2753501 -0.36497799 0.39263004
1.2839999 -0.37232399 0.39432201
1.2839999 -0.37963402 0.39392903
1.2803999 -0.38777801 0.39209405
1.2655001 -0.39978299 0.38762203
1.26958 -0.360448 0.38749406
1.27784 -0.363565 0.38649902
1.28026 -0.37151298 0.38778201
1.28543 -0.37931401 0.38954705
1.27678 -0.390533 0.38449901
1.26723 -0.39916301 0.38146102
1.27107 -0.359501 0.38070503
1.2803199 -0.36292702 0.38148004
1.2833 -0.369773 0.38262901
1.28382 -0.37995201 0.38274804
1.2785801 -0.38984001 0.37948605
1.26749 -0.399497 0.37489003
1.2690101 -0.359036 0.37453705
1.27739 -0.362093 0.37558001
1.2852401 -0.36835399 0.37753704
1.28618 -0.37670201 0.37796801
1.27877 -0.38875401 0.37441903
1.2631301 -0.402915 0.36684904
1.24912 -0.41212201 0.36350903
1.26993 -0.358751 0.36870903
1.2776101 -0.36278802 0.36965203
1.2813201 -0.36840099 0.37148902
1.2853301 -0.377967 0.37110505
1.2764801 -0.39175498 0.36738101
1.2615499 -0.40479499 0.36017203
1.26606 -0.35898301 0.36239403
1.2738 -0.36249599 0.36300603
1.28297 -0.36972302 0.36591804
1.28688 -0.37767398 0.36571202
1.2789 -0.389431 0.36178103
1.28478 -0.37770098 0.36048004
1.19866 -0.34541199 0.65872198
1.1943901 -0.34421101 0.65592605
1.1960601 -0.340536 0.65582705
1.1999199 -0.33734101 0.65089399
1.19478 -0.34349799 0.65088302
1.19362 -0.33887601 0.65244806
1.2001899 -0.33686 0.64562201
1.2026401 -0.34356999 0.65165603
1.20544 -0.34012401 0.652228
1.212 -0.33828098 0.64661705
1.20122 -0.34335601 0.64249003
1.20435 -0.34019902 0.643255
1.1965799 -0.34364399 0.63215303
1.19911 -0.338707 0.63472104
1.19902 -0.35124999 0.61755103
1.19258 -0.34379199 0.62555307
1.19758 -0.33925301 0.62572706
1.20543 -0.33510199 0.61680406
1.1937001 -0.35058603 0.61307502
1.19412 -0.34520501 0.61612803
1.1955 -0.33794898 0.61816305
1.20663 -0.333507 0.60617501
1.21549 -0.33216703 0.59995502
1.1989 -0.358861 0.59720504
1.19556 -0.35266 0.60255903
1.19361 -0.34486499 0.60965806
1.2016001 -0.33883202 0.602844
1.20512 -0.33237401 0.60074401
1.21057 -0.32956201 0.59858
1.1937799 -0.35240898 0.59955508
1.19656 -0.34585202 0.59989107
1.20234 -0.337457 0.59696603
1.2139701 -0.33533502 0.58739305
1.24018 -0.342682 0.65520597
1.23138 -0.33873901 0.65544504
1.20363 -0.34309301 0.65855706
1.22251 -0.34132802 0.65120405
1.20039 -0.343593 0.64935499
1.2037799 -0.33905399 0.65321505
1.19473 -0.34717301 0.64099604
1.19744 -0.34271598 0.64371604
1.1982 -0.33788502 0.64686102
1.18938 -0.345395 0.63747603
1.19312 -0.34245601 0.63557303
1.19543 -0.33786097 0.63933301
1.18856 -0.34514701 0.62907302
1.1917701 -0.34194002 0.62489104
1.19195 -0.33712003 0.63089502
1.18874 -0.34458402 0.61737704
1.18999 -0.34065101 0.61834502
1.19405 -0.337668 0.61695307
1.21237 -0.33890098 0.59315199
1.18933 -0.34517503 0.604505
1.19188 -0.341158 0.60854506
1.20103 -0.33901402 0.59896803
1.20956 -0.33777198 0.590617
1.18999 -0.345727 0.59180504
1.19326 -0.34151798 0.596165
1.19822 -0.33775699 0.59204406
1.1847399 -0.34323397 0.58545899
1.19083 -0.34062099 0.58583903
1.19558 -0.33763301 0.58355802
1.17967 -0.340666 0.58108002
1.18217 -0.33699101 0.58101106
1.18686 -0.33404401 0.58205205
1.17259 -0.33612001 0.57888705
1.17478 -0.332461 0.57899803
1.1792901 -0.33056399 0.57633203
1.16997 -0.33578399 0.57030505
1.17326 -0.33233202 0.569924
1.178 -0.329795 0.56401998
1.16635 -0.33554402 0.56152701
1.176 -0.33451301 0.55404502
1.18223 -0.33278 0.54738802
1.16688 -0.34686601 0.54045105
1.1677999 -0.33752498 0.54935104
1.17651 -0.33603099 0.54177999
1.18576 -0.33623201 0.53327501
1.16456 -0.355939 0.52695304
1.1636 -0.348178 0.53390306
1.1695501 -0.34233898 0.53409803
1.17933 -0.33909801 0.52622205
1.20017 -0.34298199 0.49687102
1.1653299 -0.36338699 0.516312
1.1620899 -0.35512403 0.52187604
1.16695 -0.35100499 0.52160805
1.17461 -0.34486902 0.51657903
1.1862999 -0.34121102 0.50516403
1.20002 -0.343099 0.492163
1.1745501 -0.358816 0.49335402
1.1717501 -0.35190299 0.50463903
1.1779901 -0.34513301 0.50286806
1.18397 -0.34079301 0.49613106
1.19373 -0.33988702 0.49148804
1.17597 -0.35346699 0.48905304
1.1765599 -0.34597901 0.49404904
1.1810299 -0.33998901 0.49022201
1.1873001 -0.33674899 0.48757303
1.18082 -0.35611099 0.47707406
1.17681 -0.34546602 0.48642305
1.18303 -0.339683 0.48332405
1.1869301 -0.33566502 0.48228806
1.2032599 -0.34142503 0.65593004
1.2081 -0.333543 0.65649199
1.1998 -0.34130698 0.64716804
1.2042099 -0.33688501 0.65041405
1.2066001 -0.33320701 0.64639401
1.20096 -0.35504398 0.62690198
1.19707 -0.344179 0.63659805
1.20151 -0.337385 0.63956904
1.20804 -0.33462399 0.63320804
1.19039 -0.34608102 0.63224703
1.1943099 -0.34136599 0.63178504
1.20093 -0.336404 0.62893903
1.20526 -0.332371 0.62503904
1.18944 -0.34419399 0.62296301
1.19392 -0.33943698 0.62358803
1.1985199 -0.33401901 0.62116301
1.20618 -0.332847 0.61369401
1.1912301 -0.34782299 0.60670203
1.19405 -0.340489 0.61168307
1.20145 -0.33586898 0.60855806
1.2022799 -0.331025 0.60713702
1.19008 -0.348582 0.59780604
1.19407 -0.34487098 0.59729403
1.19681 -0.33598202 0.60070503
1.2026 -0.33329201 0.59640002
1.1887699 -0.34794399 0.58992499
1.19173 -0.34222698 0.58898401
1.19315 -0.334398 0.59158808
1.18542 -0.34605598 0.57959503
1.1855999 -0.337782 0.58273703
1.19154 -0.335096 0.58072001
1.1839499 -0.355461 0.56244707
1.18045 -0.343651 0.57295108
1.18126 -0.33601001 0.57668602
1.18565 -0.33303797 0.57466298
1.17957 -0.35481602 0.55604398
1.1767 -0.34499198 0.56418604
1.1771801 -0.334782 0.57019705
1.1824 -0.33145401 0.56448305
1.1773 -0.35426 0.54759103
1.17198 -0.33861899 0.56216806
1.17599 -0.33342603 0.55919504
1.18334 -0.33206001 0.55115706
1.17144 -0.35022399 0.54268909
1.16945 -0.33970201 0.55083603
1.1776299 -0.335601 0.54476804
1.18223 -0.33191502 0.540995
1.16615 -0.34659302 0.53720099
1.1700701 -0.34070599 0.53725904
1.17928 -0.33750701 0.53114504
1.19048 -0.33953899 0.52131104
1.16642 -0.35281 0.522434
1.16706 -0.34720099 0.52605605
1.17487 -0.34430099 0.52044904
1.17863 -0.338265 0.51960403
1.1682299 -0.346953 0.51363701
1.17519 -0.34380099 0.50981605
1.18094 -0.34039602 0.50197107
1.17755 -0.35406101 0.48757201
1.1762 -0.345283 0.49698302
1.18255 -0.34134799 0.48866105
1.1908799 -0.34103 0.48323205
1.1796399 -0.35551202 0.47231606
1.17672 -0.345947 0.48418003
1.18187 -0.34142101 0.47901103
1.1842099 -0.33584598 0.48053101
1.1803501 -0.35587201 0.46011502
1.17671 -0.346093 0.47268704
1.18004 -0.33973899 0.47137803
1.18721 -0.33859101 0.46581101
1.17925 -0.35389099 0.452032
1.17497 -0.344217 0.46354201
1.17641 -0.33778098 0.46355101
1.1773601 -0.356727 0.42765602
1.1715599 -0.34175301 0.45404103
1.17454 -0.337901 0.45306304
1.17611 -0.355598 0.424308
1.17168 -0.34567699 0.43461001
1.16977 -0.33672401 0.44610801
1.16977 -0.350306 0.42469802
1.1676 -0.34268102 0.42834905
1.17062 -0.33915299 0.42916602
1.16517 -0.34538299 0.42046002
1.16571 -0.34000999 0.42296603
1.16828 -0.33661097 0.42148101
1.1636699 -0.344248 0.41527301
1.1649801 -0.33948898 0.41698501
1.16847 -0.33706 0.41460305
1.27924 -0.392331 0.65647507
1.27964 -0.39264402 0.65209109
1.23694 -0.39554298 0.65461004
1.2346901 -0.39048699 0.65566003
1.2326599 -0.38657397 0.65240908
1.24151 -0.398698 0.64192802
1.23511 -0.39721403 0.64565301
1.2321399 -0.39247 0.648826
1.2300299 -0.38697299 0.64392906
1.23384 -0.39797002 0.63721406
1.22943 -0.39274397 0.63904005
1.22436 -0.38752401 0.63767403
1.23553 -0.396274 0.62462598
1.22539 -0.39559701 0.63122702
1.22123 -0.38921002 0.63242203
1.22077 -0.38319302 0.62954199
1.23088 -0.39721802 0.61742103
1.21969 -0.39732799 0.62575603
1.2177501 -0.391839 0.62739503
1.21553 -0.38678399 0.626037
1.22881 -0.39940399 0.60813504
1.2196701 -0.398415 0.61671805
1.21386 -0.39389899 0.62201303
1.21486 -0.38766101 0.61691099
1.2283 -0.40011901 0.59947902
1.21917 -0.40040797 0.60733902
1.2144001 -0.395262 0.61012405
1.22335 -0.40214199 0.59380603
1.216 -0.39983001 0.60006303
1.21382 -0.39402699 0.595487
1.22171 -0.40554699 0.58206403
1.21612 -0.398974 0.58743399
1.2101899 -0.393621 0.58762002
1.21737 -0.38523102 0.58162707
1.22912 -0.408577 0.56878805
1.22243 -0.40742299 0.57258606
1.21631 -0.40146899 0.57569605
1.2103601 -0.39423501 0.57913804
1.19788 -0.39128503 0.58316702
1.20192 -0.38103101 0.57399303
1.22506 -0.41073599 0.56338102
1.21902 -0.40722302 0.56687403
1.2118801 -0.40286201 0.57080507
1.2046 -0.39628601 0.57248002
1.19274 -0.39201599 0.57869804
1.18925 -0.38871497 0.58159101
1.22786 -0.40830299 0.54947203
1.22086 -0.40625998 0.55467004
1.2101001 -0.40343899 0.56368303
1.2032 -0.396027 0.56068605
1.1922799 -0.39302701 0.57018203
1.18729 -0.38945702 0.57493401
1.2179101 -0.40658799 0.54521602
1.2104499 -0.40178201 0.55004102
1.20187 -0.39554 0.55128103
1.19355 -0.39263001 0.55838501
1.1860399 -0.39110002 0.56637204
1.2149299 -0.40634 0.53369004
1.21155 -0.40170801 0.53705901
1.20437 -0.39577702 0.54056406
1.19618 -0.39198798 0.54665899
1.1916001 -0.38862598 0.54996306
1.2136199 -0.40667197 0.52348304
1.2097 -0.40274501 0.52746505
1.20617 -0.396207 0.529383
1.20252 -0.38866901 0.528458
1.20558 -0.380288 0.51751006
1.21557 -0.40493 0.51036704
1.21141 -0.402053 0.51577902
1.20499 -0.39592999 0.51812398
1.2069 -0.38554099 0.51199603
1.21622 -0.40447199 0.50083804
1.20698 -0.40314201 0.51013601
1.20183 -0.39783999 0.51132005
1.2053399 -0.38888302 0.50470001
1.21692 -0.40470999 0.49479502
1.20664 -0.40485999 0.50433505
1.20149 -0.39902002 0.50649202
1.2025499 -0.39145699 0.50164002
1.25038 -0.38704801 0.65794301
1.2455699 -0.389743 0.65724105
1.23932 -0.39288899 0.65488505
1.23395 -0.388928 0.65967101
1.2381301 -0.38149202 0.65084898
1.23941 -0.39810798 0.64750403
1.2358999 -0.39566299 0.64937502
1.23463 -0.38947499 0.64802706
1.2361901 -0.38308299 0.64431405
1.23058 -0.39664599 0.64488107
1.22831 -0.39195701 0.64325607
1.23316 -0.38457099 0.639045
1.23432 -0.393507 0.63031405
1.22475 -0.39392897 0.63777906
1.2268 -0.38818601 0.63528502
1.21892 -0.39587399 0.634718
1.2211499 -0.39064097 0.62905103
1.2178299 -0.39468399 0.62445307
1.21679 -0.39135799 0.61979502
1.21575 -0.39501703 0.61435598
1.2173899 -0.39118302 0.60724604
1.21724 -0.395919 0.59990805
1.2194101 -0.38968199 0.59327602
1.22612 -0.39977902 0.58109504
1.2169 -0.39596298 0.58810502
1.21571 -0.38994399 0.58721805
1.23233 -0.40527302 0.56770301
1.2196499 -0.40444699 0.57889903
1.2103801 -0.39970002 0.58488107
1.20745 -0.39332297 0.58615202
1.2169499 -0.383737 0.57773405
1.2385399 -0.40824902 0.55521399
1.22559 -0.40922099 0.56711107
1.21797 -0.406845 0.57298505
1.21174 -0.401923 0.57604003
1.1987799 -0.39841202 0.58511508
1.1914901 -0.39327899 0.58638501
1.2235501 -0.41095501 0.56143403
1.2159101 -0.40727299 0.56692201
1.20118 -0.40353 0.57726502
1.1920201 -0.397457 0.58180308
1.18462 -0.394068 0.58563703
1.18943 -0.38676399 0.57778603
1.22851 -0.40889999 0.54998505
1.21773 -0.40832698 0.55939603
1.20599 -0.404791 0.56803405
1.19415 -0.39931098 0.57565403
1.18361 -0.39479101 0.58244103
1.18806 -0.386608 0.57433701
1.23052 -0.39597401 0.65405005
1.22799 -0.392768 0.65689003
1.2278299 -0.386123 0.65626603
1.22628 -0.38065103 0.65247297
1.22956 -0.39588001 0.64725906
1.22566 -0.39319697 0.65177202
1.22357 -0.38691002 0.64893103
1.22346 -0.38118401 0.64440805
1.2230201 -0.392454 0.64259905
1.2206501 -0.38672599 0.64074403
1.22093 -0.38182998 0.63819402
1.22057 -0.39313802 0.63394403
1.21693 -0.38976899 0.63523203
1.21536 -0.384785 0.63417506
1.21509 -0.39394799 0.62928605
1.21213 -0.39025199 0.62798303
1.21197 -0.385901 0.62704402
1.21196 -0.39407799 0.62034202
1.20724 -0.39210302 0.62386405
1.20796 -0.38777697 0.62130702
1.20833 -0.39572898 0.61450303
1.2075 -0.39209703 0.61585599
1.2041401 -0.389507 0.61609203
1.20872 -0.39563599 0.608365
1.20679 -0.39231098 0.60962105
1.2067701 -0.38817102 0.60749
1.23087 -0.38760298 0.65348303
1.22173 -0.38048199 0.65872407
1.21954 -0.376021 0.65706205
1.2196499 -0.38597801 0.65536499
1.2192501 -0.38061297 0.64999002
1.2192299 -0.37617698 0.649068
1.21872 -0.38496602 0.64543605
1.21524 -0.38187 0.64490205
1.21416 -0.37821499 0.64705104
1.21399 -0.38575801 0.64282906
1.21093 -0.38324299 0.64436603
1.21236 -0.37939999 0.64261198
1.23158 -0.383596 0.65778601
1.2874899 -0.41767898 0.65651304
1.2986799 -0.41623297 0.657386
1.29731 -0.419126 0.65886098
1.2885499 -0.42010501 0.64982104
1.2935801 -0.41916198 0.64480102
1.2899801 -0.42181301 0.64316702
1.29073 -0.41326198 0.62853104
1.29678 -0.420883 0.63766801
1.2924 -0.42295897 0.63576806
1.2910299 -0.41128299 0.61688399
1.2940601 -0.41923401 0.62685502
1.29107 -0.423226 0.62346506
1.2810299 -0.399562 0.59830904
1.2889301 -0.40885699 0.60682404
1.29102 -0.41775799 0.61448598
1.28795 -0.42373502 0.61234206
1.28751 -0.40266299 0.59891301
1.2862601 -0.40748 0.59997404
1.28979 -0.417858 0.60676503
1.2882401 -0.424959 0.60805506
1.2779 -0.425136 0.60079306
1.2751499 -0.401595 0.65750104
1.2643499 -0.40231401 0.65900505
1.24832 -0.36827302 0.65935105
1.28241 -0.39867002 0.65362203
1.26487 -0.40232101 0.65448105
1.25126 -0.398644 0.65401101
1.24464 -0.38978803 0.65308899
1.24308 -0.37936902 0.65535808
1.24949 -0.36486697 0.65170205
1.26254 -0.34884301 0.64915001
1.2836701 -0.39873099 0.65101206
1.25578 -0.40476501 0.64718002
1.24541 -0.40000802 0.64862204
1.2398 -0.392712 0.64697599
1.24292 -0.37851003 0.64882803
1.25027 -0.36412498 0.646447
1.2593499 -0.35133302 0.64604104
1.26535 -0.40708801 0.64069605
1.2568699 -0.40719002 0.64074808
1.2467901 -0.40231401 0.64217705
1.2361699 -0.39587298 0.640728
1.24151 -0.37867999 0.64210206
1.25254 -0.36197498 0.64176005
1.26673 -0.40854099 0.63531107
1.25525 -0.40827203 0.63558203
1.24446 -0.40324602 0.63589501
1.2330899 -0.39950299 0.63539302
1.2334599 -0.38639599 0.63530207
1.24722 -0.36717901 0.63554102
1.3157099 -0.41873401 0.62048906
1.30527 -0.41831699 0.62162405
1.2944299 -0.41408902 0.62295902
1.26849 -0.41259801 0.627455
1.25433 -0.40790501 0.63020301
1.2405 -0.405635 0.63038301
1.22961 -0.39986402 0.63038504
1.22576 -0.390039 0.62902606
1.2335 -0.37630698 0.63062602
1.24361 -0.36398497 0.63143301
1.30123 -0.42550001 0.61849302
1.29457 -0.422124 0.61994201
1.28521 -0.416632 0.620179
1.27291 -0.41219601 0.62065703
1.2545099 -0.41005698 0.62386101
1.2370501 -0.40697497 0.62463003
1.2257199 -0.40104699 0.62461698
1.2130101 -0.39764702 0.62466002
1.20815 -0.38912702 0.62468404
1.19234 -0.38838199 0.62379801
1.29619 -0.42937499 0.61297303
1.2958701 -0.42072898 0.61411905
1.28262 -0.41520599 0.61448503
1.2627101 -0.41368499 0.61662704
1.24808 -0.41046399 0.618644
1.2323101 -0.40795502 0.61828804
1.2194101 -0.40210301 0.61941504
1.2106199 -0.39526403 0.61995608
1.20163 -0.39138499 0.62035102
1.2005301 -0.38339901 0.61938202
1.20017 -0.37683102 0.61923003
1.2948101 -0.43082699 0.60874903
1.2941099 -0.42490798 0.608612
1.28713 -0.41679901 0.60829806
1.2709401 -0.411897 0.60974699
1.24911 -0.41081297 0.612275
1.23325 -0.409394 0.61271501
1.22479 -0.403061 0.61261803
1.21319 -0.39742199 0.61500305
1.20754 -0.38844398 0.61434007
1.2005 -0.383019 0.61497504
1.1931701 -0.38228199 0.61638904
1.3002299 -0.42651901 0.60511404
1.30547 -0.41532698 0.603535
1.2966499 -0.410252 0.60324007
1.27758 -0.40873402 0.60394007
1.25498 -0.41043401 0.60617203
1.237 -0.40784302 0.60684502
1.22797 -0.39997002 0.60535806
1.22224 -0.39182299 0.60800803
1.2231899 -0.38028598 0.60571802
1.21527 -0.37560201 0.60831803
1.24725 -0.40981701 0.60024202
1.2339901 -0.40546101 0.60023099
1.22817 -0.39907798 0.60010803
1.22772 -0.38837102 0.60035205
1.23673 -0.36990502 0.59703004
1.24919 -0.35491797 0.59295702
1.24605 -0.407886 0.59194702
1.2407299 -0.40408599 0.59396905
1.23392 -0.395134 0.59355003
1.23489 -0.38063598 0.59327906
1.24095 -0.36738899 0.59021705
1.24915 -0.35466301 0.58859301
1.25016 -0.40638402 0.58546805
1.23806 -0.40529799 0.58677202
1.23226 -0.39487401 0.58623803
1.23347 -0.38139302 0.58701903
1.2419699 -0.36426398 0.58439904
1.24795 -0.35356399 0.58286202
1.26209 -0.40921903 0.57663405
1.24641 -0.41144502 0.57995802
1.2406 -0.40655997 0.57955098
1.2309999 -0.399542 0.58014303
1.22656 -0.387611 0.58116907
1.23508 -0.37076598 0.58034104
1.23227 -0.36259103 0.57844204
1.3685299 -0.38986501 0.55178303
1.2541001 -0.41389197 0.57428205
1.24403 -0.413335 0.5747
1.23245 -0.409931 0.57504201
1.22227 -0.40494302 0.57523
1.22031 -0.39341098 0.57506007
1.22192 -0.37733299 0.57529801
1.22018 -0.36713901 0.57380003
1.23036 -0.35539001 0.57247508
1.3635401 -0.392156 0.54962105
1.3582801 -0.38978803 0.54947603
1.35431 -0.386778 0.54939604
1.24851 -0.416861 0.56944203
1.23918 -0.414929 0.56903404
1.22769 -0.41027001 0.56930602
1.22444 -0.40046397 0.57001406
1.21571 -0.395816 0.56943899
1.21163 -0.38554001 0.56958503
1.21266 -0.37319601 0.56997305
1.2182701 -0.36258999 0.56951708
1.3575 -0.39595002 0.54587704
1.34893 -0.394813 0.54709208
1.34655 -0.39099997 0.54649103
1.2406601 -0.42056701 0.56291902
1.2328601 -0.41657397 0.56364501
1.2255599 -0.41180801 0.56422603
1.21928 -0.40435001 0.564457
1.20805 -0.396837 0.56481403
1.2038701 -0.38760701 0.564412
1.2052701 -0.379049 0.56564707
1.21512 -0.36561599 0.56446105
1.35212 -0.40123099 0.53974503
1.34606 -0.39709401 0.54175401
1.33102 -0.39778098 0.54177004
1.24568 -0.41864699 0.55438399
1.23668 -0.416646 0.55703002
1.2240599 -0.41263101 0.55913806
1.22003 -0.40467 0.55845606
1.2109101 -0.39968398 0.55893302
1.20058 -0.39172402 0.558945
1.2011499 -0.38087699 0.55989403
1.34136 -0.414711 0.53544205
1.3497599 -0.402729 0.53531706
1.3316001 -0.40365398 0.53623903
1.31988 -0.39949599 0.53647006
1.26089 -0.411924 0.54538405
1.2385601 -0.41666698 0.55045104
1.22846 -0.41314399 0.55299205
1.2175499 -0.40648401 0.55286002
1.2053 -0.39907902 0.55331403
1.19807 -0.39184701 0.55286902
1.19642 -0.38343897 0.55327404
1.20505 -0.37063399 0.551494
1.3417 -0.415512 0.52983505
1.33873 -0.41013598 0.53049707
1.3320301 -0.40446702 0.52978605
1.3169099 -0.40214199 0.53199303
1.28256 -0.40724099 0.53614002
1.24745 -0.412541 0.54256505
1.22999 -0.411174 0.54672503
1.22023 -0.40576199 0.54551202
1.21145 -0.39951801 0.54672402
1.1980799 -0.39574 0.54814506
1.1953501 -0.38581002 0.54742205
1.19156 -0.37778199 0.54648805
1.33926 -0.41571701 0.52395403
1.33419 -0.41016498 0.52454704
1.3231 -0.40635201 0.52652407
1.3071699 -0.40465999 0.52750003
1.2840899 -0.40644699 0.52957803
1.2568901 -0.409527 0.53385198
1.23043 -0.409435 0.53916103
1.21187 -0.40602002 0.54122204
1.20392 -0.39982101 0.54268003
1.19891 -0.39209703 0.54205
1.19538 -0.38224497 0.54094303
1.19077 -0.37470901 0.53944004
1.19516 -0.36627302 0.53918701
1.34264 -0.412615 0.516994
1.3345101 -0.41041303 0.51820207
1.3228199 -0.40643001 0.52078402
1.2988 -0.40727797 0.52213603
1.2739199 -0.40947497 0.52648401
1.25774 -0.40914902 0.52724403
1.23561 -0.40870801 0.53044504
1.21749 -0.405238 0.53419
1.20682 -0.397385 0.53593302
1.19947 -0.38900003 0.536116
1.1931701 -0.38169399 0.534747
1.18831 -0.37539798 0.535146
1.18949 -0.36923698 0.53466403
1.3354201 -0.40803 0.51221001
1.3165801 -0.408474 0.51469606
1.3001699 -0.40688097 0.51616305
1.27562 -0.40970001 0.52022707
1.24989 -0.41073 0.52223104
1.2305501 -0.40921903 0.52481705
1.22182 -0.403779 0.52706802
1.20715 -0.401216 0.53014702
1.20188 -0.39014 0.52907205
1.19592 -0.38160402 0.52907503
1.19388 -0.37367198 0.52934301
1.1988 -0.363987 0.52761102
1.31505 -0.40754199 0.50848502
1.29591 -0.40765202 0.51135099
1.26719 -0.41174001 0.51561403
1.25219 -0.41084999 0.51596504
1.23311 -0.41014701 0.51853907
1.22247 -0.40465 0.52137303
1.21324 -0.39733899 0.52242398
1.2096701 -0.386998 0.52071804
1.20503 -0.377821 0.52192301
1.2054499 -0.36780399 0.52171105
1.3153399 -0.40530601 0.50355005
1.2974401 -0.40635502 0.50512606
1.26582 -0.41209701 0.50969803
1.24585 -0.41210499 0.51218504
1.23215 -0.41004902 0.51259202
1.2204499 -0.40331799 0.51468199
1.21522 -0.39247599 0.51560903
1.2167 -0.380427 0.51374304
1.22194 -0.36795199 0.51207304
1.26405 -0.411791 0.50321698
1.24502 -0.41229802 0.50631106
1.22596 -0.41005 0.50779104
1.21438 -0.404686 0.50848305
1.21966 -0.38910198 0.50824302
1.22085 -0.37728402 0.50744301
1.2273999 -0.36735499 0.50488603
1.25603 -0.41261798 0.49848205
1.24529 -0.413679 0.50077504
1.22984 -0.41282201 0.50201505
1.2126499 -0.40961498 0.50303805
1.2157199 -0.39441299 0.50222802
1.21974 -0.38133597 0.50147402
1.23322 -0.417375 0.49759704
1.21407 -0.41894698 0.49847102
1.20233 -0.41504601 0.49839702
1.20996 -0.40060601 0.49797806
1.2153 -0.38737097 0.49575502
1.22623 -0.37337601 0.49263704
1.21532 -0.42421299 0.49432003
1.1943699 -0.42847198 0.49578503
1.19277 -0.42009699 0.49566606
1.20307 -0.403842 0.49350002
1.21419 -0.38781899 0.49024001
1.19346 -0.43602902 0.49288604
1.17668 -0.43974701 0.49367201
1.1891999 -0.42224997 0.49159503
1.1992099 -0.40525001 0.48936704
1.21334 -0.38801497 0.48629007
1.1837001 -0.44126099 0.49002403
1.16397 -0.44671798 0.49110305
1.17422 -0.434661 0.48964006
1.18018 -0.42323101 0.48856604
1.15169 -0.45311099 0.48740602
1.16026 -0.44357899 0.48786804
1.14037 -0.45972699 0.48440903
1.14876 -0.45132199 0.48405701
1.13772 -0.46160498 0.48159602
1.14332 -0.45493001 0.48054302
1.13849 -0.45761099 0.47875503
1.25572 -0.395625 0.65763801
1.24832 -0.39301899 0.65764099
1.23849 -0.387557 0.65998304
1.23997 -0.37617502 0.65816706
1.24379 -0.36448601 0.65651405
1.25308 -0.35269901 0.65652001
1.2535399 -0.398004 0.65249902
1.25121 -0.39350602 0.65111601
1.24202 -0.38703099 0.65297908
1.23839 -0.37655699 0.65229803
1.25323 -0.35803902 0.65136701
1.26429 -0.34489 0.65109098
1.27499 -0.39699 0.64219004
1.2578501 -0.39830503 0.64515603
1.24605 -0.39486399 0.64630598
1.23974 -0.38684601 0.64682305
1.2357 -0.37977001 0.64649004
1.2616301 -0.350355 0.64858407
1.26737 -0.40117601 0.63910103
1.25608 -0.399562 0.63919902
1.24331 -0.39465302 0.64147508
1.23501 -0.389871 0.64104104
1.23036 -0.38532901 0.63998407
1.26998 -0.40403098 0.63219404
1.25749 -0.40242198 0.63267499
1.24602 -0.396036 0.63486308
1.22991 -0.392445 0.634691
1.23023 -0.38515401 0.63449103
1.30108 -0.416004 0.62001306
1.28457 -0.41130102 0.62367803
1.2689 -0.40719199 0.62636805
1.25387 -0.403238 0.62793803
1.23867 -0.39878699 0.62896603
1.2314 -0.392416 0.62850004
1.2215899 -0.38924199 0.62960905
1.32689 -0.45072499 0.61191201
1.3242 -0.44219002 0.61281705
1.31249 -0.43749499 0.61431801
1.3028901 -0.42736501 0.61572701
1.28924 -0.420719 0.61810005
1.2822701 -0.41170397 0.61934501
1.2662899 -0.40739399 0.62100804
1.24808 -0.40427101 0.622576
1.23339 -0.39961103 0.62332308
1.22484 -0.39332801 0.62468702
1.2153701 -0.38980597 0.62387604
1.2280899 -0.37979198 0.62466604
1.3064901 -0.47655401 0.61092502
1.3176301 -0.465464 0.60958004
1.31706 -0.45749801 0.60954702
1.31575 -0.446235 0.61046201
1.3067999 -0.43693298 0.61138803
1.29791 -0.42806399 0.61172807
1.2888499 -0.41855898 0.61295801
1.27458 -0.41254002 0.61438704
1.26065 -0.40730202 0.61584401
1.24236 -0.40465501 0.61744201
1.22983 -0.40188703 0.61850202
1.2244899 -0.39458501 0.61904407
1.2049099 -0.39299402 0.61897904
1.19718 -0.38924199 0.61993605
1.18767 -0.38709998 0.61897302
1.3517799 -0.50917399 0.59906602
1.31786 -0.47192201 0.60653704
1.3189999 -0.46522498 0.60554606
1.32166 -0.45334899 0.60404402
1.3117999 -0.44387099 0.60593706
1.30388 -0.436306 0.60718
1.3021699 -0.42928901 0.60594702
1.29582 -0.42101398 0.60688001
1.2876101 -0.41187599 0.60759002
1.26755 -0.40782002 0.60980105
1.2487999 -0.40490898 0.61193705
1.22987 -0.40159199 0.61295706
1.21385 -0.39740899 0.61456102
1.2038 -0.39208099 0.61348605
1.18946 -0.39129397 0.61654603
1.1787 -0.38943601 0.61565608
1.3458099 -0.510593 0.59674907
1.31959 -0.47079498 0.60206002
1.32564 -0.46182901 0.59980404
1.3243099 -0.45384499 0.59863901
1.3236901 -0.442691 0.59891403
1.31207 -0.43511799 0.60164201
1.30935 -0.42535198 0.60163802
1.3046401 -0.41351101 0.60230803
1.29922 -0.40687999 0.60295206
1.28758 -0.40504101 0.60441202
1.24191 -0.40507001 0.60641801
1.22768 -0.40166599 0.60620201
1.2154499 -0.396433 0.60820305
1.2042099 -0.39084098 0.60802805
1.1855301 -0.39091599 0.61130106
1.1652501 -0.39410198 0.61249304
1.3460499 -0.51144999 0.59282601
1.32798 -0.46626401 0.59712106
1.3319 -0.45749298 0.59556001
1.33638 -0.445923 0.59411806
1.3344501 -0.43757001 0.59435803
1.32836 -0.43047601 0.59581804
1.24005 -0.40397 0.60002601
1.23303 -0.401124 0.60029703
1.22154 -0.39578301 0.60074103
1.21006 -0.39007199 0.60236305
1.1990499 -0.38602799 0.60400301
1.16787 -0.39223301 0.60918206
1.1643599 -0.38989499 0.60880005
1.34649 -0.51183802 0.58907908
1.23578 -0.404376 0.59413606
1.22774 -0.39994898 0.594643
1.2207199 -0.39337599 0.59476805
1.21575 -0.38821399 0.59645003
1.20858 -0.381558 0.59630007
1.17572 -0.39049399 0.60416001
1.23809 -0.40469602 0.58757299
1.23114 -0.40068901 0.58778208
1.224 -0.39282399 0.58902603
1.21832 -0.38396001 0.58990401
1.227 -0.36968201 0.58707702
1.2161 -0.370812 0.58898401
1.2574099 -0.40419301 0.57753003
1.23975 -0.40614301 0.58075702
1.2270501 -0.40261599 0.58203906
1.2217 -0.39494899 0.58327901
1.2215101 -0.38331002 0.58323008
1.22381 -0.37194499 0.58263898
1.22866 -0.363343 0.58244902
1.41168 -0.39504299 0.54897302
1.39503 -0.39076197 0.55072105
1.3830099 -0.386287 0.55134904
1.24974 -0.40836498 0.57503903
1.24378 -0.40609199 0.574673
1.2326599 -0.40270197 0.57624102
1.22264 -0.395686 0.57682103
1.21673 -0.38652 0.57776606
1.21794 -0.375103 0.577443
1.2207299 -0.36702302 0.57788903
1.3993801 -0.39735803 0.54719603
1.38026 -0.39411098 0.54912901
1.35869 -0.393213 0.55047905
1.3435401 -0.39249402 0.55194205
1.24474 -0.41100299 0.56977004
1.23479 -0.408142 0.570669
1.22545 -0.40197799 0.57184005
1.22197 -0.39479899 0.57192403
1.21461 -0.38928002 0.571895
1.21234 -0.37851897 0.57209104
1.21176 -0.37039003 0.57180899
1.4066 -0.40421599 0.54131103
1.3891001 -0.40029401 0.54341704
1.36871 -0.39762101 0.54529798
1.35195 -0.39536399 0.54670501
1.3417599 -0.39301398 0.54815102
1.24198 -0.413149 0.56428802
1.23725 -0.40947101 0.56464601
1.22462 -0.404809 0.56589705
1.2212501 -0.39536098 0.56753802
1.21198 -0.39098498 0.56673104
1.20926 -0.38233799 0.56672502
1.20625 -0.373429 0.56655002
1.21105 -0.36328399 0.56403404
1.4018201 -0.41356602 0.53652704
1.39116 -0.40875 0.53848004
1.38082 -0.40322399 0.53844404
1.3593299 -0.40025502 0.54018104
1.33926 -0.39866501 0.54397804
1.33081 -0.39558899 0.54333103
1.23988 -0.41304299 0.55837905
1.22989 -0.40984002 0.55963802
1.22132 -0.40394402 0.56020403
1.21664 -0.39731202 0.56251603
1.21085 -0.38911802 0.56168401
1.20586 -0.380467 0.56142902
1.20283 -0.371856 0.56071699
1.2102101 -0.360742 0.55805504
1.4085801 -0.41519299 0.52997702
1.3870599 -0.41176999 0.53351802
1.36938 -0.40778598 0.53354806
1.36598 -0.400839 0.533535
1.33241 -0.40103501 0.53802305
1.3129201 -0.39957199 0.53952903
1.24787 -0.41074002 0.55014205
1.23422 -0.40930402 0.55307001
1.22158 -0.40546799 0.55504107
1.21377 -0.39718497 0.55653208
1.20813 -0.38784698 0.55661905
1.20077 -0.38040403 0.55557305
1.2004499 -0.37020999 0.55546403
1.2100199 -0.35952401 0.55350703
1.4182299 -0.41203499 0.52478808
1.3848701 -0.41227999 0.52815104
1.36508 -0.409832 0.52908903
1.3521299 -0.40557498 0.53043205
1.3333299 -0.40243801 0.53105402
1.3086901 -0.40180099 0.53460807
1.27395 -0.40500501 0.54057103
1.2418 -0.408234 0.54591501
1.2280999 -0.404019 0.54818803
1.21433 -0.40019903 0.55090302
1.20637 -0.39112702 0.55034006
1.1944001 -0.38453603 0.55038303
1.1963 -0.37409401 0.55057001
1.1982399 -0.36645699 0.55115205
1.3554801 -0.41137001 0.52597702
1.34113 -0.40727001 0.52560401
1.32084 -0.40479302 0.52696401
1.30375 -0.402758 0.53007603
1.2826101 -0.40347999 0.53353101
1.25301 -0.40579799 0.53826803
1.23509 -0.40266702 0.54109001
1.21698 -0.39889801 0.54400802
1.20789 -0.39188999 0.54325205
1.19542 -0.38728401 0.54527307
1.1901799 -0.37859002 0.54514605
1.19059 -0.37145197 0.54640001
1.34374 -0.41061199 0.52099109
1.33102 -0.408788 0.52152306
1.3199201 -0.40527803 0.520697
1.30022 -0.40318298 0.52503002
1.26903 -0.40507802 0.52979398
1.24304 -0.40542197 0.53404599
1.2286201 -0.40137902 0.53678703
1.2149199 -0.39697897 0.53696901
1.2030101 -0.39024299 0.53862303
1.19215 -0.38417301 0.53995401
1.18545 -0.379161 0.54056501
1.18582 -0.372017 0.53951907
1.3276601 -0.408317 0.51678002
1.3183501 -0.40563899 0.51613504
1.30635 -0.40295202 0.51767302
1.2761199 -0.40595299 0.52268404
1.25359 -0.40425801 0.52599901
1.2285399 -0.402789 0.53033805
1.21542 -0.397396 0.53017706
1.20749 -0.391381 0.53270805
1.19726 -0.385075 0.53309107
1.18889 -0.376912 0.53460807
1.18506 -0.36990798 0.53373003
1.17486 -0.370924 0.53592002
1.3080701 -0.40661201 0.51271707
1.2923 -0.405242 0.51485705
1.2645301 -0.40755001 0.51797807
1.2390599 -0.40681499 0.52234703
1.22368 -0.40182799 0.52444506
1.2109101 -0.39890099 0.52625406
1.20674 -0.39100498 0.52660006
1.19951 -0.38433602 0.52733099
1.1962 -0.37700403 0.52761406
1.18864 -0.37030801 0.52889001
1.18401 -0.36579898 0.53012604
1.30617 -0.403689 0.50612307
1.28614 -0.406124 0.50979704
1.26372 -0.40837002 0.51271403
1.2466 -0.40716401 0.51516503
1.22741 -0.403963 0.51764005
1.2143 -0.39740199 0.52056104
1.20794 -0.390486 0.52098703
1.2011399 -0.38445202 0.52226907
1.19858 -0.37417197 0.52279902
1.19847 -0.36410099 0.52384901
1.28274 -0.40654701 0.50498801
1.26107 -0.40832999 0.50802404
1.23807 -0.40766701 0.51084799
1.2268599 -0.40414903 0.51236802
1.21961 -0.39896703 0.51343608
1.20787 -0.392474 0.51578003
1.2111599 -0.38035899 0.51502502
1.26059 -0.40824401 0.50261408
1.24411 -0.407354 0.50414407
1.22501 -0.405361 0.50761604
1.21337 -0.39957601 0.50868005
1.20295 -0.39569801 0.51019305
1.24682 -0.41051999 0.49817204
1.23096 -0.409762 0.50056207
1.2139 -0.40781701 0.50405103
1.20587 -0.40274501 0.50351703
1.20208 -0.39796102 0.50441402
1.2496099 -0.40896499 0.49308699
1.22874 -0.41258401 0.49548504
1.21135 -0.41123599 0.49833602
1.1975 -0.408337 0.49854603
1.19661 -0.402309 0.50020808
1.2125 -0.423572 0.49328604
1.20829 -0.420086 0.49426103
1.19735 -0.41655201 0.49439803
1.19073 -0.41168702 0.49520302
1.1939499 -0.40415201 0.49393904
1.17191 -0.44410801 0.49390304
1.19055 -0.428534 0.49192002
1.19186 -0.42034999 0.49068603
1.19138 -0.41196901 0.48999
1.1989701 -0.39814702 0.48472306
1.2242501 -0.36902902 0.47408605
1.16386 -0.44778001 0.49248302
1.17544 -0.437902 0.49030504
1.18915 -0.42252499 0.48647004
1.19593 -0.407846 0.48210904
1.20032 -0.395165 0.47869805
1.21638 -0.37592301 0.47357804
1.23024 -0.36137101 0.46975204
1.17539 -0.43579498 0.48642007
1.19278 -0.41797698 0.47917503
1.20172 -0.40242001 0.47391206
1.20718 -0.38800499 0.47174102
1.21788 -0.37349099 0.46793902
1.21784 -0.36860803 0.46897101
1.1774299 -0.43283001 0.482425
1.20763 -0.40755999 0.46713704
1.20872 -0.39944401 0.46690804
1.20715 -0.391684 0.46667305
1.20981 -0.37972301 0.46489003
1.21793 -0.367906 0.46229503
1.20068 -0.41800401 0.46410504
1.2115899 -0.40751898 0.45977703
1.20988 -0.39821801 0.46112201
1.21329 -0.38451499 0.45892403
1.2144001 -0.37446401 0.45774001
1.21789 -0.36701697 0.45615003
1.2070401 -0.41612998 0.45764905
1.21501 -0.40658298 0.45298904
1.2096499 -0.40098098 0.45548803
1.21067 -0.38899502 0.45346302
1.2103 -0.37887698 0.45360801
1.21797 -0.36775398 0.45023304
1.22086 -0.40969199 0.44802502
1.21444 -0.40714499 0.44705001
1.21329 -0.39761397 0.44826204
1.20671 -0.39048499 0.44880605
1.21202 -0.37846801 0.44627804
1.2167701 -0.36856702 0.44418705
1.22262 -0.40974498 0.44071305
1.21649 -0.40713102 0.44181004
1.21252 -0.40106201 0.44229504
1.2095 -0.38993099 0.442568
1.21069 -0.37939098 0.43989304
1.21606 -0.36946899 0.43782803
1.22649 -0.41067502 0.43280503
1.2169 -0.40721199 0.43617505
1.21119 -0.39783698 0.43600503
1.20873 -0.38775298 0.43663803
1.2125 -0.377285 0.43361703
1.21788 -0.36719599 0.42968804
1.22638 -0.41665402 0.42788902
1.22676 -0.410041 0.42689502
1.2151101 -0.40476298 0.42997402
1.20867 -0.39897001 0.43105701
1.2083 -0.38910303 0.43067104
1.2151 -0.37415099 0.42620805
1.21997 -0.36250901 0.42179906
1.1008999 -0.35101798 0.44373104
1.0709 -0.330899 0.44836003
1.07144 -0.32352102 0.44733003
1.23621 -0.411865 0.41935202
1.22975 -0.409253 0.42004001
1.22101 -0.40472499 0.42248803
1.2120401 -0.39701 0.42445701
1.2104499 -0.384776 0.42304802
1.2159899 -0.37099898 0.41984004
1.2176 -0.36225602 0.41790104
1.19472 -0.36690497 0.42221904
1.1716 -0.37023997 0.42605805
1.09693 -0.35301101 0.44247803
1.09223 -0.34965599 0.44269204
1.09366 -0.33835998 0.44093001
1.0825499 -0.332351 0.44279402
1.0696 -0.32949102 0.44588605
1.24008 -0.41051498 0.41302705
1.23779 -0.40630502 0.41301101
1.2285501 -0.403539 0.41542503
1.2172 -0.39917499 0.41698903
1.20697 -0.39127201 0.41776603
1.20793 -0.37915298 0.41768801
1.20696 -0.369856 0.41641003
1.16737 -0.376302 0.42394704
1.1587501 -0.37558997 0.42639405
1.09525 -0.353223 0.44006005
1.09224 -0.34931701 0.43992203
1.0870401 -0.34254798 0.44005302
1.0818599 -0.33335602 0.439821
1.0734401 -0.32945001 0.44181103
1.24857 -0.400509 0.40593204
1.2289701 -0.40201402 0.40971905
1.21213 -0.39873999 0.41162902
1.20219 -0.39389899 0.41278303
1.19802 -0.38485599 0.41404402
1.17946 -0.380799 0.41644603
1.16403 -0.37859198 0.41961002
1.15777 -0.37607801 0.42239404
1.09647 -0.35200599 0.43696201
1.0915 -0.348914 0.43757102
1.0846499 -0.34466898 0.43829402
1.07872 -0.33834302 0.43870002
1.07675 -0.32664901 0.43737602
1.24439 -0.40112302 0.40396103
1.21593 -0.40391299 0.40460902
1.2058101 -0.39965498 0.40789402
1.19775 -0.39449501 0.40874204
1.18712 -0.38863799 0.41024804
1.17779 -0.38408101 0.41099703
1.16739 -0.380169 0.41365203
1.15889 -0.37756303 0.41579804
1.2298 -0.403577 0.39484203
1.2179101 -0.404632 0.39754605
1.20402 -0.40195999 0.40229702
1.1922699 -0.39621201 0.40427002
1.1834999 -0.390084 0.40540603
1.17505 -0.38429001 0.40657103
1.16913 -0.37840697 0.40761304
1.1691999 -0.37269902 0.40708104
1.22875 -0.40478501 0.38933003
1.2113099 -0.406095 0.39422905
1.1971 -0.40226898 0.39785603
1.18741 -0.39693901 0.40048406
1.18215 -0.39051202 0.40014103
1.18129 -0.38067698 0.39885002
1.17989 -0.37356603 0.39924005
1.23096 -0.404533 0.38187602
1.21618 -0.40636799 0.38768604
1.20613 -0.40190202 0.38879502
1.19117 -0.39692903 0.393911
1.18959 -0.387173 0.39167503
1.19609 -0.37444198 0.38772702
1.2080001 -0.36405498 0.38111004
1.2306401 -0.40484101 0.37552804
1.21577 -0.406414 0.38183704
