# .PCD v0.7 - Point Cloud Data file format
VERSION 0.7
FIELDS x y z
SIZE 4 4 4
TYPE F F F
COUNT 1 1 1
WIDTH 725
HEIGHT 1
VIEWPOINT 0 0 0 1 0 0 0
POINTS 725
DATA ascii
1.18562 -0.44038898 2.8339999
1.1872001 -0.44571701 2.8364
1.184 -0.407482 2.79668
1.18383 -0.41995603 2.8080001
1.1831501 -0.43564799 2.8234398
1.18576 -0.44445899 2.8292801
1.18161 -0.45338699 2.8393302
1.18453 -0.382817 2.7625899
1.1860399 -0.39841899 2.7767501
1.1843901 -0.41408199 2.7931299
1.1819201 -0.42956698 2.80948
1.18382 -0.43988499 2.8163002
1.1819201 -0.39464501 2.76559
1.18162 -0.40978 2.7805898
1.17954 -0.426696 2.7976902
1.1767501 -0.44194499 2.8135002
1.18094 -0.40519002 2.7632699
1.17303 -0.408465 2.7620699
1.18126 -0.44394502 2.84851
1.17981 -0.42487702 2.8235002
1.1811299 -0.43592799 2.8347399
1.18457 -0.441818 2.8352401
1.18432 -0.44819698 2.8361402
1.1801699 -0.40604901 2.7924201
1.1811299 -0.417638 2.8034
1.17781 -0.43251702 2.8221803
1.18062 -0.44290501 2.8290601
1.18073 -0.449958 2.82884
1.18164 -0.39805001 2.77332
1.18115 -0.411452 2.7866502
1.17802 -0.42605099 2.80404
1.17871 -0.43950999 2.8143799
1.17546 -0.45245701 2.82638
1.1791101 -0.39288101 2.7615302
1.17902 -0.40710998 2.7745299
1.1753501 -0.422528 2.7923901
1.17853 -0.403676 2.7629199
1.17899 -0.46515998 2.8451502
1.1836799 -0.45838401 2.84706
1.18487 -0.45303002 2.8462303
1.1803501 -0.47811902 2.8440702
1.18194 -0.47388801 2.8455601
1.17925 -0.466335 2.8402402
1.17986 -0.457537 2.8377302
1.18347 -0.450928 2.83848
1.18725 -0.480685 2.8442001
1.18284 -0.47365299 2.8393202
1.17923 -0.463433 2.8327401
1.17607 -0.45461398 2.8275602
1.17879 -0.447907 2.8261099
1.18744 -0.44256499 2.8296599
1.1897 -0.477119 2.8397
1.18645 -0.46763802 2.8332
1.17987 -0.455513 2.8245001
1.18107 -0.44725299 2.8198998
1.18187 -0.43835399 2.81656
1.18853 -0.43228999 2.8188801
1.19918 -0.47629398 2.8418398
1.17933 -0.451913 2.81552
1.1777201 -0.44199902 2.8085299
1.1791 -0.43458697 2.8057199
1.18086 -0.427472 2.80509
1.1876 -0.421083 2.8067598
1.1947399 -0.41676101 2.8094001
1.18515 -0.44403401 2.8086998
1.18171 -0.436611 2.8027499
1.17993 -0.42777303 2.7973502
1.18165 -0.41851503 2.7946899
1.18546 -0.41258401 2.7957699
1.18094 -0.43245801 2.7928202
1.1805999 -0.42373902 2.7888401
1.17597 -0.41479301 2.78266
1.1793699 -0.409495 2.78268
1.1850801 -0.40626299 2.7865
1.19363 -0.43571898 2.7955101
1.18616 -0.42635602 2.7868202
1.1808 -0.415941 2.78018
1.1791101 -0.40789399 2.7742503
1.18019 -0.40288699 2.7735603
1.19723 -0.432962 2.7930002
1.18194 -0.41291901 2.77161
1.1781501 -0.40482602 2.766
1.17764 -0.39728999 2.7601502
1.1814801 -0.40908 2.7616901
1.16846 -0.47087699 2.84712
1.17238 -0.458507 2.84396
1.1827201 -0.45467603 2.8494601
1.17737 -0.47615501 2.8483999
1.17125 -0.46675 2.8413601
1.17179 -0.458065 2.8362501
1.17419 -0.44971901 2.8349099
1.1866001 -0.449561 2.84477
1.17277 -0.47229198 2.8365901
1.17171 -0.46402001 2.83182
1.17187 -0.45412499 2.8278
1.17362 -0.44723701 2.8263299
1.1756999 -0.44104001 2.8243899
1.17687 -0.474475 2.83445
1.17793 -0.46796399 2.8310699
1.17387 -0.45634997 2.8224201
1.1758 -0.446991 2.82026
1.17468 -0.43649301 2.8132501
1.18414 -0.433936 2.8173199
1.18188 -0.459209 2.8220301
1.17888 -0.44884601 2.8151002
1.17546 -0.43836898 2.8091102
1.1766 -0.428949 2.80352
1.18215 -0.42206001 2.8032401
1.1802601 -0.44665 2.80866
1.17848 -0.43813202 2.8038502
1.17625 -0.427174 2.7949898
1.17716 -0.417808 2.7911599
1.18655 -0.41277999 2.7950101
1.18786 -0.406459 2.7929199
1.1791101 -0.434095 2.79477
1.17487 -0.42207402 2.7848301
1.17574 -0.41481099 2.7823598
1.17732 -0.40762797 2.7801402
1.18622 -0.40538898 2.7862301
1.18308 -0.42507499 2.7834899
1.17559 -0.41313303 2.7746398
1.1769 -0.40544799 2.7718799
1.17941 -0.39919603 2.77016
1.18247 -0.42393798 2.77582
1.18372 -0.417382 2.7736199
1.17865 -0.40446898 2.7654102
1.18608 -0.39115897 2.7620902
1.1936799 -0.424766 2.7792699
1.17472 -0.46252301 2.8492301
1.17527 -0.45710701 2.8466001
1.17142 -0.46021703 2.8415
1.1721901 -0.45413101 2.8385699
1.17932 -0.45227799 2.8415399
1.17302 -0.46174702 2.8364599
1.17286 -0.45580199 2.83376
1.17291 -0.44663101 2.8287101
1.18311 -0.44651401 2.8353701
1.17233 -0.459584 2.8270402
1.17258 -0.45299399 2.8249099
1.1719999 -0.44322398 2.8177402
1.17391 -0.436755 2.8173599
1.17809 -0.46146402 2.82301
1.17191 -0.45087701 2.8151002
1.1712201 -0.44075501 2.8088
1.1738601 -0.434672 2.80931
1.17751 -0.426512 2.80492
1.18226 -0.420591 2.8029799
1.176 -0.45237201 2.8109798
1.17214 -0.44130298 2.8029902
1.1743901 -0.43292701 2.8015399
1.1758699 -0.42348301 2.7955201
1.1791999 -0.41576099 2.7929599
1.17662 -0.44234797 2.7999201
1.1763999 -0.43201101 2.7943301
1.17698 -0.420055 2.7874398
1.17538 -0.40875801 2.78018
1.1818399 -0.40578601 2.78234
1.18337 -0.43710202 2.79548
1.17735 -0.42210701 2.7830498
1.17615 -0.410409 2.77513
1.18094 -0.40277699 2.7732501
1.18648 -0.39999598 2.7760501
1.17553 -0.41357699 2.7694001
1.17642 -0.40517798 2.7646301
1.17946 -0.39150798 2.7606399
1.16882 -0.45939702 2.8435001
1.17211 -0.455246 2.8429501
1.16435 -0.456137 2.83535
1.16663 -0.45155898 2.8338199
1.17203 -0.447844 2.83444
1.1674299 -0.45789701 2.8305199
1.1655201 -0.449846 2.82616
1.1698201 -0.444047 2.82479
1.17486 -0.44069001 2.8264701
1.17177 -0.46036899 2.8241203
1.1691101 -0.45092899 2.8206398
1.1665599 -0.43785301 2.8118501
1.17041 -0.43216598 2.8117402
1.17914 -0.46534199 2.8227801
1.1708699 -0.45231 2.8134301
1.1703399 -0.44265401 2.80972
1.1708 -0.43012902 2.80234
1.17664 -0.42250901 2.8008401
1.18109 -0.41646999 2.7982101
1.17598 -0.454184 2.8106298
1.17237 -0.44109797 2.8021302
1.17127 -0.42703202 2.7933199
1.1721901 -0.41885102 2.7913501
1.17492 -0.41068199 2.7867901
1.1806301 -0.447552 2.8042402
1.17373 -0.42891499 2.7899499
1.1734999 -0.41694501 2.7839401
1.1711 -0.403115 2.77279
1.1812301 -0.404706 2.77949
1.1719899 -0.41091302 2.7719698
1.17364 -0.401627 2.766
1.1712201 -0.393013 2.7611899
1.17264 -0.40882 2.76547
1.17443 -0.40177301 2.7611201
1.15906 -0.45837399 2.8406501
1.1646199 -0.45589 2.8415799
1.15921 -0.45876703 2.83656
1.16023 -0.45254397 2.83342
1.1664701 -0.44931999 2.8341
1.15971 -0.45843801 2.8299899
1.1603 -0.45199502 2.8271499
1.16325 -0.44499901 2.8238299
1.1697899 -0.44222501 2.8255801
1.1663201 -0.461876 2.8271101
1.1610199 -0.45096698 2.8204901
1.1649801 -0.444076 2.8162501
1.16627 -0.43433601 2.81095
1.16381 -0.44897899 2.8129199
1.1628 -0.43764701 2.8052599
1.16524 -0.42843202 2.7992501
1.1703501 -0.41916698 2.7953298
1.17845 -0.41240701 2.7939301
1.16388 -0.43436599 2.7958002
1.1657701 -0.423969 2.79006
1.16837 -0.414978 2.7866602
1.16954 -0.404991 2.7815599
1.1759601 -0.401779 2.7836301
1.16485 -0.43145999 2.7855401
1.1673599 -0.4269 2.7853799
1.16793 -0.41446799 2.779
1.168 -0.40035999 2.7698801
1.1749901 -0.39930901 2.77549
1.16855 -0.423004 2.7757299
1.1663201 -0.40825403 2.7662899
1.16739 -0.397407 2.76035
1.17145 -0.423792 2.7708802
1.1676899 -0.41030997 2.7616601
1.1567 -0.44239199 2.8454599
1.1601 -0.44848099 2.8457198
1.16073 -0.43768001 2.83553
1.15939 -0.44605201 2.83953
1.16158 -0.45218602 2.8411801
1.159 -0.42925599 2.82639
1.15854 -0.43819302 2.8310001
1.16345 -0.44409502 2.82971
1.16074 -0.45068198 2.83301
1.1586599 -0.423134 2.8150699
1.15732 -0.43434298 2.8220401
1.15781 -0.444325 2.82654
1.15807 -0.449489 2.8262701
1.16054 -0.41098401 2.8022799
1.15714 -0.420095 2.8089099
1.15952 -0.42774701 2.8104599
1.15628 -0.43983299 2.8180201
1.1621 -0.39920503 2.7901299
1.15942 -0.40755299 2.7955401
1.15732 -0.41804901 2.80234
1.15459 -0.427515 2.8073101
1.1641101 -0.39193901 2.7779801
1.16085 -0.402473 2.7865601
1.16064 -0.411919 2.79142
1.1597 -0.382072 2.7692699
1.16365 -0.38810599 2.7686801
1.16208 -0.39826599 2.7769101
1.16469 -0.38672403 2.7607901
1.16224 -0.394104 2.76424
1.14871 -0.438737 2.8475602
1.15634 -0.44211102 2.8425
1.15159 -0.44914201 2.8476701
1.1574 -0.43497699 2.8351998
1.15662 -0.440202 2.8352802
1.15635 -0.44596699 2.83724
1.1531 -0.42524299 2.82358
1.1564 -0.431815 2.8252301
1.15596 -0.43998 2.82903
1.1519001 -0.44608897 2.83232
1.1567401 -0.422414 2.8143799
1.15781 -0.428821 2.8161199
1.1579499 -0.43548402 2.81809
1.14495 -0.395064 2.8041799
1.15501 -0.40084597 2.79826
1.1603199 -0.41400799 2.79952
1.15786 -0.42616501 2.80827
1.15538 -0.43216401 2.81025
1.14965 -0.38484001 2.7932901
1.1552 -0.39115003 2.7912798
1.16114 -0.40049401 2.7880001
1.16053 -0.412182 2.7911201
1.15829 -0.421866 2.7981501
1.16221 -0.38203999 2.77897
1.16164 -0.38927299 2.77918
1.16345 -0.39757901 2.7778702
1.16085 -0.40764198 2.7823901
1.1614801 -0.415892 2.7854502
1.15882 -0.38253602 2.77156
1.1617299 -0.389631 2.7709501
1.16239 -0.39885601 2.7730002
1.15961 -0.406427 2.7769401
1.1633 -0.385378 2.7616301
1.1603199 -0.39480001 2.7668099
1.17588 -0.45632702 2.8431201
1.17441 -0.44931197 2.84637
1.1662101 -0.447034 2.8390601
1.19116 -0.46181703 2.84409
1.18489 -0.45909598 2.8425698
1.17686 -0.45660001 2.83656
1.16997 -0.450863 2.835
1.1662899 -0.44496199 2.83271
1.19546 -0.45879799 2.83866
1.1884201 -0.45728001 2.83781
1.17484 -0.455715 2.82815
1.1683999 -0.44870701 2.8253701
1.17019 -0.440938 2.8303499
1.20542 -0.451487 2.84026
1.1905999 -0.45386901 2.83112
1.1756099 -0.452575 2.8216202
1.1733899 -0.44470701 2.82025
1.1675299 -0.44213101 2.8204598
1.19429 -0.449864 2.8271301
1.1820999 -0.448217 2.8189199
1.17365 -0.44306302 2.8126402
1.16923 -0.43904901 2.8124099
1.19313 -0.43987599 2.8217099
1.1801699 -0.440014 2.8122501
1.1739 -0.43452302 2.8080201
1.17602 -0.42734599 2.81271
1.18031 -0.43523997 2.80497
1.17549 -0.430933 2.8026199
1.17061 -0.42824298 2.8001299
1.18901 -0.425605 2.8025699
1.18047 -0.42503601 2.79948
1.1804 -0.41723201 2.8004501
1.19744 -0.41858199 2.80215
1.18595 -0.42028302 2.7952201
1.17644 -0.41835603 2.7901199
1.17558 -0.41246498 2.7911999
1.18643 -0.41732201 2.7882299
1.1822799 -0.414114 2.78789
1.1751 -0.40924001 2.78303
1.19375 -0.40920502 2.7873402
1.1809601 -0.410855 2.7792099
1.1734201 -0.40491903 2.7743499
1.1729699 -0.39803398 2.7764802
1.1825399 -0.40825298 2.77318
1.1762 -0.40350601 2.76878
1.1718 -0.39665902 2.7693601
1.16985 -0.391983 2.7706399
1.18334 -0.40422601 2.7649
1.17686 -0.40162998 2.7616401
1.17423 -0.39511099 2.7623801
1.1710601 -0.39021 2.7648301
1.18786 -0.40037301 2.7606399
1.18206 -0.448199 2.8476102
1.18206 -0.44352201 2.8499498
1.1812201 -0.45324403 2.84042
1.17548 -0.45163301 2.8361499
1.1768 -0.44558498 2.84027
1.18029 -0.45383498 2.83303
1.17564 -0.45165402 2.8303201
1.1724501 -0.446623 2.8294299
1.17732 -0.439046 2.8369799
1.18612 -0.45004201 2.8304501
1.17599 -0.44988999 2.82391
1.17091 -0.44490799 2.8204501
1.17294 -0.43938401 2.8257401
1.17749 -0.44780999 2.81639
1.1763901 -0.44266602 2.8185
1.17073 -0.43731701 2.8143702
1.18628 -0.44154999 2.81387
1.1783201 -0.43911201 2.8116801
1.17232 -0.43258399 2.8083601
1.17761 -0.42340302 2.8148599
1.17177 -0.41941798 2.809
1.19436 -0.43705899 2.8129301
1.18661 -0.43493 2.80862
1.17695 -0.43167701 2.8057199
1.17248 -0.42453802 2.8038399
1.17062 -0.41810101 2.80198
1.19712 -0.43406701 2.80758
1.19218 -0.429874 2.8053701
1.17958 -0.428496 2.8004699
1.17322 -0.421296 2.79603
1.17336 -0.415252 2.7985699
1.20918 -0.42668 2.8106701
1.19934 -0.42628801 2.8041298
1.18363 -0.42464402 2.7946
1.1736599 -0.419846 2.7876501
1.17152 -0.415488 2.79003
1.20322 -0.42254397 2.8016
1.19138 -0.42217898 2.7934101
1.17857 -0.41836601 2.7836599
1.17212 -0.41414201 2.7810299
1.1895601 -0.418825 2.7857599
1.18012 -0.41477099 2.77759
1.17558 -0.41134399 2.77669
1.1747 -0.405103 2.7758002
1.18408 -0.411347 2.77563
1.17906 -0.40656298 2.7721398
1.17573 -0.39967099 2.7685401
1.18551 -0.40548199 2.7695701
1.18021 -0.400619 2.7653601
1.18054 -0.39349997 2.7667401
1.18318 -0.387943 2.7711802
1.18329 -0.39872199 2.7600799
1.1817601 -0.392836 2.76068
1.1783999 -0.38916501 2.7609398
1.1769999 -0.450389 2.8467901
1.17356 -0.44764701 2.8429599
1.17779 -0.44264901 2.84863
1.1752601 -0.45025599 2.83832
1.17181 -0.44720402 2.8334799
1.1740201 -0.442747 2.8390601
1.1753501 -0.44947201 2.8287201
1.17109 -0.44676799 2.82599
1.1712899 -0.440887 2.82724
1.1796 -0.44769099 2.8222001
1.17507 -0.44395199 2.8223102
1.1743699 -0.43604401 2.82254
1.17546 -0.42983201 2.8247602
1.17854 -0.42179298 2.8267601
1.1903 -0.44448799 2.8222601
1.17998 -0.44245201 2.8171301
1.17484 -0.43686599 2.8165302
1.1753299 -0.42786098 2.8178
1.1698 -0.42430499 2.8136899
1.19568 -0.44256303 2.8211498
1.19052 -0.439152 2.81776
1.1798999 -0.43279999 2.81269
1.17837 -0.42533401 2.8131201
1.17778 -0.41989699 2.8137302
1.2013099 -0.44115102 2.8217902
1.2032399 -0.436533 2.82445
1.18468 -0.42932901 2.8076699
1.18136 -0.42267299 2.80792
1.17954 -0.415499 2.80583
1.1942099 -0.42187598 2.8070099
1.18628 -0.42079699 2.80375
1.18387 -0.41278899 2.80215
1.1883301 -0.40412998 2.8077302
1.19707 -0.41845298 2.8029501
1.1898999 -0.41623402 2.7988901
1.18332 -0.410144 2.79387
1.18739 -0.40255401 2.8002899
1.19409 -0.396036 2.80972
1.19275 -0.413376 2.7948198
1.18687 -0.40896598 2.7903602
1.17897 -0.40456298 2.7851102
1.17942 -0.39911997 2.78689
1.18665 -0.407242 2.7845199
1.17959 -0.40398702 2.7794001
1.17344 -0.39942101 2.7735901
1.17707 -0.40140998 2.7704501
1.17293 -0.395266 2.7645998
1.17629 -0.39004698 2.76966
1.18001 -0.458628 2.83831
1.17311 -0.45593399 2.8345599
1.17419 -0.449402 2.83866
1.17518 -0.44435102 2.8399701
1.17987 -0.45879298 2.83323
1.17538 -0.45479697 2.8310199
1.17452 -0.44792998 2.8326902
1.1797 -0.44204101 2.83796
1.18409 -0.45762002 2.82953
1.1747 -0.45422 2.8219399
1.17344 -0.449002 2.8243301
1.17116 -0.443391 2.82266
1.1860601 -0.45725301 2.8242402
1.1833999 -0.45256698 2.8216202
1.1777301 -0.445905 2.81934
1.17902 -0.43718398 2.8197601
1.18499 -0.42965302 2.8240702
1.1893001 -0.45561099 2.82166
1.1930799 -0.448172 2.82306
1.18212 -0.444547 2.81426
1.1779699 -0.43723899 2.8120999
1.18152 -0.42926201 2.8152802
1.19249 -0.439318 2.8154502
1.18608 -0.43559602 2.8118601
1.17856 -0.42868 2.8049099
1.17897 -0.42160901 2.8059201
1.19708 -0.43440601 2.8120201
1.18725 -0.432037 2.8049803
1.17962 -0.42574701 2.79777
1.17737 -0.419649 2.79772
1.18108 -0.413726 2.8022001
1.19436 -0.42819899 2.8041201
1.1859 -0.42489898 2.7972698
1.17849 -0.418091 2.7903602
1.1781 -0.410947 2.7923598
1.197 -0.39203203 2.8052301
1.1853601 -0.42134202 2.78844
1.18086 -0.41473401 2.78421
1.1791101 -0.40796602 2.78532
1.1866601 -0.39735001 2.79319
1.18888 -0.39098999 2.79563
1.19862 -0.41540298 2.7888901
1.1867601 -0.413504 2.7818
1.1796399 -0.407552 2.7776999
1.18169 -0.39899501 2.7818201
1.19253 -0.39061099 2.7936699
1.2034401 -0.41343898 2.78547
1.1946701 -0.410833 2.7802899
1.18548 -0.40683997 2.7754102
1.18126 -0.39938 2.7722101
1.18163 -0.39341301 2.7759302
1.2112499 -0.411147 2.7874899
1.2045799 -0.406993 2.7823999
1.18679 -0.40375099 2.7690701
1.17828 -0.39842302 2.7623501
1.17889 -0.39208302 2.7632799
1.19319 -0.39996102 2.7673001
1.18817 -0.38161901 2.76456
1.16875 -0.454418 2.8378501
1.1747299 -0.458446 2.8401802
1.17094 -0.45204699 2.8347502
1.17971 -0.46087897 2.83936
1.17213 -0.45641202 2.8302
1.1680501 -0.45001999 2.8263502
1.17101 -0.444581 2.82903
1.17905 -0.46057302 2.82833
1.17135 -0.456159 2.8211701
1.17097 -0.45048901 2.82324
1.16836 -0.44375098 2.8202
1.16715 -0.43971902 2.8203001
1.18168 -0.46057999 2.8226502
1.18011 -0.45611301 2.82072
1.1717501 -0.44906601 2.8156099
1.1673599 -0.44179797 2.8111601
1.1683899 -0.437895 2.81429
1.18407 -0.45938599 2.81867
1.1860501 -0.454961 2.8194501
1.18059 -0.448663 2.8143601
1.17259 -0.44207802 2.8091202
1.1701699 -0.43512002 2.80566
1.18576 -0.45311299 2.81479
1.18796 -0.44463298 2.8137
1.1773 -0.43904701 2.8048401
1.17046 -0.43205398 2.7975202
1.16368 -0.42799199 2.79109
1.18735 -0.435323 2.8051002
1.1760601 -0.43180001 2.79669
1.1727999 -0.425515 2.7928703
1.16695 -0.42003199 2.7867002
1.18853 -0.43169498 2.7983201
1.1825399 -0.427816 2.7941902
1.16784 -0.42207599 2.78109
1.1660501 -0.415813 2.7784302
1.1528 -0.41297299 2.76599
1.18804 -0.42547297 2.79164
1.17485 -0.42116001 2.7798901
1.16836 -0.41572103 2.7751598
1.16685 -0.41050202 2.7726102
1.18331 -0.41890702 2.7803602
1.1741201 -0.41338599 2.7713101
1.1708599 -0.40751898 2.76737
1.18065 -0.41582 2.77039
1.18057 -0.41016701 2.7679102
1.17527 -0.406315 2.7652802
1.1899099 -0.41251999 2.77158
1.18866 -0.40665999 2.7684302
1.1925499 -0.46277198 2.8459399
1.19258 -0.45788398 2.84547
1.19388 -0.462533 2.8375101
1.19173 -0.458433 2.8322401
1.19154 -0.45111099 2.8343601
1.1935 -0.443685 2.84042
1.19019 -0.437664 2.8308201
1.1981 -0.460713 2.8263001
1.19543 -0.45529202 2.8246398
1.19148 -0.449669 2.8213301
1.19295 -0.44236699 2.8254402
1.1895 -0.43414399 2.8130403
1.20683 -0.458868 2.8214402
1.20166 -0.45435798 2.8168702
1.1986799 -0.44738099 2.81903
1.1965001 -0.43876597 2.8128099
1.19309 -0.430159 2.8030002
1.1957901 -0.42224601 2.8100698
1.2140599 -0.45733398 2.82254
1.2103801 -0.452034 2.81638
1.2042 -0.44442403 2.8085101
1.20121 -0.435397 2.8039498
1.19988 -0.42720401 2.7977099
1.19628 -0.42000598 2.7971601
1.19767 -0.41209802 2.7999101
1.2125599 -0.441596 2.8075202
1.2084401 -0.43371299 2.80035
1.20442 -0.42557898 2.7916
1.2013401 -0.417732 2.79092
1.19679 -0.41104099 2.7869201
1.20081 -0.400956 2.7902
1.19933 -0.395248 2.7875102
1.2148 -0.43335497 2.8011498
1.21412 -0.425751 2.8000801
1.20672 -0.41777697 2.7891202
1.20632 -0.40562001 2.7884798
1.20293 -0.39738098 2.7794001
1.20266 -0.39342603 2.78303
1.22835 -0.39079702 2.7990398
1.2196499 -0.39077598 2.79125
1.2138801 -0.388457 2.78652
1.22834 -0.38548401 2.7901402
1.22497 -0.38091201 2.7837899
1.2352999 -0.37048 2.7962101
1.2290699 -0.37735298 2.7774398
1.2292401 -0.37077001 2.7733099
1.2344899 -0.36596403 2.7872698
1.18427 -0.428891 2.8455899
1.18383 -0.43615898 2.8453901
1.18794 -0.405882 2.8215101
1.1866601 -0.41324198 2.8245001
1.18695 -0.42615199 2.8294201
1.1834999 -0.434847 2.8344698
1.17968 -0.442 2.8443999
1.18696 -0.40495899 2.8106201
1.1872001 -0.41295701 2.81142
1.18498 -0.421087 2.8191001
1.1826 -0.43079898 2.8215799
1.1793901 -0.43874699 2.82552
1.18441 -0.38664502 2.7885001
1.18562 -0.39780602 2.7918501
1.18208 -0.41002101 2.80375
1.17998 -0.42100498 2.8119299
1.1757599 -0.43076402 2.81568
1.16921 -0.43729499 2.8255701
1.18856 -0.37738201 2.76823
1.18771 -0.38728002 2.77561
1.18088 -0.394528 2.78508
1.1793599 -0.40526101 2.7904599
1.17468 -0.418888 2.8042502
1.16983 -0.43036097 2.8137798
1.18493 -0.38506198 2.76687
1.17663 -0.394678 2.7809799
1.1723599 -0.40666401 2.79286
1.1929001 -0.43797901 2.84582
1.18846 -0.43509799 2.8414299
1.18946 -0.44187999 2.8416102
1.1866699 -0.44763801 2.83992
1.18747 -0.41054699 2.8207598
1.18546 -0.418484 2.8257902
1.19058 -0.42951 2.82125
1.18576 -0.44006199 2.83143
1.1831501 -0.448138 2.83038
1.1796601 -0.45316398 2.8361499
1.19023 -0.39812401 2.8027899
1.18969 -0.40664002 2.80446
1.18752 -0.41808301 2.8103299
1.18389 -0.43009102 2.8191602
1.17902 -0.439197 2.8239498
1.17478 -0.44634497 2.83111
1.19173 -0.37488097 2.7846
1.19042 -0.382456 2.78462
1.1887699 -0.39613202 2.7924201
1.18556 -0.40713701 2.7984302
1.18347 -0.41655201 2.8008099
1.17749 -0.42597303 2.8113
1.17285 -0.43562803 2.8189402
1.18946 -0.373936 2.7774
1.1903501 -0.38099301 2.7706602
1.1867 -0.391251 2.7796202
1.18405 -0.402495 2.7863801
1.17916 -0.41354999 2.7932901
1.1704201 -0.422986 2.80775
1.18723 -0.37975398 2.7610102
1.1839601 -0.38815102 2.7693601
1.18019 -0.39971 2.77827
1.1724401 -0.412422 2.7925699
1.1889701 -0.436452 2.8490303
1.18858 -0.44268298 2.84934
1.18724 -0.44750199 2.8498402
1.19601 -0.41369 2.8265798
1.19046 -0.419644 2.8349802
1.1925 -0.43196702 2.8308702
1.18784 -0.44186601 2.8403299
1.18497 -0.44715899 2.84238
1.1929699 -0.41068101 2.8207502
1.1928099 -0.41927701 2.8186998
1.18783 -0.43016103 2.8245802
1.18385 -0.438254 2.8327601
1.18185 -0.445234 2.8344102
1.18793 -0.39648399 2.80827
1.1918399 -0.40682399 2.8055701
1.18782 -0.415481 2.8077402
1.18489 -0.42580101 2.8161302
1.18004 -0.435554 2.8248401
1.1757801 -0.44303903 2.8315601
1.1905999 -0.38484699 2.7874498
1.19154 -0.39531398 2.7884302
1.18613 -0.40495801 2.7993898
1.1833999 -0.41219899 2.7990999
1.18117 -0.42185399 2.80671
1.1960601 -0.36252102 2.76476
1.19288 -0.36917099 2.7709
1.19213 -0.38164398 2.7721
1.18828 -0.39198601 2.77793
1.1818 -0.40122399 2.79143
1.1796399 -0.409114 2.7938001
1.18955 -0.37862998 2.7602999
1.18344 -0.38670897 2.7716
1.18107 -0.39632401 2.77721
1.19048 -0.439565 2.8434303
1.1898999 -0.44510502 2.8406501
1.19449 -0.42991298 2.82497
1.1897399 -0.43860599 2.8345902
1.18584 -0.44395301 2.8389401
1.19538 -0.41424197 2.8149803
1.1938701 -0.42293203 2.8136401
1.1900001 -0.433667 2.8204699
1.1832299 -0.441627 2.8329802
1.1731 -0.44468498 2.8475201
1.2007099 -0.390017 2.7995701
1.19759 -0.397544 2.8002999
1.1953601 -0.411073 2.8044698
1.19188 -0.41903499 2.8039498
1.1870201 -0.42781201 2.8094201
1.18398 -0.43629903 2.8152301
1.19495 -0.38744399 2.7979102
1.19692 -0.39606899 2.7872601
1.19191 -0.40719101 2.79441
1.1852601 -0.41824201 2.8002
1.18247 -0.426568 2.8043702
1.19796 -0.388246 2.7758498
1.19323 -0.39337897 2.78001
1.18957 -0.40068299 2.7827401
1.1846299 -0.41109699 2.7888699
1.18101 -0.42224801 2.7943201
1.19235 -0.36978698 2.76314
1.1946601 -0.38075101 2.7601199
1.1906199 -0.39084998 2.7708099
1.1883399 -0.39905497 2.77107
