# .PCD v0.7 - Point Cloud Data file format
VERSION 0.7
FIELDS x y z
SIZE 4 4 4
TYPE F F F
COUNT 1 1 1
WIDTH 1660
HEIGHT 1
VIEWPOINT 0 0 0 1 0 0 0
POINTS 1660
DATA ascii
1.0360399 -0.18726999 2.3208599
1.04944 -0.19218701 2.3106
1.05527 -0.198374 2.30252
1.05625 -0.20565701 2.3072801
1.15452 -0.30490199 2.2220402
1.0446601 -0.186359 2.3052802
1.0465 -0.19246 2.3036001
1.05088 -0.19870199 2.2972698
1.05204 -0.205185 2.2983003
1.07572 -0.30710399 2.2913198
1.04668 -0.193345 2.2966201
1.04873 -0.200417 2.29387
1.04884 -0.20659901 2.2946501
1.06169 -0.31213301 2.2945001
1.05029 -0.310828 2.2920599
1.05644 -0.315916 2.2847602
1.05252 -0.31309098 2.2820098
1.05615 -0.318721 2.2761099
1.05809 -0.32266498 2.2746899
1.06192 -0.31716999 2.2648599
1.17204 -0.19358401 2.4249399
1.17698 -0.20279199 2.4177301
1.17914 -0.21373101 2.41238
1.17883 -0.222572 2.41733
1.16636 -0.18878901 2.4168501
1.1696299 -0.19522801 2.4146202
1.17283 -0.20488001 2.4073102
1.17898 -0.21413299 2.4001501
1.17805 -0.22438601 2.4014001
1.1743599 -0.23325799 2.4082401
1.1574299 -0.19004999 2.4126699
1.16424 -0.19607201 2.40592
1.1693801 -0.20436701 2.39854
1.17222 -0.21479799 2.39501
1.1807801 -0.225786 2.3831
1.1793699 -0.234763 2.3876503
1.17347 -0.240243 2.4012601
1.15813 -0.19668101 2.3968701
1.16067 -0.205507 2.3964601
1.16917 -0.21416901 2.385
1.17111 -0.223234 2.38255
1.17989 -0.23369899 2.37152
1.18551 -0.244637 2.3609703
1.13861 -0.19896099 2.4029801
1.14847 -0.204806 2.39626
1.1606899 -0.214399 2.38186
1.1689399 -0.22664 2.3709099
1.1839399 -0.236939 2.3515999
1.18874 -0.24870101 2.3429801
1.1879001 -0.258636 2.3454599
1.18457 -0.267708 2.3489902
1.12115 -0.191036 2.4025202
1.12739 -0.197971 2.4009202
1.1398799 -0.20632099 2.3891201
1.1541899 -0.218622 2.37358
1.16856 -0.23022801 2.3574898
1.1839499 -0.240841 2.3378899
1.1876999 -0.25087798 2.3318899
1.19075 -0.260052 2.33114
1.18738 -0.26932999 2.33588
1.1203099 -0.19060498 2.3936601
1.1221299 -0.19746901 2.3937101
1.1295099 -0.20644899 2.3863001
1.1361699 -0.21605301 2.37865
1.14992 -0.224113 2.36712
1.1803501 -0.240017 2.3316102
1.18229 -0.249156 2.3255801
1.18644 -0.26058099 2.32268
1.18768 -0.27155301 2.3231602
1.1833999 -0.28062499 2.3275299
1.1134501 -0.19072001 2.38993
1.11299 -0.197468 2.3911898
1.12345 -0.206975 2.3783998
1.1285 -0.21810301 2.3727801
1.13656 -0.223051 2.3684101
1.17597 -0.243645 2.3223701
1.17615 -0.25040501 2.3185799
1.17976 -0.26017702 2.3150101
1.18181 -0.27258 2.3167002
1.18319 -0.282105 2.31638
1.17788 -0.28905401 2.3231299
1.10593 -0.190979 2.38448
1.1104599 -0.197309 2.3803799
1.11395 -0.207609 2.37219
1.1200399 -0.21782699 2.36889
1.1245201 -0.22471501 2.3673401
1.1709501 -0.246619 2.31303
1.17228 -0.253102 2.3123801
1.1770301 -0.26185399 2.3027802
1.1775299 -0.273276 2.30723
1.17785 -0.28284499 2.31113
1.1787 -0.289893 2.30954
1.10273 -0.191392 2.37393
1.10698 -0.198829 2.36973
1.11072 -0.20726199 2.3610001
1.11169 -0.21726801 2.3650501
1.11373 -0.22568701 2.3615701
1.16317 -0.24837901 2.3080702
1.1686901 -0.253575 2.3037302
1.17229 -0.26200598 2.2939999
1.17611 -0.27305201 2.2935801
1.17626 -0.28491199 2.2981601
1.17116 -0.293466 2.3045301
1.1036 -0.190458 2.3583403
1.10197 -0.19754601 2.3606
1.1040599 -0.207138 2.35499
1.10704 -0.21847901 2.3559799
1.1029 -0.228476 2.35923
1.11245 -0.232384 2.349
1.16597 -0.25432101 2.2896202
1.16729 -0.26241699 2.2884798
1.17301 -0.27109501 2.28301
1.17716 -0.28395399 2.2793601
1.17744 -0.29339099 2.2822399
1.09548 -0.191816 2.3545699
1.09946 -0.199083 2.3463299
1.0992299 -0.21133199 2.3492401
1.09873 -0.222339 2.3530099
1.09443 -0.229196 2.3561499
1.15364 -0.24917901 2.2874701
1.16117 -0.25375798 2.2816901
1.16225 -0.26363701 2.2814901
1.17379 -0.275839 2.2694299
1.17904 -0.28610599 2.26279
1.17805 -0.294945 2.2667999
1.17233 -0.302517 2.27546
1.08874 -0.19277799 2.3451998
1.0930001 -0.198221 2.34008
1.0930001 -0.207453 2.3413198
1.0880799 -0.221219 2.3498502
1.0837001 -0.229689 2.3519201
1.1449 -0.24943501 2.2867098
1.15502 -0.25440398 2.2781501
1.15342 -0.264994 2.2764902
1.16557 -0.275105 2.2655001
1.17553 -0.28421 2.2567599
1.17917 -0.294714 2.2509799
1.17922 -0.30335101 2.25315
1.0772001 -0.192864 2.34462
1.0851001 -0.199238 2.33534
1.08433 -0.212115 2.3378899
1.07666 -0.22376101 2.3475299
1.06742 -0.231142 2.35865
1.14117 -0.249374 2.2839401
1.1428399 -0.256513 2.28262
1.14644 -0.266736 2.27618
1.15539 -0.27638501 2.2652199
1.17282 -0.286553 2.24699
1.1774601 -0.29616201 2.2414498
1.17844 -0.304858 2.2398102
1.17277 -0.31257498 2.2491
1.07166 -0.193269 2.33815
1.0774601 -0.19890301 2.3269601
1.0796601 -0.20812701 2.3295901
1.07568 -0.218868 2.33444
1.07081 -0.22784701 2.3426299
1.13933 -0.27528799 2.2788801
1.16607 -0.289915 2.2402899
1.1740201 -0.29759398 2.2346201
1.1752501 -0.307879 2.2287099
1.1803399 -0.312592 2.22785
1.06926 -0.193113 2.3265901
1.0709 -0.19841999 2.3210199
1.07294 -0.20807 2.32215
1.06854 -0.21804 2.3278701
1.16028 -0.294707 2.2311099
1.16854 -0.300358 2.2257199
1.06432 -0.193451 2.31867
1.06733 -0.199993 2.3128703
1.0665699 -0.20948601 2.3144801
1.05961 -0.217132 2.3234398
1.14984 -0.297382 2.2333498
1.06098 -0.19446501 2.30777
1.05986 -0.201097 2.3057699
1.06126 -0.208554 2.3079801
1.05295 -0.194785 2.3000698
1.0575 -0.19942302 2.29475
1.05523 -0.205566 2.2984099
1.06898 -0.30716401 2.28056
1.04849 -0.19456899 2.2933402
1.05005 -0.19957899 2.2918999
1.0509601 -0.204643 2.2914498
1.0632 -0.30939099 2.2802498
1.07125 -0.311306 2.27262
1.05141 -0.194254 2.2824399
1.05042 -0.19926399 2.2837501
1.05038 -0.204262 2.2843499
1.0617299 -0.310588 2.2735701
1.06436 -0.313503 2.27069
1.0712399 -0.31120399 2.2483499
1.06427 -0.315593 2.2598701
1.06531 -0.319482 2.25616
1.06881 -0.31596398 2.2427301
1.0724701 -0.31962401 2.2338603
1.06751 -0.31721202 2.2281001
1.06354 -0.32251599 2.2290301
1.0593901 -0.314661 2.2235901
1.0561 -0.31980699 2.2275901
1.04778 -0.32793701 2.2314401
1.02083 -0.315891 2.2439499
1.03701 -0.32302201 2.2339699
1.0319101 -0.33273 2.2381201
1.02829 -0.34144199 2.24038
1.0142601 -0.317312 2.2433002
1.02473 -0.32245299 2.2345099
1.02581 -0.33505499 2.2327201
1.1312699 -0.21910401 2.4229102
1.13538 -0.21412 2.42592
1.13572 -0.2085 2.4256501
1.14428 -0.20366301 2.4295599
1.12889 -0.220806 2.4149101
1.13371 -0.216194 2.41975
1.1384799 -0.20965999 2.4219501
1.1495401 -0.20264299 2.4262099
1.1582 -0.196311 2.4292099
1.13 -0.22726201 2.4101102
1.12672 -0.22142701 2.40854
1.1364499 -0.21610799 2.4151502
1.1445099 -0.208207 2.4186099
1.15476 -0.202041 2.4233401
1.1603199 -0.197753 2.42448
1.16646 -0.193489 2.4280601
1.13179 -0.22951901 2.4063101
1.12833 -0.22421499 2.4040399
1.13403 -0.217481 2.4075899
1.14255 -0.211024 2.4125602
1.15432 -0.20465599 2.4177999
1.16127 -0.198339 2.4211199
1.1720099 -0.19455999 2.4272602
1.1739299 -0.25767499 2.4207699
1.16943 -0.252904 2.41798
1.1323 -0.23167999 2.40084
1.12848 -0.22495501 2.3993399
1.12975 -0.218752 2.3996801
1.1427 -0.211835 2.4068398
1.1614701 -0.20694099 2.4167502
1.1645401 -0.25439101 2.4130802
1.1547 -0.24642901 2.40734
1.13511 -0.23448201 2.39607
1.13012 -0.22513799 2.3952801
1.12558 -0.21613801 2.3913603
1.1468101 -0.211631 2.4049301
1.1461799 -0.24860001 2.39884
1.14245 -0.24302201 2.39659
1.13614 -0.236073 2.3915
1.12841 -0.22547701 2.3873401
1.1170601 -0.21581 2.3810301
1.1141601 -0.21130301 2.37815
1.1383799 -0.246811 2.38924
1.13942 -0.24279699 2.3901701
1.1324 -0.234679 2.38449
1.1284699 -0.22663601 2.38099
1.11631 -0.21674801 2.37533
1.1035399 -0.20918199 2.3669801
1.13518 -0.24166501 2.3814199
1.13253 -0.23416901 2.37854
1.12468 -0.22463699 2.3740399
1.1091501 -0.21441001 2.36552
1.09655 -0.20716499 2.3577402
1.1396 -0.24712299 2.3774803
1.13379 -0.241199 2.37358
1.13302 -0.23322999 2.3736401
1.12063 -0.22387101 2.36641
1.09451 -0.21099702 2.3527403
1.08333 -0.20332399 2.34605
1.0875499 -0.294779 2.3475699
1.13595 -0.247881 2.3703101
1.1336 -0.24374099 2.36742
1.13141 -0.23520599 2.3668499
1.12217 -0.226119 2.36116
1.06433 -0.201639 2.3329401
1.0605201 -0.198293 2.3311002
1.0693099 -0.29795998 2.3385501
1.07381 -0.29195899 2.3387101
1.08547 -0.28609699 2.3419399
1.1041 -0.27956399 2.3487799
1.11737 -0.27463302 2.35361
1.14569 -0.25893998 2.36678
1.1342601 -0.25050801 2.3629599
1.1330301 -0.24313499 2.3619101
1.1311699 -0.234788 2.3601301
1.12295 -0.22789699 2.3549302
1.04717 -0.19768801 2.3189499
1.05388 -0.19674 2.3236599
1.0680699 -0.298329 2.33413
1.07742 -0.29137698 2.33599
1.08796 -0.28630501 2.33934
1.09804 -0.28054199 2.3428602
1.1073201 -0.27312499 2.3461301
1.1226699 -0.26720801 2.35199
1.13139 -0.25730801 2.3564999
1.13325 -0.24993901 2.3578401
1.13121 -0.24163401 2.35466
1.12869 -0.233243 2.3532102
1.12424 -0.228296 2.3509099
1.03513 -0.19548799 2.3078601
1.04418 -0.195168 2.3138399
1.07224 -0.29746401 2.3293798
1.0839 -0.29061899 2.3338199
1.09453 -0.28586799 2.33814
1.09945 -0.280909 2.33868
1.10531 -0.27462602 2.3408201
1.11322 -0.26679701 2.3429599
1.12218 -0.25863001 2.34693
1.12988 -0.25059998 2.3508599
1.12877 -0.24284799 2.3471301
1.13335 -0.23634399 2.3499
1.12387 -0.229224 2.3464599
1.0257701 -0.194041 2.2983701
1.0328701 -0.193183 2.3031602
1.07786 -0.29993701 2.3265302
1.08342 -0.29324901 2.3294299
1.10052 -0.28779301 2.3354902
1.1066101 -0.280233 2.3374398
1.1108 -0.27255699 2.3373199
1.1132599 -0.265935 2.3381798
1.11726 -0.25974101 2.3392801
1.1283001 -0.251221 2.34322
1.1295099 -0.24343701 2.34305
1.13517 -0.23879901 2.3452802
1.12739 -0.23208 2.34255
1.01933 -0.19256701 2.2909601
1.0211799 -0.190863 2.2919602
1.09614 -0.295863 2.3311498
1.12378 -0.29230699 2.33935
1.11553 -0.28204501 2.33552
1.1195099 -0.27408502 2.33552
1.11517 -0.26564398 2.3346
1.12314 -0.25851402 2.3355401
1.1333699 -0.25157499 2.3391001
1.13353 -0.244425 2.3405199
1.1400701 -0.240289 2.3419399
1.01121 -0.191184 2.2825899
1.01867 -0.19049999 2.2860401
1.14078 -0.29476899 2.3402801
1.13696 -0.28924 2.3396399
1.12446 -0.277585 2.3322699
1.12132 -0.267079 2.33164
1.1240799 -0.26021099 2.3304598
1.1300399 -0.25368601 2.33266
1.13762 -0.246558 2.33585
1.14487 -0.24278799 2.3370402
1.14 -0.29399699 2.3352702
1.13877 -0.28902701 2.3344603
1.12925 -0.278483 2.3274
1.12588 -0.26766199 2.32725
1.12626 -0.25874799 2.3270903
1.13516 -0.25321501 2.3296599
1.14162 -0.24744301 2.33125
1.1487499 -0.24459499 2.3336599
1.14106 -0.29381099 2.3312201
1.1372499 -0.28785101 2.32758
1.1307499 -0.279782 2.32271
1.12755 -0.269777 2.32109
1.1296901 -0.260223 2.3236499
1.13631 -0.253521 2.3244901
1.14563 -0.24955401 2.3278899
1.13603 -0.29193699 2.3233802
1.13491 -0.28698599 2.32094
1.12874 -0.27789199 2.31671
1.1258399 -0.26845801 2.31394
1.13161 -0.26124299 2.31848
1.1391001 -0.25556299 2.3203201
1.1451401 -0.25059402 2.3238602
1.13264 -0.290784 2.3159399
1.1285701 -0.284601 2.3124499
1.12658 -0.27582702 2.3097298
1.12503 -0.26785901 2.30901
1.1293499 -0.26167601 2.3111701
1.12306 -0.25468901 2.3076401
1.12989 -0.28979701 2.3080201
1.12752 -0.28359801 2.30651
1.12628 -0.27661502 2.3034501
1.1269001 -0.26771298 2.30474
1.12995 -0.26056802 2.3051801
1.1144201 -0.248022 2.2927401
1.1315399 -0.29095802 2.3030801
1.1258999 -0.28429002 2.2998102
1.12514 -0.27695501 2.29831
1.1269001 -0.26920098 2.2981601
1.12937 -0.261518 2.2999101
1.12858 -0.253297 2.2969401
1.12325 -0.246985 2.2936401
1.13126 -0.290975 2.2978399
1.1266301 -0.28530002 2.2941401
1.127 -0.277417 2.2936401
1.12844 -0.26804799 2.2929299
1.13085 -0.26049399 2.2946301
1.13028 -0.253391 2.2932801
1.13511 -0.25037599 2.2944801
1.12468 -0.28879401 2.2888601
1.1250701 -0.28375798 2.28881
1.12484 -0.277509 2.2867999
1.12999 -0.270246 2.2883101
1.1319699 -0.26252499 2.29
1.1366 -0.255748 2.2911701
1.1412899 -0.25136602 2.29159
1.12563 -0.289363 2.2835102
1.1242 -0.28389001 2.28245
1.12783 -0.27598801 2.28285
1.13386 -0.270206 2.2848501
1.1375901 -0.26385099 2.2867701
1.14179 -0.256547 2.2883599
1.15151 -0.253259 2.29233
1.12292 -0.28908399 2.2768798
1.12266 -0.28433001 2.2767098
1.1257499 -0.278606 2.2771399
1.13348 -0.27072799 2.2793398
1.145 -0.26547 2.2845199
1.14297 -0.30257401 2.2773199
1.12959 -0.29336798 2.2725401
1.12359 -0.28446302 2.2723401
1.1338401 -0.27825299 2.27405
1.13914 -0.27241001 2.2757001
1.14343 -0.268401 2.2772799
1.13704 -0.300928 2.2716501
1.12708 -0.293529 2.26615
1.13112 -0.28594801 2.26879
1.13412 -0.278438 2.2690899
1.14273 -0.273592 2.2716601
1.15502 -0.27151799 2.2758999
1.13538 -0.30089599 2.2657199
1.1278601 -0.29451501 2.2621398
1.13107 -0.287983 2.2623401
1.13757 -0.27899998 2.2653701
1.14689 -0.27417299 2.26792
1.15277 -0.27101299 2.2695901
1.1345301 -0.30197701 2.26021
1.12985 -0.29566801 2.2581201
1.1319699 -0.288113 2.2564099
1.13535 -0.280119 2.2584798
1.14931 -0.275011 2.26373
1.15587 -0.271669 2.2653
1.13387 -0.30294099 2.2545099
1.1311699 -0.29585302 2.2523501
1.1295301 -0.287305 2.2500298
1.13536 -0.28173199 2.25352
1.1448001 -0.27646101 2.25651
1.15526 -0.272466 2.2601402
1.1383899 -0.309421 2.2513602
1.1312001 -0.30289 2.2479699
1.12853 -0.29450199 2.2455702
1.1308399 -0.28768 2.2463801
1.13568 -0.28172502 2.2485101
1.1510299 -0.27731299 2.25418
1.1600599 -0.27362201 2.2581799
1.13176 -0.308027 2.2440701
1.12839 -0.30179599 2.2410603
1.13098 -0.29587099 2.24207
1.1319001 -0.28886402 2.2423999
1.1402301 -0.28358299 2.2442598
1.12909 -0.30851901 2.2365899
1.12946 -0.30268201 2.2358301
1.13167 -0.29617 2.2379599
1.13699 -0.28994101 2.2382598
1.14557 -0.28714502 2.2397501
1.1537 -0.33405399 2.2379301
1.15835 -0.33204898 2.23979
1.13489 -0.314457 2.2328701
1.13068 -0.30605599 2.2314901
1.1337301 -0.29739001 2.2323
1.14218 -0.291374 2.2350602
1.15461 -0.29085198 2.2384303
1.14022 -0.32932702 2.2298901
1.1431401 -0.32562101 2.2321398
1.1307 -0.31326801 2.22665
1.12968 -0.304138 2.2266901
1.13371 -0.298655 2.2263401
1.14355 -0.29432499 2.2301002
1.13662 -0.32893199 2.2238603
1.13727 -0.323699 2.22544
1.13071 -0.31412801 2.2206602
1.1331 -0.305722 2.2228501
1.14036 -0.29981601 2.2231202
1.15264 -0.29756001 2.22716
1.14999 -0.29816201 2.2208099
1.13027 -0.218815 2.42609
1.13542 -0.214646 2.4290702
1.1251 -0.21989599 2.4168899
1.1303 -0.214293 2.42049
1.14015 -0.208469 2.4258001
1.14416 -0.2018 2.42607
1.13353 -0.22902201 2.41769
1.1237999 -0.22191799 2.4110301
1.12973 -0.216277 2.41431
1.1385 -0.20982599 2.4185901
1.1464801 -0.203225 2.4224999
1.15563 -0.19927099 2.4242902
1.16379 -0.19602101 2.4286499
1.13226 -0.229605 2.41238
1.1241601 -0.222991 2.4061599
1.12783 -0.217475 2.40767
1.13543 -0.21094102 2.4109702
1.1464801 -0.204551 2.4160299
1.16231 -0.201057 2.42326
1.17146 -0.19790399 2.42853
1.1290001 -0.22847 2.40414
1.12516 -0.221413 2.4013801
1.13201 -0.21520901 2.4039001
1.1400399 -0.20954901 2.4077599
1.1515599 -0.206919 2.4118798
1.13054 -0.22971301 2.3979902
1.12551 -0.223497 2.3964701
1.12851 -0.21719199 2.3964999
1.14081 -0.21156901 2.4017901
1.15316 -0.20997101 2.4052899
1.13325 -0.23127002 2.39362
1.1268901 -0.223396 2.3901901
1.13423 -0.21610799 2.3931
1.14487 -0.21207599 2.3975
1.15513 -0.211661 2.4002199
1.1294399 -0.231262 2.3854101
1.1261799 -0.223324 2.3832002
1.13038 -0.217641 2.3860502
1.1444 -0.21435301 2.3917999
1.1538501 -0.212703 2.3949802
1.13298 -0.238719 2.3828299
1.12863 -0.233731 2.3794601
1.12817 -0.22670601 2.3790302
1.1312699 -0.218808 2.3806601
1.1498101 -0.21773501 2.3891101
1.13052 -0.239519 2.3767998
1.1274099 -0.232888 2.3733499
1.12923 -0.22502799 2.37483
1.13398 -0.220828 2.3760102
1.14316 -0.25335899 2.3750501
1.12916 -0.24195299 2.3694201
1.12333 -0.232896 2.3649702
1.12789 -0.22631 2.3689001
1.13506 -0.22429001 2.3711801
1.1442 -0.260535 2.3705099
1.12991 -0.249613 2.3647201
1.12754 -0.24197 2.36361
1.12054 -0.23358601 2.3579299
1.1215301 -0.22686 2.3604102
1.06335 -0.29499 2.3364201
1.07076 -0.28999501 2.3385301
1.08051 -0.28455698 2.34095
1.09043 -0.277435 2.3431001
1.10431 -0.273487 2.3479102
1.12919 -0.252765 2.359
1.12831 -0.244629 2.3583899
1.1154901 -0.23295 2.3501902
1.11839 -0.228375 2.3523901
1.06417 -0.29397199 2.3335299
1.0759799 -0.28920799 2.3377099
1.0847 -0.28367501 2.3389902
1.0922101 -0.27753299 2.3406
1.0987899 -0.27188298 2.3425901
1.10974 -0.26623198 2.3460603
1.12463 -0.26020801 2.3524899
1.12545 -0.251562 2.3514903
1.1230301 -0.24127899 2.3502402
1.11174 -0.23049299 2.3425601
1.09904 -0.221315 2.3346601
1.06419 -0.295349 2.3287201
1.07838 -0.29029101 2.3343399
1.0883499 -0.285855 2.3368599
1.09176 -0.27976999 2.3367901
1.09894 -0.27349898 2.3383999
1.1081901 -0.26752502 2.3412399
1.11877 -0.26001799 2.3446898
1.12082 -0.25083798 2.3428602
1.1212699 -0.24173 2.3439002
1.10768 -0.230152 2.3346701
1.1102901 -0.225683 2.3364098
1.07485 -0.29339099 2.329
1.09156 -0.286093 2.33406
1.09813 -0.277843 2.33377
1.10559 -0.27163899 2.3354101
1.11342 -0.26509199 2.3374701
1.12079 -0.25812998 2.3392301
1.12327 -0.251715 2.3394201
1.11765 -0.242108 2.33617
1.10366 -0.22996099 2.32758
1.10765 -0.226088 2.3301599
1.0742199 -0.30339301 2.32622
1.11335 -0.28318301 2.33585
1.11236 -0.27523398 2.3332901
1.1122299 -0.26758701 2.33253
1.11797 -0.26081499 2.3325698
1.12186 -0.25207502 2.3345001
1.10404 -0.236762 2.32427
1.08811 -0.224253 2.31587
1.1233699 -0.27827001 2.3322699
1.11642 -0.26896799 2.32901
1.1206 -0.26306999 2.3277802
1.1199299 -0.25463599 2.3272698
1.07355 -0.22236499 2.3053901
1.0624501 -0.21535701 2.2983201
1.12912 -0.27808902 2.3286402
1.12075 -0.269669 2.3245699
1.11981 -0.261659 2.3220201
1.11502 -0.25465301 2.3180001
1.0476201 -0.21281999 2.2886498
1.03627 -0.20668 2.2815301
1.12299 -0.27348301 2.3215799
1.12137 -0.26755199 2.3196499
1.1151201 -0.25920498 2.3149099
1.11358 -0.254044 2.3126299
1.0297799 -0.206414 2.27616
1.0141001 -0.198897 2.2680001
1.11744 -0.26493499 2.3145502
1.11131 -0.25706601 2.3100698
1.0985399 -0.248281 2.30357
1.01851 -0.20273 2.2681298
1.1290799 -0.29493701 2.28456
1.11795 -0.286412 2.27965
1.123 -0.26530999 2.27844
1.13489 -0.26537701 2.2828
1.14624 -0.30990499 2.2860601
1.12352 -0.289179 2.27862
1.12042 -0.281573 2.27738
1.12915 -0.274598 2.2790101
1.13578 -0.27018601 2.2802601
1.13877 -0.31056601 2.2813101
1.1347899 -0.302964 2.27876
1.12508 -0.28957 2.2744
1.1249 -0.28150401 2.2752099
1.13098 -0.274468 2.27509
1.1470799 -0.27301002 2.2784901
1.13679 -0.309378 2.27707
1.13336 -0.30379599 2.2734799
1.1278 -0.292968 2.2700799
1.1285701 -0.28217399 2.27057
1.14063 -0.27613199 2.27263
1.15211 -0.273231 2.2753201
1.1661 -0.27449501 2.28072
1.12906 -0.30637601 2.2685502
1.12788 -0.30028799 2.26559
1.1261901 -0.291217 2.26367
1.1301301 -0.28543401 2.26582
1.13437 -0.27768001 2.2656701
1.15236 -0.27471 2.2704501
1.1559401 -0.27067199 2.2723801
1.12989 -0.30672899 2.26244
1.12463 -0.30015799 2.25964
1.12731 -0.29446399 2.2595999
1.1304699 -0.284738 2.2594101
1.14504 -0.27865601 2.2634702
1.15233 -0.27417299 2.2652802
1.15913 -0.272291 2.2672698
1.13736 -0.310424 2.2596099
1.12692 -0.30103701 2.25547
1.12491 -0.29154399 2.2530601
1.12904 -0.284899 2.25264
1.13833 -0.27948999 2.25578
1.15417 -0.27587 2.2611499
1.16116 -0.27285999 2.2621801
1.12877 -0.30676201 2.25069
1.1250701 -0.29831898 2.24861
1.12464 -0.289729 2.24772
1.13316 -0.28495002 2.2488799
1.1469001 -0.28037202 2.25436
1.15859 -0.277574 2.2581
1.17234 -0.27656001 2.2627702
1.12893 -0.30781901 2.24542
1.12705 -0.30223399 2.2440302
1.12723 -0.293176 2.2430899
1.13164 -0.28656501 2.24279
1.14296 -0.28213701 2.24827
1.1275901 -0.30794901 2.2400401
1.1266999 -0.30161101 2.2380199
1.12807 -0.29319701 2.2365799
1.13431 -0.28779802 2.2396302
1.13677 -0.31957 2.2358401
1.1287999 -0.31037599 2.2339301
1.12744 -0.302313 2.2322299
1.12931 -0.29558301 2.2310603
1.13162 -0.28989401 2.2319698
1.13836 -0.32024202 2.23315
1.12748 -0.31024399 2.2281101
1.12835 -0.30223399 2.2267501
1.1308399 -0.294875 2.2261498
1.13343 -0.29093599 2.2269602
1.13065 -0.31666002 2.2251801
1.1284 -0.30996799 2.22207
1.12959 -0.301213 2.2216401
1.1304699 -0.29489902 2.22119
1.13472 -0.29211199 2.2218599
1.12922 -0.216693 2.4297602
1.1326699 -0.209567 2.4291799
1.13519 -0.202287 2.4289701
1.12571 -0.221532 2.42255
1.12947 -0.21604 2.4235699
1.13358 -0.21034099 2.42432
1.1406 -0.20452601 2.4261301
1.14915 -0.199036 2.4285102
1.11947 -0.21999399 2.41395
1.1274199 -0.21777301 2.4161599
1.13324 -0.210177 2.41869
1.13906 -0.203872 2.41975
1.1540101 -0.201132 2.42535
1.1267099 -0.223711 2.4117401
1.12471 -0.217031 2.4075201
1.13265 -0.21216699 2.4119601
1.14092 -0.205604 2.4157598
1.15323 -0.20198601 2.4195001
1.16861 -0.199255 2.4274702
1.12001 -0.22209801 2.4006701
1.1252201 -0.217355 2.40203
1.1307499 -0.21290702 2.4054
1.13782 -0.207919 2.4077802
1.17127 -0.205685 2.4260001
1.1134501 -0.22570999 2.39307
1.11579 -0.22287101 2.39293
1.12261 -0.21862301 2.3957102
1.13237 -0.213689 2.39991
1.13801 -0.20990299 2.3998802
1.11005 -0.225376 2.38591
1.1150299 -0.22140801 2.3871801
1.13028 -0.219042 2.3934
1.13657 -0.21405701 2.39539
1.14545 -0.21370099 2.39678
1.09593 -0.22015499 2.3737202
1.1061699 -0.220245 2.37764
1.1225801 -0.219643 2.3839903
1.13709 -0.21632299 2.3894699
1.1514 -0.21710199 2.3935299
1.09633 -0.22059 2.3687201
1.1097599 -0.221017 2.3730099
1.12809 -0.22026101 2.3801301
1.1423 -0.218518 2.3852801
1.15582 -0.21971701 2.3904002
1.09781 -0.221251 2.3624701
1.11726 -0.22346701 2.36974
1.13536 -0.222394 2.3779502
1.14289 -0.22038001 2.3796499
1.0945801 -0.224447 2.35602
1.10402 -0.22469901 2.3599398
1.11479 -0.22397499 2.36256
1.13401 -0.22417 2.37117
1.15187 -0.22667101 2.3772001
1.1071299 -0.226446 2.35516
1.12595 -0.227452 2.3622901
1.14276 -0.227855 2.3694401
1.15192 -0.22817498 2.37219
1.11516 -0.267414 2.3543601
1.11586 -0.26264501 2.3538198
1.10461 -0.228972 2.3467002
1.11875 -0.228192 2.3532102
1.13797 -0.22892599 2.3613
1.06301 -0.29000199 2.3349802
1.0707 -0.28504601 2.3369501
1.0759101 -0.27910298 2.33745
1.08744 -0.27399701 2.3408899
1.10076 -0.26841298 2.3455002
1.1147799 -0.26659301 2.35164
1.1088201 -0.25809601 2.34708
1.08973 -0.230588 2.3350899
1.10869 -0.23114599 2.3433199
1.12649 -0.230608 2.3502302
1.14116 -0.230683 2.35444
1.06046 -0.29230699 2.3313
1.0713 -0.28588 2.33371
1.08533 -0.28041101 2.3378701
1.0937101 -0.274452 2.3403399
1.0993299 -0.269532 2.3408003
1.10123 -0.26064399 2.3408701
1.09699 -0.247133 2.3360801
1.09421 -0.233869 2.3320801
1.11386 -0.231947 2.33969
1.13738 -0.23378401 2.3483002
1.15499 -0.23567499 2.3536499
1.0646601 -0.292878 2.32814
1.07512 -0.28953302 2.3301902
1.08251 -0.28308499 2.33215
1.09472 -0.27599999 2.33534
1.09734 -0.26630101 2.33535
1.09632 -0.25609699 2.3324201
1.08989 -0.24247801 2.3269601
1.08812 -0.233218 2.3239999
1.10637 -0.23313899 2.33128
1.1301301 -0.234403 2.3401198
1.15029 -0.23470899 2.3469601
1.16792 -0.236494 2.3522401
1.06858 -0.29411101 2.32477
1.08454 -0.29252398 2.3299601
1.09632 -0.28658599 2.33268
1.10455 -0.27974501 2.33336
1.09958 -0.267288 2.33042
1.09118 -0.25158301 2.3238199
1.0828 -0.23757601 2.3181
1.0914 -0.233071 2.3210402
1.11494 -0.235604 2.3292301
1.14143 -0.23777001 2.3387001
1.16101 -0.238232 2.3452899
1.1743901 -0.238741 2.3490701
1.07109 -0.30434901 2.32446
1.0829799 -0.29964399 2.3278298
1.09637 -0.29764798 2.3321803
1.11797 -0.28761801 2.3362303
1.10932 -0.275612 2.3308201
1.09321 -0.25588101 2.3204901
1.08568 -0.242483 2.3145301
1.08936 -0.234815 2.3150101
1.13082 -0.240776 2.32951
1.14973 -0.24085501 2.3360901
1.17108 -0.242733 2.3438902
1.1804 -0.242019 2.3470502
1.11889 -0.282684 2.3329301
1.0831 -0.244725 2.3080401
1.0878501 -0.24030599 2.3097601
1.10517 -0.239658 2.31495
1.13726 -0.24483299 2.32656
1.15947 -0.24627899 2.3345098
1.1755201 -0.246563 2.3410902
1.07239 -0.239474 2.29635
1.09096 -0.24127899 2.30477
1.1199 -0.24549 2.3157001
1.1423301 -0.24787301 2.32284
1.1684201 -0.252671 2.3323002
1.07095 -0.239876 2.2910399
1.08144 -0.24093001 2.2948699
1.12472 -0.249202 2.3116202
1.15706 -0.25517201 2.3224702
1.1667401 -0.25350702 2.3250101
1.0802799 -0.243615 2.2900698
1.10109 -0.24722901 2.2966502
1.12962 -0.25155899 2.3058999
1.1684999 -0.25865299 2.32112
1.18093 -0.25968999 2.3270199
1.09733 -0.25087401 2.2901502
1.1187999 -0.25425699 2.2971601
1.13366 -0.25272 2.3009799
1.14992 -0.25266302 2.3075101
1.15633 -0.249965 2.30969
1.10271 -0.255813 2.2866201
1.11364 -0.25562099 2.2899101
1.1298699 -0.25397199 2.2942998
1.14258 -0.25068301 2.29881
1.15157 -0.24919599 2.3027802
1.1145099 -0.263641 2.28543
1.12454 -0.26027501 2.2878399
1.13218 -0.25526699 2.2902801
1.13956 -0.25115699 2.2925699
1.14745 -0.247622 2.2952802
1.1094999 -0.27092099 2.2780302
1.12069 -0.268666 2.2822101
1.12681 -0.26393899 2.2831399
1.13392 -0.25708902 2.2867801
1.15098 -0.25444701 2.2935901
1.1530499 -0.24935199 2.2937601
1.11538 -0.283476 2.2755599
1.11834 -0.276934 2.2769201
1.1262001 -0.27179599 2.27881
1.13462 -0.26774299 2.2808499
1.12291 -0.29741502 2.2737398
1.11903 -0.28600702 2.27263
1.1226799 -0.278108 2.2731102
1.13114 -0.272762 2.2744203
1.14248 -0.27164701 2.2766399
1.13106 -0.309778 2.2740798
1.1334 -0.30679801 2.2735603
1.1229399 -0.2924 2.26846
1.1223 -0.28222001 2.2684
1.13012 -0.27636102 2.2691202
1.14082 -0.27177799 2.2707102
1.1477101 -0.26973301 2.27263
1.1294999 -0.309865 2.2690701
1.12431 -0.30125201 2.2648599
1.11938 -0.290526 2.26212
1.12456 -0.28336099 2.26266
1.13421 -0.27540299 2.2642503
1.14337 -0.27202499 2.2663801
1.14776 -0.26876602 2.2671099
1.19305 -0.27373698 2.27685
1.2111499 -0.27630198 2.2828
1.1237301 -0.30642599 2.2607102
1.12211 -0.30075198 2.2593
1.1206501 -0.29190502 2.2576001
1.12409 -0.28403601 2.2560799
1.13056 -0.27738601 2.25773
1.14617 -0.27399099 2.2622499
1.16537 -0.27198899 2.2662399
1.19159 -0.27401799 2.2738101
1.20289 -0.272351 2.2775602
1.11763 -0.30274701 2.2526002
1.1223301 -0.30023599 2.2545199
1.1209201 -0.289886 2.2506101
1.12809 -0.28326699 2.2526002
1.13755 -0.27853099 2.25441
1.15333 -0.275855 2.2585602
1.1664801 -0.27411199 2.26212
1.20635 -0.27741 2.2771399
1.21693 -0.27737302 2.2804801
1.11843 -0.29754102 2.2455802
1.1213 -0.290739 2.2451999
1.12707 -0.28367701 2.24635
1.1435 -0.28049201 2.2516699
1.16206 -0.28143299 2.2575202
1.1756301 -0.28074199 2.26211
1.12721 -0.30883101 2.2439001
1.12271 -0.30191901 2.24085
1.12122 -0.29165199 2.2395599
1.12458 -0.283957 2.2403703
1.13827 -0.28228399 2.2456298
1.12272 -0.30685899 2.2373002
1.11849 -0.29888999 2.2339902
1.1228 -0.293578 2.2332299
1.12414 -0.285923 2.23562
1.1234 -0.306642 2.2309701
1.11885 -0.29830399 2.22876
1.12462 -0.29516599 2.22839
1.12737 -0.290252 2.2291801
1.12085 -0.30636102 2.2230899
1.12374 -0.301397 2.2247202
1.12749 -0.295362 2.2241602
1.12723 -0.289996 2.22334
1.1291699 -0.21951 2.42854
1.1308999 -0.20622601 2.4279199
1.12006 -0.21610099 2.4184701
1.12632 -0.211895 2.42243
1.12975 -0.205384 2.4222
1.13586 -0.19885401 2.4229598
1.15247 -0.196502 2.4279101
1.1123201 -0.21584101 2.4084799
1.12585 -0.213862 2.4156399
1.13008 -0.205034 2.4168398
1.13825 -0.20044 2.41853
1.14528 -0.195979 2.41975
1.1589199 -0.193423 2.42434
1.1687599 -0.19120198 2.42857
1.1169699 -0.227898 2.4071
1.1108201 -0.217876 2.4031799
1.11918 -0.213148 2.4057901
1.1338099 -0.209503 2.4120901
1.14057 -0.202024 2.4145701
1.1585 -0.202029 2.42026
1.1701599 -0.19872801 2.42501
1.17734 -0.19544001 2.4283402
1.1022 -0.22607799 2.3952999
1.109 -0.223313 2.39867
1.11396 -0.21816 2.40026
1.11831 -0.21295099 2.3996
1.13016 -0.21027201 2.4040499
1.14582 -0.206926 2.41032
1.16625 -0.20789601 2.4187899
1.09435 -0.224186 2.3860199
1.10024 -0.221021 2.3886802
1.11236 -0.217613 2.3935699
1.12468 -0.21433501 2.3975401
1.1393 -0.21326201 2.40201
1.1579499 -0.21496201 2.40904
1.08676 -0.220643 2.3773
1.09219 -0.21864501 2.3789902
1.10832 -0.21885799 2.3853102
1.12316 -0.21475099 2.3905098
1.14685 -0.217363 2.3988299
1.16064 -0.218868 2.4036701
1.0878 -0.220743 2.37184
1.09551 -0.217831 2.3739402
1.11611 -0.219309 2.3817301
1.1317401 -0.217535 2.38711
1.15166 -0.220319 2.3958199
1.17031 -0.22465599 2.4045801
1.08332 -0.2186 2.3635399
1.09271 -0.21873501 2.3668499
1.11048 -0.22013001 2.37339
1.12414 -0.21786699 2.3779001
1.13537 -0.216424 2.3818302
1.08323 -0.21870799 2.3573401
1.10241 -0.222335 2.3647299
1.11964 -0.222433 2.3710001
1.1303099 -0.220364 2.37517
1.13573 -0.219072 2.37622
1.08429 -0.22613899 2.3517199
1.08275 -0.22047399 2.3513
1.0960801 -0.22234301 2.35659
1.11659 -0.22488099 2.3638401
1.12594 -0.220807 2.3670099
1.0905 -0.224602 2.3503501
1.10893 -0.22809701 2.35586
1.1228601 -0.22675301 2.3592701
1.1306601 -0.22490999 2.3621802
1.09435 -0.27780101 2.3497901
1.09356 -0.26179799 2.3461199
1.10314 -0.229903 2.3492098
1.11838 -0.23153 2.35256
1.1264 -0.228981 2.3551998
1.13246 -0.226346 2.35641
1.06426 -0.292824 2.3384399
1.06846 -0.28462201 2.3384101
1.0796601 -0.278391 2.3419502
1.0856301 -0.27266002 2.3425798
1.08903 -0.26545399 2.3430099
1.0868 -0.256542 2.3397501
1.06489 -0.232308 2.3239701
1.1110901 -0.234541 2.3449202
1.1210901 -0.233657 2.34724
1.1303099 -0.23099701 2.3515201
1.14431 -0.230003 2.3529801
1.1630501 -0.23407699 2.3589599
1.06564 -0.283941 2.33336
1.0790401 -0.28036401 2.33794
1.0844899 -0.27236998 2.3370299
1.08903 -0.265048 2.3391101
1.07656 -0.246315 2.3292
1.06511 -0.230684 2.3206201
1.1105599 -0.23647301 2.3386898
1.11857 -0.23518901 2.3410902
1.13436 -0.23348801 2.3456602
1.1523499 -0.23358801 2.35057
1.15853 -0.23139 2.3531299
1.07225 -0.28493899 2.33109
1.0815101 -0.27893499 2.33301
1.08486 -0.27259701 2.3328102
1.0877301 -0.26695099 2.33323
1.06504 -0.23307301 2.3171499
1.07002 -0.23147899 2.31845
1.11235 -0.24002899 2.33342
1.12389 -0.237076 2.33775
1.13501 -0.235912 2.3396499
1.14798 -0.23397399 2.3436801
1.1596199 -0.23294599 2.34724
1.06943 -0.288618 2.32564
1.0820301 -0.28356799 2.3295801
1.08727 -0.27557698 2.3304701
1.08705 -0.26962999 2.32901
1.06329 -0.231336 2.31004
1.07758 -0.23334 2.3159702
1.10633 -0.240493 2.3250399
1.12403 -0.23899999 2.3316603
1.14178 -0.238566 2.3367901
1.1541101 -0.23604201 2.33986
1.16739 -0.237433 2.3433499
1.0696 -0.29884398 2.3234301
1.0796701 -0.294287 2.3269501
1.08559 -0.27579901 2.3267503
1.05349 -0.229617 2.3020902
1.06885 -0.234863 2.30848
1.08143 -0.23638001 2.3119001
1.11965 -0.24517201 2.3241401
1.1341701 -0.24298701 2.3299499
1.1490899 -0.24230601 2.3338699
1.1637501 -0.24139601 2.3383701
1.17645 -0.24285299 2.3427899
1.07578 -0.238234 2.3063002
1.09813 -0.244426 2.3122201
1.11676 -0.24706601 2.3171601
1.1318699 -0.244627 2.3229599
1.15607 -0.247215 2.33198
1.17309 -0.247077 2.3390601
1.09247 -0.24726 2.3066201
1.10721 -0.24978901 2.3097
1.12535 -0.25144899 2.3152802
1.13897 -0.250669 2.31952
1.1039 -0.254282 2.30463
1.11816 -0.25613201 2.3072698
1.1305799 -0.25403699 2.31159
1.14114 -0.255097 2.31335
1.04608 -0.32396498 2.29862
1.11282 -0.261978 2.3015399
1.11711 -0.258569 2.3004801
1.13226 -0.25714001 2.30548
1.1420701 -0.25663099 2.3085101
1.09881 -0.259083 2.2927802
1.11571 -0.26571599 2.29655
1.12357 -0.261639 2.2967801
1.1311001 -0.256387 2.2981799
1.1379399 -0.25458801 2.30163
1.1147 -0.27294502 2.29126
1.11792 -0.26871598 2.2909899
1.12071 -0.26218301 2.2898998
1.12843 -0.257566 2.2920599
1.13653 -0.25531 2.2943602
1.1180999 -0.27777901 2.2865899
1.11771 -0.26925698 2.2846701
1.12312 -0.26199099 2.2862399
1.13212 -0.25850499 2.2885199
1.1369799 -0.254435 2.2897501
1.11691 -0.28749901 2.2802701
1.11641 -0.27843601 2.2806702
1.11936 -0.27306402 2.2796803
1.12316 -0.26536 2.2804401
1.14686 -0.264433 2.2913401
1.1207399 -0.29880199 2.2776198
1.11979 -0.29249501 2.2773502
1.11762 -0.28150499 2.2751999
1.12016 -0.27187902 2.2748902
1.1268001 -0.26755199 2.27337
1.16023 -0.27332398 2.27948
1.11633 -0.29758 2.2705801
1.11992 -0.29347 2.2729199
1.11914 -0.283205 2.2686999
1.1240001 -0.274988 2.2705402
1.1329399 -0.27041 2.2698503
1.1517199 -0.270944 2.2741001
1.16891 -0.274169 2.2793798
1.12414 -0.30418399 2.26775
1.119 -0.29373899 2.2664301
1.12159 -0.28570998 2.26297
1.12572 -0.27511102 2.2640901
1.1396 -0.27102199 2.2664199
1.15233 -0.26994801 2.2688501
1.1550801 -0.26656699 2.2704501
1.1278701 -0.30730399 2.26423
1.11904 -0.29503599 2.2600203
1.11778 -0.28490001 2.2559202
1.12494 -0.27703199 2.2569299
1.13535 -0.27235401 2.2608302
1.1457599 -0.26887301 2.2620199
1.15765 -0.26876199 2.26491
1.12502 -0.304941 2.25827
1.11875 -0.293742 2.25316
1.11823 -0.28248501 2.2497602
1.12755 -0.277109 2.2515399
1.13551 -0.27209601 2.25509
1.15335 -0.27247199 2.2594001
1.15948 -0.268727 2.2608099
1.11991 -0.30061701 2.25001
1.118 -0.29199699 2.24595
1.11467 -0.281185 2.24368
1.12462 -0.27888501 2.24581
1.1357599 -0.27520201 2.24862
1.1692901 -0.27877301 2.2620001
1.1181099 -0.299225 2.2424803
1.11654 -0.29192302 2.2386498
1.1196901 -0.284623 2.24055
1.1292601 -0.28029901 2.2411301
1.14281 -0.281297 2.2434602
1.1144201 -0.297167 2.2340701
1.11919 -0.294193 2.2344
1.1256 -0.28815499 2.2351902
1.1367 -0.28337801 2.2370002
1.14893 -0.28507501 2.2402899
1.1154 -0.29839098 2.2284501
1.1185601 -0.29345599 2.2284601
1.12299 -0.28712699 2.22859
1.13465 -0.28541601 2.2303801
1.13983 -0.280738 2.2322299
1.1162699 -0.29946899 2.2224
1.12169 -0.29551101 2.2230301
1.12585 -0.28927699 2.22456
1.1398001 -0.289478 2.22579
1.1460099 -0.28580999 2.2271802
1.15491 -0.29715598 2.2246599
1.16497 -0.29697201 2.2276001
1.17167 -0.30380499 2.22574
1.16787 -0.29753599 2.2243202
1.1798301 -0.30881202 2.22579
1.12988 -0.22371201 2.4276502
1.12825 -0.21444701 2.4267199
1.13341 -0.209121 2.4280403
1.14235 -0.20380899 2.4299898
1.12273 -0.22025 2.41945
1.1255001 -0.214203 2.41926
1.13336 -0.209722 2.4229102
1.13526 -0.201318 2.4196501
1.14762 -0.198287 2.4238198
1.1573 -0.19752198 2.4252601
1.12075 -0.22242901 2.4127898
1.12419 -0.21735701 2.4133401
1.12887 -0.208216 2.4136002
1.13912 -0.20238 2.4149702
1.15087 -0.199791 2.4180899
1.16186 -0.20076099 2.4214401
1.12341 -0.23015399 2.41132
1.1181999 -0.220438 2.4051001
1.12352 -0.214103 2.4070001
1.1327 -0.20896798 2.4074099
1.14252 -0.204421 2.4108801
1.16354 -0.21005301 2.4179699
1.10393 -0.217952 2.3919101
1.1128501 -0.217658 2.3957
1.12511 -0.21648501 2.4015799
1.1294301 -0.21002501 2.3994
1.14474 -0.20884001 2.4052401
1.16044 -0.21208401 2.41063
1.09566 -0.21434799 2.3819799
1.1069 -0.215883 2.38814
1.1192601 -0.214652 2.3920999
1.1345 -0.212862 2.39556
1.1471 -0.212861 2.3996
1.08675 -0.21162 2.3710501
1.10479 -0.214687 2.38117
1.12242 -0.21575001 2.3861401
1.13538 -0.21417999 2.38943
1.14893 -0.217362 2.3942502
1.0696399 -0.219331 2.3605402
1.0751799 -0.215914 2.3619502
1.08105 -0.21029601 2.36393
1.1052899 -0.21625 2.37375
1.12643 -0.21785 2.3817301
1.1319799 -0.21468501 2.3815701
1.06356 -0.21630301 2.3542902
1.06282 -0.21030001 2.3517501
1.08103 -0.21236999 2.35906
1.10563 -0.21866399 2.3671899
1.12124 -0.21788201 2.3727701
1.13728 -0.22149901 2.3764002
1.05716 -0.21377599 2.34533
1.06124 -0.208901 2.3457301
1.09383 -0.21834299 2.3587501
1.11578 -0.22351401 2.3656299
1.1291001 -0.223242 2.3687501
1.14054 -0.22438699 2.3706701
1.0374401 -0.206847 2.33057
1.04531 -0.20684299 2.33406
1.05062 -0.20556802 2.3353701
1.1130999 -0.22818799 2.3608201
1.1233699 -0.22802 2.3623002
1.136 -0.22799601 2.36496
1.1493801 -0.23052901 2.3678601
1.043 -0.213974 2.3277402
1.03974 -0.20590401 2.3265901
1.05382 -0.21076299 2.3312302
1.1213601 -0.23468901 2.35779
1.12929 -0.23289199 2.3580499
1.14192 -0.231416 2.3605499
1.15862 -0.235047 2.36479
1.07818 -0.28990498 2.34588
1.07647 -0.27472201 2.3414903
1.0866799 -0.27385101 2.34445
1.0441999 -0.21691699 2.32371
1.04897 -0.214525 2.32496
1.07693 -0.224491 2.3334799
1.11443 -0.234312 2.3471801
1.13252 -0.233923 2.35148
1.1530499 -0.236009 2.3580599
1.16313 -0.23516399 2.3597202
1.0603 -0.29460099 2.3371301
1.06796 -0.290369 2.3401699
1.0736699 -0.283535 2.33934
1.07766 -0.27406901 2.33792
1.0775 -0.262573 2.3361001
1.0617601 -0.23429701 2.3273599
1.06839 -0.2306 2.32743
1.1044101 -0.238864 2.3378899
1.12196 -0.23840401 2.3434899
1.13351 -0.23585501 2.3452802
1.14985 -0.23618901 2.3506899
1.1634201 -0.23517099 2.3545902
1.17724 -0.238572 2.3594201
1.06673 -0.290539 2.3346
1.0711399 -0.28351602 2.33393
1.07854 -0.279412 2.3346801
1.0803399 -0.26750901 2.3325698
1.07084 -0.24437 2.3255601
1.08531 -0.240077 2.3275101
1.10396 -0.24163601 2.3313501
1.11246 -0.236532 2.33461
1.12815 -0.23678499 2.33868
1.14536 -0.23688 2.34325
1.16041 -0.235488 2.3468101
1.17615 -0.23850401 2.35379
1.07223 -0.28636602 2.3294101
1.0796499 -0.27794701 2.32939
1.07959 -0.262631 2.32651
1.07809 -0.24524799 2.3219399
1.09407 -0.244808 2.3254402
1.1035501 -0.24252 2.3256702
1.11867 -0.24065599 2.3301599
1.13439 -0.23827499 2.33517
1.1511799 -0.23901899 2.3389199
1.16407 -0.23856199 2.3418303
1.1750901 -0.239241 2.34711
1.06832 -0.29560801 2.3239498
1.08267 -0.29371101 2.32863
1.08629 -0.281827 2.3284702
1.07147 -0.246208 2.3177803
1.09999 -0.248603 2.3223102
1.11419 -0.248008 2.3234899
1.12082 -0.241868 2.32494
1.13419 -0.240183 2.3289402
1.15914 -0.24429899 2.3366699
1.17441 -0.24525 2.34267
1.07283 -0.301355 2.3220098
1.11365 -0.257891 2.3192301
1.12107 -0.254374 2.3191299
1.12641 -0.246663 2.32199
1.13872 -0.24576999 2.3239901
1.17233 -0.24955601 2.3394799
1.10548 -0.25931701 2.3111701
1.11728 -0.26142201 2.3136401
1.12121 -0.25487301 2.31393
1.13186 -0.25221699 2.31706
1.14279 -0.25163099 2.31811
1.11774 -0.270051 2.31055
1.11841 -0.26390302 2.3072698
1.12573 -0.25756201 2.3098402
1.13699 -0.25397101 2.3116102
1.15009 -0.25698298 2.31551
1.11087 -0.26685899 2.3003702
1.1154699 -0.26220399 2.2999499
1.12314 -0.25879201 2.3027999
1.13179 -0.25372401 2.30319
1.1450499 -0.25480402 2.3082001
1.11227 -0.27191001 2.2944698
1.1138301 -0.26482001 2.2944801
1.12514 -0.25993201 2.2963102
1.13399 -0.25495398 2.2975602
1.14156 -0.25364402 2.29948
1.1156501 -0.280931 2.2908499
1.1138201 -0.27313501 2.29055
1.11598 -0.264842 2.2888699
1.1264499 -0.26128501 2.2898102
1.1345099 -0.25597298 2.2915101
1.14501 -0.25623101 2.2944901
1.12234 -0.28730699 2.2881701
1.11432 -0.273453 2.2842999
1.12468 -0.26921099 2.28549
1.13076 -0.26221099 2.2860501
1.1380401 -0.25970802 2.2858899
1.14429 -0.256874 2.28824
1.11536 -0.27720699 2.2781401
1.12142 -0.27202401 2.2788
1.13112 -0.26521298 2.2801299
1.1466 -0.26596001 2.2820599
1.12545 -0.291008 2.27687
1.12041 -0.27965501 2.2727401
1.1271399 -0.272764 2.27441
1.136 -0.267537 2.2743399
1.15083 -0.268038 2.2764401
1.1581199 -0.26617 2.2774801
1.12212 -0.28898001 2.2700901
1.11743 -0.27954599 2.2653799
1.1271601 -0.27407801 2.26682
1.14293 -0.26989901 2.2695701
1.15467 -0.26800799 2.2720001
1.16561 -0.27015901 2.27508
1.12186 -0.290353 2.26387
1.11875 -0.280312 2.2596803
1.12622 -0.27517 2.2592902
1.13823 -0.27108499 2.2616601
1.15381 -0.26996401 2.26596
1.16294 -0.26859799 2.2689402
1.1171399 -0.288302 2.25457
1.1228399 -0.282985 2.2539001
1.12975 -0.27461299 2.25453
1.1412001 -0.27308699 2.2570901
1.14806 -0.26921698 2.2581701
1.16294 -0.27103201 2.2626503
1.12686 -0.30474299 2.2534702
1.1213 -0.293111 2.24931
1.11972 -0.282525 2.2477
1.12824 -0.27870199 2.24909
1.14018 -0.274151 2.25172
1.1598001 -0.27709699 2.2575102
1.16668 -0.27347001 2.2595201
1.12652 -0.30585399 2.2478499
1.12137 -0.29487601 2.2425699
1.1254001 -0.28712699 2.2446899
1.13266 -0.28059399 2.2446899
1.14975 -0.282316 2.24983
1.12365 -0.30441999 2.2402401
1.12085 -0.29520801 2.2355802
1.12713 -0.28838599 2.2382002
1.13675 -0.284657 2.2409501
1.1199299 -0.30172101 2.23174
1.11843 -0.29425699 2.2299399
1.12317 -0.289327 2.22966
1.1351 -0.288858 2.23419
1.1200299 -0.30399901 2.22473
1.11939 -0.295432 2.2253399
1.12686 -0.29324499 2.2245002
1.13257 -0.289574 2.2253299
1.13914 -0.34516799 2.22405
1.1325099 -0.29625401 2.2202499
1.1440001 -0.29776201 2.2212601
1.16232 -0.206983 2.4295001
1.1379399 -0.18753099 2.4291501
1.14765 -0.192158 2.4279501
1.1574199 -0.200112 2.4265201
1.16136 -0.20905501 2.4220998
1.1579 -0.217824 2.4254103
1.13802 -0.187169 2.42132
1.1397001 -0.19431801 2.42152
1.15292 -0.201225 2.4197602
1.15776 -0.21097499 2.4155402
1.16058 -0.21711701 2.41751
1.12133 -0.193942 2.42046
1.12841 -0.19969401 2.4186802
1.14803 -0.203372 2.4119298
1.15523 -0.21236999 2.41027
1.15939 -0.218235 2.4091401
1.09215 -0.192913 2.4203401
1.1037999 -0.19625999 2.4177701
1.12254 -0.201527 2.41241
1.14443 -0.20705299 2.4047699
1.15371 -0.21366301 2.4043601
1.15825 -0.222213 2.3997698
1.09471 -0.19219299 2.4144502
1.10527 -0.196061 2.4101
1.11458 -0.20477399 2.4056201
1.13579 -0.20865601 2.40042
1.14762 -0.218088 2.39798
1.1512799 -0.228118 2.3954599
1.15249 -0.23393601 2.3959799
1.0960701 -0.19148999 2.4053102
1.10291 -0.198533 2.4025102
1.11173 -0.20713399 2.39907
1.1282001 -0.211743 2.3952999
1.14156 -0.21746401 2.3929
1.1505899 -0.22568899 2.38939
1.15406 -0.233293 2.3880701
1.08338 -0.195191 2.4017599
1.0957 -0.197034 2.39745
1.1056501 -0.20544201 2.39346
1.12235 -0.213415 2.3894203
1.14136 -0.21973801 2.3849802
1.14947 -0.228773 2.3827403
1.156 -0.233319 2.3778601
1.08957 -0.19283301 2.39113
1.09446 -0.19927201 2.39059
1.1030201 -0.205586 2.38624
1.11537 -0.214405 2.38324
1.13221 -0.220769 2.3804598
1.14817 -0.227596 2.37466
1.1610199 -0.23319 2.36637
1.0762401 -0.19853202 2.38784
1.09284 -0.19964199 2.38238
1.10401 -0.20774598 2.38012
1.11417 -0.21722299 2.3763502
1.13492 -0.22156799 2.3717802
1.15209 -0.228718 2.36393
1.16348 -0.236031 2.3579102
1.16257 -0.243213 2.36009
1.08226 -0.195236 2.37659
1.0881701 -0.200225 2.3748102
1.0968599 -0.20698699 2.37572
1.13872 -0.225685 2.3615799
1.15651 -0.230671 2.3541698
1.16379 -0.23928399 2.35113
1.17005 -0.244849 2.3503602
1.15467 -0.27288601 2.3529699
1.07679 -0.19611999 2.37081
1.0798401 -0.200753 2.36921
1.0888 -0.20462699 2.3689699
1.13906 -0.22953101 2.3528602
1.1506701 -0.231447 2.34902
1.15817 -0.240004 2.34671
1.16574 -0.24956699 2.34495
1.15942 -0.26653099 2.3478899
1.14973 -0.28133199 2.3513699
1.07462 -0.19629999 2.3645201
1.0764 -0.201115 2.3621099
1.07771 -0.206605 2.3628602
1.14677 -0.235356 2.34238
1.15537 -0.239189 2.34095
1.15969 -0.25153199 2.33901
1.16381 -0.26253402 2.3401
1.16167 -0.275267 2.3401699
1.07232 -0.19746 2.3577302
1.07221 -0.202801 2.3565099
1.06385 -0.21209101 2.3598299
1.14431 -0.239352 2.33359
1.14902 -0.245814 2.33517
1.15457 -0.256479 2.3329301
1.15697 -0.26857901 2.3345501
1.15564 -0.281647 2.3348901
1.14996 -0.291042 2.33845
1.06849 -0.19852899 2.3510602
1.06568 -0.203951 2.35039
1.13589 -0.24363701 2.3280201
1.14689 -0.24611001 2.3272202
1.14913 -0.25556099 2.3289402
1.15572 -0.264662 2.3266501
1.1546199 -0.27832898 2.32832
1.1513 -0.28928801 2.3316202
1.06312 -0.19827299 2.34357
1.05978 -0.20316099 2.3418601
1.12411 -0.249075 2.3241501
1.1398001 -0.24938601 2.3216901
1.14766 -0.25710198 2.32251
1.15323 -0.267719 2.3199801
1.14619 -0.28218901 2.3245599
1.0545 -0.199228 2.3358002
1.0561 -0.20306101 2.33426
1.1177601 -0.25054398 2.3185
1.12665 -0.255007 2.31794
1.14501 -0.258773 2.3150201
1.15037 -0.26834199 2.3113
1.04471 -0.19541599 2.3292501
1.04965 -0.199356 2.3296099
1.05373 -0.202793 2.32868
1.10246 -0.25744301 2.3173101
1.1126 -0.26005 2.3146501
1.1364601 -0.262418 2.3079102
1.1433799 -0.27097401 2.3058403
1.14807 -0.275561 2.30323
1.03861 -0.19420299 2.3230002
1.04379 -0.19850099 2.3243201
1.0485801 -0.20218299 2.32408
1.10614 -0.256513 2.30844
1.11497 -0.26292402 2.3064699
1.13489 -0.26386401 2.3007102
1.1414399 -0.27133501 2.2993798
1.14869 -0.277796 2.29498
1.0379599 -0.192257 2.3155801
1.0381199 -0.197576 2.31757
1.1058999 -0.25622901 2.30178
1.1077 -0.263733 2.30091
1.12981 -0.266837 2.2954001
1.1479599 -0.272423 2.2887101
1.16136 -0.27493298 2.2827702
1.0294 -0.192623 2.3092999
1.02828 -0.19902 2.31126
1.09346 -0.26324499 2.3010602
1.1006401 -0.26738399 2.2980499
1.11262 -0.27062801 2.2946801
1.14502 -0.27107999 2.28333
1.1577101 -0.27712199 2.27742
1.1567 -0.28461999 2.2784202
1.01677 -0.19022 2.30494
1.02235 -0.192699 2.3029902
1.02765 -0.19635099 2.3027802
1.1002201 -0.27440599 2.29496
1.15546 -0.27320999 2.2709601
1.1619899 -0.276811 2.2693601
1.16447 -0.280913 2.2685699
1.0154001 -0.18821698 2.2976501
1.01947 -0.192819 2.2983599
1.01419 -0.200262 2.30021
1.15447 -0.27567399 2.26211
1.1599 -0.27850202 2.2635603
1.15882 -0.286387 2.2616301
1.01527 -0.191432 2.2919202
1.14807 -0.27873698 2.25616
1.1571 -0.28139699 2.2553701
1.15584 -0.29118699 2.25423
1.14367 -0.28155899 2.25173
1.15158 -0.28342599 2.2502701
1.1567501 -0.291224 2.2471802
1.1553199 -0.30041501 2.24822
1.15317 -0.28558099 2.2427702
1.15611 -0.29523098 2.2385399
1.1566401 -0.30372101 2.2403703
1.15285 -0.288681 2.2329001
1.15706 -0.295903 2.2306299
1.15818 -0.30647799 2.23245
1.14907 -0.321843 2.23596
1.1556 -0.32787201 2.2313199
1.14917 -0.28945401 2.2267098
1.1529599 -0.29485399 2.2253501
1.1585701 -0.30573902 2.2239001
1.1543 -0.32115 2.2281799
1.16013 -0.32708901 2.2242501
1.14793 -0.184949 2.4254
1.15087 -0.192059 2.42417
1.1561 -0.20156601 2.4247601
1.16394 -0.209619 2.4215899
1.15907 -0.218078 2.4265602
1.12901 -0.190598 2.4239302
1.14096 -0.19354601 2.42118
1.1518 -0.20040399 2.41801
1.15666 -0.21059099 2.4170501
1.15987 -0.217447 2.4178202
1.10978 -0.196356 2.42378
1.1261799 -0.198172 2.4193602
1.1424401 -0.201575 2.41503
1.1504101 -0.210327 2.4117801
1.15614 -0.21955799 2.4091299
1.09963 -0.19926901 2.42171
1.11525 -0.20050301 2.4151402
1.1378399 -0.20535801 2.4089499
1.14867 -0.215027 2.4054301
1.1519799 -0.22402701 2.40203
1.14487 -0.23344299 2.4072001
1.10079 -0.198869 2.4144201
1.11011 -0.20186001 2.40922
1.12257 -0.20760201 2.4058301
1.14394 -0.215252 2.3987303
1.15444 -0.22424901 2.39305
1.15187 -0.231902 2.3975899
1.10203 -0.19981399 2.4049802
1.11352 -0.203393 2.4017599
1.12514 -0.211455 2.3965702
1.1457599 -0.21803302 2.38943
1.15504 -0.22526801 2.38535
1.15556 -0.23153 2.3880701
1.09189 -0.20188101 2.3993301
1.10991 -0.20478901 2.3945501
1.12208 -0.212726 2.3892701
1.13869 -0.21670499 2.3853102
1.14686 -0.22523099 2.3821499
1.1581199 -0.23176099 2.3771801
1.0897499 -0.20132601 2.3927701
1.0995899 -0.204539 2.38978
1.1113 -0.21248502 2.38539
1.13502 -0.21944599 2.37884
1.1499 -0.22758199 2.3738601
1.1579 -0.23558301 2.3685501
1.1593 -0.241413 2.36974
1.0924 -0.20084199 2.3845098
1.10054 -0.205926 2.3825102
1.1035299 -0.21375099 2.3801301
1.11852 -0.221698 2.3762701
1.1433101 -0.23006099 2.3676701
1.1596299 -0.237828 2.36076
1.15967 -0.24635701 2.3621399
1.09004 -0.201221 2.37725
1.0929 -0.20771798 2.3774803
1.09929 -0.216647 2.37521
1.12994 -0.22424901 2.3655899
1.14161 -0.23211201 2.36005
1.15617 -0.237482 2.3552899
1.16249 -0.247886 2.35374
1.15636 -0.26177001 2.3559601
1.0836101 -0.20293801 2.3718798
1.0867801 -0.209354 2.3722901
1.0775499 -0.21824801 2.3754799
1.13578 -0.234356 2.3566699
1.1514 -0.23774599 2.3497202
1.15794 -0.248347 2.3474398
1.1607801 -0.261235 2.34762
1.15272 -0.27705801 2.3506701
1.15318 -0.28564599 2.3503501
1.07783 -0.202162 2.3650601
1.07862 -0.207766 2.3663101
1.1457499 -0.234969 2.3440301
1.1538401 -0.24131599 2.3416202
1.15646 -0.24992399 2.3411999
1.16066 -0.25858 2.3401501
1.15915 -0.27336398 2.34129
1.15484 -0.284107 2.34495
1.05441 -0.2005 2.3611999
1.06977 -0.20132601 2.35831
1.06599 -0.20856 2.36148
1.1417401 -0.237663 2.3369501
1.1451 -0.242516 2.3382902
1.15494 -0.24971399 2.33512
1.15948 -0.26277399 2.3325601
1.1578801 -0.275058 2.3348598
1.15939 -0.28088701 2.33535
1.05679 -0.198377 2.355
1.06059 -0.202565 2.3545902
1.0641 -0.20682101 2.3534899
1.13264 -0.24305099 2.33391
1.14574 -0.24358401 2.33113
1.1518 -0.252965 2.3280098
1.1580501 -0.26171899 2.32496
1.1597199 -0.27265799 2.3271201
1.14965 -0.28469402 2.3317599
1.04668 -0.200803 2.3514903
1.05682 -0.202951 2.3487501
1.05722 -0.20834999 2.34725
1.1443599 -0.247116 2.3234398
1.15207 -0.25435799 2.3208599
1.1530499 -0.26527101 2.3197401
1.15529 -0.274528 2.3221302
1.05088 -0.199074 2.34216
1.0476899 -0.20636 2.34482
1.04546 -0.212029 2.34512
1.1378701 -0.250177 2.3174701
1.14604 -0.255317 2.3148301
1.15373 -0.26362699 2.30986
1.15395 -0.27242398 2.3137701
1.04223 -0.199441 2.33529
1.0489601 -0.203363 2.3367901
1.13464 -0.252718 2.3115399
1.1464499 -0.25649402 2.3050799
1.15142 -0.266011 2.3033199
1.15504 -0.27239099 2.3038602
1.03773 -0.19819401 2.32882
1.0391001 -0.202462 2.3290601
1.14027 -0.25076801 2.30129
1.14054 -0.25786301 2.2985699
1.14967 -0.26409 2.2980301
1.15494 -0.27329001 2.29599
