# .PCD v0.7 - Point Cloud Data file format
VERSION 0.7
FIELDS x y z
SIZE 4 4 4
TYPE F F F
COUNT 1 1 1
WIDTH 146
HEIGHT 1
VIEWPOINT 0 0 0 1 0 0 0
POINTS 146
DATA ascii
1.17303 -0.408465 2.7620699
1.18725 -0.480685 2.8442001
1.1897 -0.477119 2.8397
1.19918 -0.47629398 2.8418398
1.19363 -0.43571898 2.7955101
1.19723 -0.432962 2.7930002
1.17277 -0.47229198 2.8365901
1.17687 -0.474475 2.83445
1.17793 -0.46796399 2.8310699
1.18247 -0.42393798 2.77582
1.1936799 -0.424766 2.7792699
1.17809 -0.46146402 2.82301
1.17191 -0.45087701 2.8151002
1.176 -0.45237201 2.8109798
1.17214 -0.44130298 2.8029902
1.17662 -0.44234797 2.7999201
1.17177 -0.46036899 2.8241203
1.17914 -0.46534199 2.8227801
1.1708699 -0.45231 2.8134301
1.17598 -0.454184 2.8106298
1.17237 -0.44109797 2.8021302
1.1806301 -0.447552 2.8042402
1.15906 -0.45837399 2.8406501
1.15921 -0.45876703 2.83656
1.16023 -0.45254397 2.83342
1.15971 -0.45843801 2.8299899
1.1603 -0.45199502 2.8271499
1.16325 -0.44499901 2.8238299
1.1663201 -0.461876 2.8271101
1.1610199 -0.45096698 2.8204901
1.1649801 -0.444076 2.8162501
1.16381 -0.44897899 2.8129199
1.1628 -0.43764701 2.8052599
1.16388 -0.43436599 2.7958002
1.1657701 -0.423969 2.79006
1.16485 -0.43145999 2.7855401
1.1673599 -0.4269 2.7853799
1.16855 -0.423004 2.7757299
1.1663201 -0.40825403 2.7662899
1.17145 -0.423792 2.7708802
1.1676899 -0.41030997 2.7616601
1.1567 -0.44239199 2.8454599
1.1601 -0.44848099 2.8457198
1.16073 -0.43768001 2.83553
1.15939 -0.44605201 2.83953
1.16158 -0.45218602 2.8411801
1.159 -0.42925599 2.82639
1.15854 -0.43819302 2.8310001
1.16074 -0.45068198 2.83301
1.1586599 -0.423134 2.8150699
1.15732 -0.43434298 2.8220401
1.15781 -0.444325 2.82654
1.15807 -0.449489 2.8262701
1.16054 -0.41098401 2.8022799
1.15714 -0.420095 2.8089099
1.15952 -0.42774701 2.8104599
1.15628 -0.43983299 2.8180201
1.1621 -0.39920503 2.7901299
1.15942 -0.40755299 2.7955401
1.15732 -0.41804901 2.80234
1.15459 -0.427515 2.8073101
1.16085 -0.402473 2.7865601
1.16064 -0.411919 2.79142
1.1597 -0.382072 2.7692699
1.16208 -0.39826599 2.7769101
1.16224 -0.394104 2.76424
1.14871 -0.438737 2.8475602
1.15634 -0.44211102 2.8425
1.15159 -0.44914201 2.8476701
1.1574 -0.43497699 2.8351998
1.15662 -0.440202 2.8352802
1.15635 -0.44596699 2.83724
1.1531 -0.42524299 2.82358
1.1564 -0.431815 2.8252301
1.15596 -0.43998 2.82903
1.1519001 -0.44608897 2.83232
1.1567401 -0.422414 2.8143799
1.15781 -0.428821 2.8161199
1.1579499 -0.43548402 2.81809
1.14495 -0.395064 2.8041799
1.15501 -0.40084597 2.79826
1.1603199 -0.41400799 2.79952
1.15786 -0.42616501 2.80827
1.15538 -0.43216401 2.81025
1.14965 -0.38484001 2.7932901
1.1552 -0.39115003 2.7912798
1.16114 -0.40049401 2.7880001
1.16053 -0.412182 2.7911201
1.15829 -0.421866 2.7981501
1.16221 -0.38203999 2.77897
1.16164 -0.38927299 2.77918
1.16085 -0.40764198 2.7823901
1.1614801 -0.415892 2.7854502
1.15882 -0.38253602 2.77156
1.1617299 -0.389631 2.7709501
1.16239 -0.39885601 2.7730002
1.15961 -0.406427 2.7769401
1.1603199 -0.39480001 2.7668099
1.20542 -0.451487 2.84026
1.20918 -0.42668 2.8106701
1.20322 -0.42254397 2.8016
1.19409 -0.396036 2.80972
1.197 -0.39203203 2.8052301
1.2034401 -0.41343898 2.78547
1.2112499 -0.411147 2.7874899
1.2045799 -0.406993 2.7823999
1.17135 -0.456159 2.8211701
1.18407 -0.45938599 2.81867
1.16368 -0.42799199 2.79109
1.16784 -0.42207599 2.78109
1.1660501 -0.415813 2.7784302
1.1528 -0.41297299 2.76599
1.16836 -0.41572103 2.7751598
1.16685 -0.41050202 2.7726102
1.1981 -0.460713 2.8263001
1.20683 -0.458868 2.8214402
1.20166 -0.45435798 2.8168702
1.2140599 -0.45733398 2.82254
1.2103801 -0.452034 2.81638
1.2042 -0.44442403 2.8085101
1.20121 -0.435397 2.8039498
1.2125599 -0.441596 2.8075202
1.2084401 -0.43371299 2.80035
1.20442 -0.42557898 2.7916
1.2148 -0.43335497 2.8011498
1.21412 -0.425751 2.8000801
1.20672 -0.41777697 2.7891202
1.20632 -0.40562001 2.7884798
1.20266 -0.39342603 2.78303
1.22835 -0.39079702 2.7990398
1.2196499 -0.39077598 2.79125
1.2138801 -0.388457 2.78652
1.22834 -0.38548401 2.7901402
1.22497 -0.38091201 2.7837899
1.2352999 -0.37048 2.7962101
1.2290699 -0.37735298 2.7774398
1.2292401 -0.37077001 2.7733099
1.2344899 -0.36596403 2.7872698
1.18794 -0.405882 2.8215101
1.19173 -0.37488097 2.7846
1.19601 -0.41369 2.8265798
1.19046 -0.419644 2.8349802
1.18793 -0.39648399 2.80827
1.1960601 -0.36252102 2.76476
1.2007099 -0.390017 2.7995701
1.19495 -0.38744399 2.7979102
