# .PCD v0.7 - Point Cloud Data file format
VERSION 0.7
FIELDS x y z
SIZE 4 4 4
TYPE F F F
COUNT 1 1 1
WIDTH 71
HEIGHT 1
VIEWPOINT 0 0 0 1 0 0 0
POINTS 71
DATA ascii
1.28196 -0.361514 1.7090759
1.2840899 -0.37966201 1.7073599
1.2829801 -0.36978298 1.703759
1.28368 -0.36221901 1.7028079
1.2916299 -0.37432203 1.701525
1.27802 -0.381226 1.708652
1.27876 -0.372053 1.708562
1.2840899 -0.38783902 1.7076001
1.2906799 -0.38279399 1.708107
1.28582 -0.37294999 1.705018
1.2775199 -0.36884201 1.709646
1.2736 -0.38934502 1.709744
1.27565 -0.382025 1.7075601
1.27649 -0.37125197 1.702628
1.28802 -0.36396599 1.70638
1.27819 -0.37852901 1.699953
1.2837399 -0.36963201 1.697197
1.2856799 -0.37096 1.6902161
1.26701 -0.382263 1.707877
1.2683001 -0.383663 1.70461
1.2880901 -0.368469 1.7063031
1.29291 -0.36897701 1.7067981
1.28451 -0.37423301 1.7059671
1.26016 -0.354817 1.709566
1.2573 -0.34588 1.709785
1.26097 -0.33767799 1.709197
1.2667099 -0.347305 1.703446
1.2611099 -0.34429199 1.709466
1.26969 -0.36095902 1.707641
1.26184 -0.34352002 1.7050672
1.26436 -0.355023 1.7059671
1.25704 -0.34192699 1.7065811
1.2614399 -0.33327702 1.7077191
1.2642 -0.342785 1.6997681
1.25517 -0.33665901 1.7088809
1.2598001 -0.33673599 1.701622
1.2627701 -0.37044498 1.708347
1.2606601 -0.35651699 1.707877
1.26538 -0.34421903 1.7079941
1.26903 -0.36283699 1.703148
1.26976 -0.34844398 1.701418
1.26012 -0.38035899 1.707275
1.26606 -0.36893201 1.7070831
1.2543399 -0.38837898 1.7040981
1.2661799 -0.376553 1.70146
1.2694 -0.3678 1.700789
1.2597799 -0.385093 1.6977371
1.27326 -0.37264702 1.69445
1.27616 -0.36565799 1.692511
1.27757 -0.375267 1.6892362
1.2797799 -0.36862499 1.686838
1.2644401 -0.370469 1.7072431
1.27201 -0.36079103 1.705039
1.2779 -0.36321098 1.6983029
1.27686 -0.36006001 1.698365
1.26957 -0.364099 1.708271
1.27475 -0.35642102 1.7078781
1.27683 -0.35986698 1.702384
1.27163 -0.357766 1.7032651
1.27536 -0.35137799 1.7021921
1.2758 -0.36893201 1.709733
1.27555 -0.35658699 1.7081649
1.2763 -0.36184102 1.704325
1.2765499 -0.356502 1.7039551
1.28821 -0.38895401 1.707919
1.28582 -0.37645802 1.708379
1.2850599 -0.37317601 1.707538
1.29413 -0.37459099 1.707479
1.29178 -0.37138802 1.7066351
1.2931 -0.37194198 1.703513
1.27461 -0.36945099 1.7086681
