# .PCD v0.7 - Point Cloud Data file format
VERSION 0.7
FIELDS x y z
SIZE 4 4 4
TYPE F F F
COUNT 1 1 1
WIDTH 1630
HEIGHT 1
VIEWPOINT 0 0 0 1 0 0 0
POINTS 1630
DATA ascii
1.32435 -0.37259603 1.4830021
1.3376801 -0.368754 1.478435
1.17145 -0.43972301 1.4977899
1.1688 -0.43041599 1.5010339
1.16606 -0.41783401 1.504458
1.16958 -0.40632999 1.5045831
1.18181 -0.40059897 1.5034811
1.25026 -0.40714401 1.4880561
1.26124 -0.40169102 1.4873291
1.2780499 -0.395827 1.48551
1.29336 -0.39182898 1.483059
1.30256 -0.38408798 1.481891
1.3174499 -0.38057598 1.4784501
1.32696 -0.37127799 1.47686
1.34153 -0.36637199 1.4725549
1.17529 -0.43613398 1.493006
1.16474 -0.416338 1.4986999
1.1704201 -0.40660399 1.496146
1.17778 -0.400087 1.4986031
1.24559 -0.408898 1.4830911
1.16527 -0.41537997 1.4901489
1.1657701 -0.40232497 1.491344
1.1826 -0.400819 1.4894
1.1753 -0.43442699 1.4768209
1.16786 -0.41805303 1.4813471
1.16249 -0.40362701 1.4871122
1.17232 -0.39872602 1.4851331
1.19504 -0.400848 1.478983
1.1724401 -0.43112999 1.472568
1.16611 -0.415048 1.4766049
1.16484 -0.403952 1.4809021
1.17408 -0.39738399 1.4781719
1.19233 -0.397971 1.471943
1.20331 -0.39830399 1.472024
1.1731601 -0.43498799 1.465184
1.16872 -0.41955003 1.4697101
1.16696 -0.40474302 1.4739112
1.1771901 -0.398332 1.470022
1.1901001 -0.39583999 1.467302
1.19459 -0.389676 1.4666351
1.17611 -0.44413501 1.4565331
1.17162 -0.43251401 1.4592791
1.17048 -0.42297 1.462882
1.17022 -0.408629 1.465204
1.1753299 -0.39893299 1.4638519
1.18515 -0.39289299 1.4631451
1.19337 -0.38506401 1.4603671
1.20215 -0.38034803 1.459342
1.20663 -0.36764199 1.457309
1.21462 -0.35888499 1.455554
1.17694 -0.437594 1.451113
1.1701 -0.41976002 1.456792
1.1689399 -0.40347001 1.459215
1.1745 -0.39484102 1.459879
1.1873001 -0.39185399 1.4555591
1.18954 -0.38155702 1.4567819
1.20012 -0.37715998 1.4550202
1.2035199 -0.365841 1.454474
1.20471 -0.3536 1.4553821
1.20244 -0.338792 1.457664
1.2040401 -0.33013198 1.4577099
1.17116 -0.42389801 1.449331
1.1696299 -0.40846297 1.4512371
1.17427 -0.39681301 1.453548
1.18382 -0.39288899 1.4497219
1.19249 -0.38509101 1.450045
1.19809 -0.37237 1.4509081
1.2019401 -0.360984 1.4518631
1.20359 -0.35191399 1.4518881
1.20433 -0.340933 1.4532791
1.20058 -0.328686 1.4564441
1.19077 -0.31654799 1.4604471
1.1695501 -0.420073 1.44336
1.16485 -0.404461 1.44709
1.17343 -0.39853999 1.446202
1.18569 -0.39316502 1.4435201
1.1913099 -0.38513902 1.4447681
1.2 -0.357954 1.449627
1.20285 -0.34813702 1.4495701
1.2009799 -0.33716097 1.451695
1.20309 -0.33113301 1.452621
1.1725 -0.42416698 1.4339942
1.17075 -0.408537 1.4396319
1.17774 -0.40013099 1.437198
1.19003 -0.39725798 1.4361279
1.1712201 -0.42103601 1.4277139
1.1716 -0.40930599 1.432032
1.17421 -0.40053999 1.4308161
1.18892 -0.40202099 1.4273449
1.17839 -0.439652 1.4168781
1.1714801 -0.424656 1.42112
1.17146 -0.40940398 1.424124
1.1803 -0.40352699 1.4234351
1.19151 -0.40515301 1.4192981
1.1774 -0.43805501 1.4113791
1.1684101 -0.41823602 1.4167809
1.16725 -0.40645501 1.4192801
1.1762 -0.40340802 1.4180859
1.19323 -0.40712601 1.4143381
1.17696 -0.43927202 1.4049051
1.1703601 -0.42388198 1.40886
1.16757 -0.40844798 1.4126071
1.16998 -0.40194303 1.41128
1.17343 -0.43242902 1.399994
1.1653501 -0.41493598 1.405175
1.16646 -0.40577701 1.406783
1.1696601 -0.40146101 1.404212
1.23413 -0.39452702 1.38456
1.2336 -0.385948 1.3860631
1.23684 -0.37410802 1.386963
1.2393299 -0.36319402 1.38862
1.2411699 -0.35747102 1.388978
1.17147 -0.42953202 1.3920292
1.17159 -0.42111599 1.395177
1.16697 -0.40669101 1.400286
1.18056 -0.40547502 1.3932151
1.21951 -0.40399101 1.3824481
1.22447 -0.39169201 1.383935
1.23041 -0.382469 1.383729
1.2308201 -0.370332 1.385092
1.239 -0.36518002 1.3851739
1.24009 -0.35838902 1.3857189
1.26302 -0.31616199 1.379375
1.17329 -0.431023 1.385332
1.1703399 -0.421505 1.3875411
1.1705201 -0.40935099 1.391655
1.18471 -0.40634498 1.3852881
1.20716 -0.406946 1.380728
1.21741 -0.399441 1.379832
1.22374 -0.39057598 1.3784931
1.2264 -0.37853298 1.380867
1.2318901 -0.37234402 1.3797129
1.2353901 -0.36331502 1.38177
1.23545 -0.35610402 1.383083
1.26213 -0.31570101 1.3764701
1.2666301 -0.31269601 1.375258
1.17082 -0.42884102 1.380652
1.16854 -0.41986999 1.3812519
1.17216 -0.410171 1.3829072
1.1824 -0.405316 1.380802
1.1967 -0.40434301 1.37723
1.21348 -0.400262 1.3739041
1.2245201 -0.39566398 1.3705211
1.2263401 -0.38218299 1.374984
1.2352999 -0.37184897 1.376096
1.2429299 -0.36682099 1.375598
1.2624199 -0.31545699 1.3722641
1.26538 -0.31119499 1.371299
1.1683201 -0.42542702 1.374133
1.16872 -0.41675898 1.376085
1.16808 -0.40669498 1.378721
1.18241 -0.40609002 1.375121
1.2022001 -0.40567502 1.368871
1.21796 -0.403433 1.364993
1.2295099 -0.400365 1.363654
1.25981 -0.31256902 1.3683441
1.26272 -0.30809799 1.3675121
1.16903 -0.42772597 1.365486
1.16581 -0.417061 1.37008
1.17027 -0.40870202 1.372298
1.18345 -0.40581402 1.367671
1.20698 -0.40802801 1.3611041
1.1679599 -0.427724 1.359767
1.1663201 -0.419788 1.362229
1.1709 -0.41087398 1.363976
1.1812 -0.406645 1.360841
1.16703 -0.425971 1.3538611
1.1655201 -0.41569501 1.357064
1.16954 -0.40826303 1.357924
1.1783201 -0.40885103 1.3528601
1.16706 -0.428065 1.345137
1.16321 -0.416953 1.3508991
1.16816 -0.41018903 1.35052
1.17697 -0.40840998 1.346033
1.16871 -0.44175702 1.333459
1.16403 -0.430489 1.338269
1.1636599 -0.41841301 1.3423542
1.17099 -0.41065201 1.341791
1.17852 -0.40911597 1.339442
1.1633999 -0.43722197 1.3320441
1.1583 -0.425675 1.335593
1.15828 -0.41591799 1.337028
1.16483 -0.41007 1.3370441
1.17716 -0.40996301 1.3329101
1.14652 -0.42472598 1.332721
1.1537 -0.42017102 1.331655
1.15749 -0.41241401 1.3331751
1.1697 -0.41208699 1.328397
1.17677 -0.40989101 1.3246651
1.0717 -0.40193802 1.3496591
1.09929 -0.41080898 1.3395591
1.12983 -0.41923699 1.3312601
1.14729 -0.42007598 1.3260989
1.15828 -0.414116 1.3265041
1.16976 -0.41194698 1.321288
1.07408 -0.403285 1.3458321
1.09914 -0.411865 1.3353671
1.1219699 -0.41605201 1.32827
1.08202 -0.40628701 1.338837
1.10894 -0.416058 1.3271581
1.10076 -0.41601199 1.3266971
1.1624199 -0.45589501 1.7064929
1.16176 -0.44281501 1.7092111
1.1577101 -0.468712 1.6997839
1.1563201 -0.45532298 1.702081
1.15966 -0.444713 1.702147
1.1630501 -0.43259898 1.705326
1.16594 -0.422515 1.7031821
1.1682299 -0.41568297 1.705536
1.14973 -0.47742 1.693397
1.14783 -0.46390203 1.6960919
1.15096 -0.45305198 1.6967942
1.15837 -0.443914 1.6954731
1.16335 -0.43322799 1.6985949
1.16913 -0.415214 1.697009
1.1405799 -0.481599 1.687427
1.1360099 -0.46736801 1.6906201
1.14382 -0.462129 1.691084
1.15039 -0.45292199 1.690571
1.16208 -0.44686699 1.6886129
1.1637501 -0.41763002 1.692789
1.16695 -0.411331 1.6910931
1.12762 -0.47051701 1.6850312
1.13586 -0.46746102 1.686142
1.14015 -0.459759 1.685792
1.15614 -0.458368 1.684474
1.16452 -0.41920897 1.6869119
1.16785 -0.41102201 1.684337
1.10594 -0.481702 1.675746
1.1138999 -0.480382 1.675747
1.11915 -0.471715 1.6778121
1.13041 -0.46636298 1.680766
1.13669 -0.46086898 1.6807901
1.1657701 -0.42095602 1.6792661
1.1657599 -0.408288 1.6771569
1.17712 -0.41005403 1.6768631
1.10461 -0.48126301 1.672675
1.1099501 -0.47761101 1.6724679
1.11703 -0.47209203 1.6729212
1.12839 -0.47038898 1.673311
1.16927 -0.49045601 1.6602341
1.1635 -0.416713 1.67188
1.16126 -0.40310901 1.6721389
1.17116 -0.40431198 1.6715081
1.10403 -0.48103401 1.6688631
1.11367 -0.48308602 1.665998
1.12603 -0.48196098 1.6654861
1.15201 -0.48974499 1.6612271
1.17679 -0.49837601 1.6553601
1.18318 -0.4903 1.654723
1.15934 -0.40762502 1.6669211
1.16316 -0.40220299 1.667426
1.17293 -0.40369099 1.6642281
1.10867 -0.48495302 1.663259
1.12422 -0.49193099 1.6580051
1.14729 -0.49993098 1.6542951
1.17496 -0.50943899 1.649021
1.17697 -0.49600202 1.6504431
1.1789601 -0.480791 1.6510681
1.16521 -0.41857201 1.658667
1.16617 -0.405339 1.6607181
1.1368001 -0.51252002 1.6481431
1.1407 -0.509013 1.647794
1.1674299 -0.51594102 1.6434851
1.17055 -0.50410903 1.6442401
1.17598 -0.49271899 1.644557
1.17935 -0.47735298 1.644299
1.16593 -0.42202899 1.6525369
1.17399 -0.412844 1.6513791
1.1471499 -0.52292001 1.640442
1.15724 -0.52301604 1.637912
1.16581 -0.515176 1.6364639
1.1705899 -0.50215 1.6384921
1.17705 -0.49290198 1.637154
1.17764 -0.476744 1.638248
1.1689 -0.42244202 1.645472
1.1722599 -0.41133898 1.6452401
1.15254 -0.52807897 1.632778
1.1568 -0.52313799 1.6308639
1.16353 -0.51752603 1.629192
1.17228 -0.507743 1.6304321
1.17715 -0.497035 1.631745
1.1812301 -0.48739398 1.632746
1.17515 -0.41285402 1.637926
1.1519899 -0.52747399 1.6256491
1.15625 -0.52245998 1.6239511
1.16834 -0.52036101 1.6224691
1.1746 -0.51466298 1.622368
1.17953 -0.50296801 1.626951
1.16877 -0.419781 1.6318051
1.1752601 -0.41173899 1.6303711
1.15017 -0.52615899 1.617715
1.15827 -0.52315402 1.6170111
1.17029 -0.52279401 1.616291
1.18302 -0.52848202 1.613495
1.1688401 -0.42212898 1.6265481
1.1712201 -0.41189802 1.6253061
1.1823699 -0.407933 1.6240991
1.1454799 -0.52396196 1.6118991
1.15206 -0.52273703 1.611137
1.16597 -0.52548599 1.609804
1.16547 -0.41349998 1.6194271
1.1757901 -0.41056198 1.618365
1.14776 -0.52563202 1.606443
1.15583 -0.526043 1.6047659
1.16397 -0.41375801 1.61261
1.16984 -0.41003299 1.61221
1.18344 -0.40600801 1.6116711
1.15399 -0.53022301 1.601283
1.16993 -0.43021598 1.6014571
1.16276 -0.41502899 1.6055121
1.17181 -0.40913102 1.6048551
1.1866699 -0.40608299 1.6047839
1.15738 -0.41900399 1.600363
1.1621801 -0.413638 1.598866
1.16666 -0.405485 1.599718
1.184 -0.406793 1.5980541
1.15424 -0.417476 1.5945151
1.156 -0.41146401 1.5922531
1.16791 -0.40666902 1.593205
1.14299 -0.41077998 1.5894681
1.147 -0.40688801 1.5876061
1.16091 -0.405904 1.586804
1.18188 -0.409749 1.5839169
1.1415499 -0.41730201 1.5846591
1.13366 -0.404266 1.5848721
1.153 -0.40867099 1.5807
1.16853 -0.407756 1.579723
1.1111799 -0.39558399 1.5814639
1.12668 -0.39907101 1.580681
1.1563801 -0.41030103 1.5739459
1.17003 -0.40856302 1.571838
1.0869401 -0.38034999 1.5795361
1.10136 -0.38483101 1.5795941
1.16588 -0.412734 1.5652111
1.1710601 -0.40841597 1.565159
1.1863099 -0.40946302 1.562032
1.0747 -0.37734902 1.5770199
1.07377 -0.37194198 1.5772961
1.0834301 -0.37483299 1.5762351
1.16655 -0.41432801 1.5565801
1.1713901 -0.407489 1.5585879
1.18398 -0.404888 1.55584
1.1937001 -0.40241101 1.554827
1.06626 -0.372354 1.5742331
1.0685 -0.36935699 1.573599
1.08079 -0.374423 1.571156
1.1684999 -0.41956902 1.54836
1.16531 -0.406589 1.5516111
1.17493 -0.40004399 1.551851
1.18713 -0.39760602 1.550766
1.19284 -0.39199403 1.5488631
1.0675499 -0.37118399 1.5685589
1.16887 -0.42821601 1.541241
1.16584 -0.41719002 1.544219
1.16466 -0.40656701 1.546026
1.16917 -0.39879903 1.5461551
1.1800901 -0.390605 1.545428
1.1883301 -0.38522899 1.5442669
1.2010399 -0.38901299 1.5406411
1.16996 -0.42918399 1.535748
1.16926 -0.422337 1.537619
1.16519 -0.407076 1.5402122
1.1728801 -0.3969 1.538692
1.17556 -0.38574001 1.5405029
1.1872699 -0.38514802 1.5388641
1.20058 -0.38867199 1.5351241
1.1654201 -0.41608298 1.532315
1.16684 -0.40453801 1.533505
1.17298 -0.39774102 1.5311261
1.17758 -0.388199 1.534248
1.18846 -0.387954 1.5313611
1.16713 -0.42163199 1.521544
1.16712 -0.40639302 1.5259671
1.17442 -0.40017301 1.5250289
1.17954 -0.39295301 1.525759
1.19407 -0.39633 1.522059
1.29045 -0.40815398 1.4968631
1.29252 -0.39913502 1.498087
1.3033 -0.39479697 1.4971139
1.3095399 -0.38717997 1.4957089
1.15347 -0.44890499 1.511772
1.16567 -0.45005298 1.509895
1.1693599 -0.44090599 1.513041
1.16883 -0.42721802 1.5142419
1.16547 -0.41023898 1.5182431
1.17327 -0.40119401 1.519214
1.18475 -0.39867499 1.516188
1.26249 -0.42297798 1.494
1.2634799 -0.41139099 1.495838
1.2781199 -0.40295601 1.4953201
1.28722 -0.394546 1.495383
1.3004899 -0.392048 1.494629
1.30453 -0.38182598 1.4933881
1.3215801 -0.37898299 1.488795
1.33083 -0.37229002 1.486963
1.16003 -0.45475602 1.5057181
1.1679 -0.45351398 1.5029111
1.16843 -0.43916598 1.5069231
1.16768 -0.42129299 1.5099181
1.1674299 -0.40725899 1.513103
1.17715 -0.403014 1.5105071
1.19503 -0.40532601 1.504285
1.25103 -0.41507199 1.493103
1.2655001 -0.40890202 1.4918081
1.27431 -0.402592 1.491248
1.2833999 -0.39657003 1.4896591
1.29581 -0.387344 1.4899091
1.3111099 -0.38144001 1.4867231
1.3216901 -0.37582001 1.484484
1.3295701 -0.37142798 1.4837521
1.33938 -0.370765 1.4819281
1.16856 -0.46206403 1.4973831
1.17003 -0.45592499 1.4971161
1.1727999 -0.446082 1.497516
1.16755 -0.424615 1.5026251
1.16961 -0.41020402 1.5057809
1.18204 -0.406409 1.5016971
1.19784 -0.40551201 1.497588
1.25789 -0.409628 1.4871249
1.26958 -0.40153801 1.4867481
1.27882 -0.39405 1.485062
1.2915699 -0.38970903 1.483979
1.30435 -0.38130501 1.483194
1.3173699 -0.37574601 1.4814
1.32735 -0.37129399 1.479768
1.33021 -0.36518601 1.480599
1.1767601 -0.46913898 1.4907559
1.17384 -0.45810798 1.4921842
1.17145 -0.43038899 1.494437
1.17234 -0.41319901 1.496272
1.18653 -0.40643299 1.4939731
1.24605 -0.41100201 1.4835479
1.2611901 -0.40941399 1.4817002
1.27736 -0.40330502 1.480599
1.2885001 -0.39685601 1.479733
1.29882 -0.39209098 1.4788281
1.3210001 -0.376091 1.477209
1.32883 -0.37091202 1.476427
1.1712999 -0.42655998 1.486698
1.17013 -0.409706 1.4890591
1.17546 -0.401981 1.490852
1.1949199 -0.40224898 1.485474
1.1913301 -0.48562899 1.4634061
1.1704299 -0.42752102 1.479447
1.17026 -0.413744 1.4814872
1.17748 -0.40203097 1.482931
1.1914901 -0.39749297 1.4793041
1.21043 -0.40171102 1.476326
1.223 -0.40257198 1.475827
1.18762 -0.48090199 1.4615769
1.16908 -0.42651403 1.4730279
1.16851 -0.41195098 1.476001
1.17303 -0.40269798 1.476496
1.18548 -0.395484 1.474077
1.20364 -0.39596802 1.471197
1.2126499 -0.39476299 1.471374
1.1832299 -0.47397 1.458338
1.17432 -0.444334 1.462024
1.16845 -0.42474097 1.466289
1.1687599 -0.41049498 1.4699121
1.17615 -0.399836 1.4692041
1.18548 -0.393161 1.4670739
1.19734 -0.390616 1.4660671
1.2051001 -0.38599601 1.46547
1.17623 -0.45737401 1.4540521
1.17281 -0.44236198 1.4557339
1.16827 -0.42785901 1.4604199
1.16882 -0.41509101 1.4621121
1.17046 -0.40112302 1.4637101
1.18164 -0.39453301 1.461732
1.19161 -0.386841 1.4605271
1.2 -0.381365 1.4608251
1.2025499 -0.37098598 1.458889
1.16142 -0.458168 1.4448371
1.1711299 -0.45642897 1.4453851
1.17598 -0.44737098 1.447559
1.1701599 -0.42646098 1.4535871
1.16631 -0.40762502 1.4577341
1.1719 -0.397443 1.4563462
1.18414 -0.39098901 1.4552231
1.18785 -0.38187501 1.4563451
1.19724 -0.37763801 1.455091
1.1965899 -0.362342 1.4553829
1.1981 -0.350826 1.455749
1.1956401 -0.34000501 1.4571069
1.1609501 -0.45933101 1.4408841
1.1691 -0.459241 1.439235
1.1754 -0.451343 1.4387469
1.17291 -0.430722 1.4441251
1.1671801 -0.40798801 1.450451
1.17116 -0.39804402 1.4503561
1.1803501 -0.39295501 1.4486871
1.18788 -0.38253897 1.451026
1.19598 -0.372639 1.449899
1.19454 -0.35463101 1.452601
1.19673 -0.34654799 1.453042
1.19425 -0.338323 1.454785
1.16678 -0.46419299 1.433805
1.1762201 -0.46434501 1.4304862
1.17468 -0.434167 1.4348531
1.1714 -0.41507801 1.4405081
1.17338 -0.40132499 1.443814
1.18442 -0.39928001 1.4396471
1.18686 -0.38716498 1.4435681
1.18804 -0.35091302 1.451857
1.19484 -0.34543401 1.4509289
1.19195 -0.33606499 1.4528852
1.1766601 -0.47079 1.422462
1.17776 -0.437938 1.4264301
1.1732399 -0.42011699 1.43164
1.1753299 -0.40530699 1.434918
1.1884301 -0.40377998 1.4312701
1.18305 -0.47714099 1.410893
1.1807599 -0.46472198 1.416091
1.17556 -0.43162301 1.4217501
1.17167 -0.41333598 1.4276959
1.1807901 -0.40881401 1.4252881
1.1853399 -0.40414101 1.422929
1.18293 -0.47777998 1.4042951
1.17322 -0.42933398 1.415293
1.17556 -0.41729301 1.419247
1.1813201 -0.40943298 1.417341
1.18893 -0.40677398 1.4143691
1.1884999 -0.48298302 1.3981891
1.1751599 -0.43572301 1.4075841
1.1753501 -0.417898 1.410462
1.18136 -0.40728402 1.410289
1.1923699 -0.40819901 1.40703
1.17232 -0.42697102 1.4025251
1.1707599 -0.41378602 1.4053241
1.1800901 -0.410236 1.403565
1.19364 -0.40785 1.3993341
1.1786901 -0.44472399 1.390265
1.1706901 -0.42807999 1.394791
1.1744699 -0.416132 1.3977001
1.18765 -0.41253102 1.3948001
1.2245899 -0.401739 1.383368
1.22593 -0.391058 1.3840359
1.21617 -0.37621298 1.3888501
1.26487 -0.33193198 1.3804761
1.17433 -0.43870801 1.3844521
1.17049 -0.42584401 1.387684
1.17295 -0.41783699 1.3907061
1.1870301 -0.41347098 1.387545
1.22039 -0.394355 1.3817351
1.22544 -0.38992801 1.3802459
1.25667 -0.32780799 1.379904
1.26561 -0.325582 1.3777729
1.17435 -0.439026 1.375936
1.1713901 -0.42771301 1.3805799
1.17608 -0.41779301 1.382551
1.19284 -0.41482201 1.3776261
1.22086 -0.397838 1.374362
1.21938 -0.38715401 1.3766921
1.24203 -0.32439601 1.381363
1.25254 -0.326334 1.377305
1.26151 -0.32327598 1.3749951
1.26984 -0.31675899 1.372345
1.17567 -0.433101 1.371004
1.17338 -0.41961202 1.375849
1.18539 -0.41529202 1.3727421
1.1996701 -0.41128701 1.369722
1.2125 -0.40611401 1.368302
1.21778 -0.39776599 1.3679851
1.21983 -0.39027599 1.3705961
1.24183 -0.32369301 1.37774
1.2567099 -0.32490599 1.370593
1.26694 -0.32074299 1.3678191
1.27004 -0.313526 1.368036
1.1767601 -0.43634799 1.3630921
1.17831 -0.42285198 1.3654901
1.1892099 -0.413721 1.3648931
1.20342 -0.41074699 1.3631771
1.21167 -0.40479302 1.3628011
1.22228 -0.400794 1.3628891
1.26928 -0.330181 1.359182
1.26817 -0.32157502 1.360852
1.17916 -0.44501001 1.354822
1.17264 -0.429939 1.35831
1.17356 -0.41930801 1.359332
1.18225 -0.41370401 1.359243
1.1974 -0.41180801 1.3565891
1.17328 -0.43826801 1.3491831
1.16956 -0.42443401 1.353114
1.17336 -0.41562501 1.3550081
1.18671 -0.41569301 1.350546
1.19696 -0.41561902 1.3458551
1.17161 -0.43877998 1.342209
1.16798 -0.426974 1.3449811
1.17459 -0.41794601 1.3474991
1.18776 -0.41667899 1.3422251
1.16694 -0.43661499 1.337245
1.16522 -0.42730001 1.337755
1.17335 -0.41836101 1.3384382
1.18943 -0.416899 1.3348241
1.15466 -0.440424 1.3290741
1.15466 -0.42984799 1.3333571
1.1639299 -0.42480999 1.3318371
1.16705 -0.41374999 1.332974
1.18839 -0.41809398 1.326766
1.06006 -0.39824903 1.356586
1.12025 -0.42468202 1.334036
1.13782 -0.42738602 1.331645
1.1512001 -0.42680401 1.3273652
1.16143 -0.41884997 1.3271899
1.17001 -0.41315898 1.326941
1.18472 -0.416109 1.3205191
1.0577301 -0.39612401 1.3533211
1.0944999 -0.411814 1.3387491
1.1289901 -0.42389199 1.328548
1.14623 -0.425448 1.320539
1.1580501 -0.41917598 1.320539
1.17013 -0.41462201 1.3201721
1.06726 -0.39983898 1.3447011
1.09633 -0.413306 1.332081
1.12142 -0.42058101 1.323796
1.07884 -0.40680501 1.3356671
1.10682 -0.417034 1.323706
1.1867601 -0.49154401 1.6214261
1.18671 -0.49293399 1.6149631
1.19089 -0.49759102 1.613965
1.1736599 -0.50817299 1.606531
1.1732 -0.51387399 1.6053931
1.16967 -0.51329702 1.6015232
1.16501 -0.52198702 1.5999969
1.17225 -0.52149898 1.5998911
1.2358899 -0.48800701 1.566282
1.2360901 -0.48822299 1.5620661
1.23672 -0.50051898 1.561366
1.2358999 -0.499955 1.5558541
1.23254 -0.48684701 1.5518482
1.2479 -0.41242501 1.5446401
1.2501999 -0.415719 1.4828531
1.25375 -0.41506401 1.478022
1.26948 -0.411327 1.4812689
1.27153 -0.410705 1.4786371
1.24016 -0.40494099 1.4557201
1.23748 -0.40479499 1.439877
1.2273999 -0.39102101 1.3771991
1.22181 -0.40433702 1.378283
1.23762 -0.37940201 1.3743941
1.23014 -0.39602602 1.3739371
1.23142 -0.40460998 1.3714981
1.23997 -0.405936 1.371931
1.2443399 -0.365071 1.372956
1.24312 -0.37102401 1.3714391
1.2330101 -0.39063302 1.3678141
1.2432801 -0.36361697 1.36931
1.24342 -0.36958501 1.368404
1.22106 -0.40380001 1.357988
1.2418901 -0.36360902 1.3659601
1.2463 -0.410411 1.7031211
1.25757 -0.414101 1.672971
1.2272201 -0.49652901 1.5655969
1.23611 -0.485468 1.5632252
1.2383599 -0.49521703 1.5567641
1.23517 -0.48539698 1.5515331
1.23491 -0.50097299 1.550303
1.23067 -0.49158299 1.5466721
1.2368901 -0.39859903 1.5483991
1.24862 -0.408521 1.529404
1.23822 -0.383697 1.5004339
1.2444 -0.381165 1.498737
1.2434 -0.38606799 1.4968631
1.2322899 -0.38845402 1.491497
1.22597 -0.398637 1.486246
1.22167 -0.39598203 1.4813471
1.22293 -0.40265399 1.4789981
1.23602 -0.40330201 1.47981
1.21143 -0.40076101 1.472739
1.21532 -0.40005299 1.4661599
1.25732 -0.40759799 1.473078
1.2235501 -0.396431 1.460611
1.22109 -0.40051201 1.3807321
1.2286 -0.40175098 1.3806281
1.23682 -0.40253201 1.3815811
1.2452301 -0.375251 1.377332
1.2395099 -0.38765401 1.3783411
1.24623 -0.38862598 1.378965
1.24391 -0.36265099 1.370755
1.2535601 -0.36582699 1.3745121
1.24584 -0.37938598 1.374005
1.2582901 -0.377087 1.3762939
1.24244 -0.36075401 1.3657761
1.25334 -0.361967 1.3699471
1.25098 -0.37104401 1.3692141
1.2407299 -0.358652 1.3599471
1.2389901 -0.367713 1.3606579
1.24446 -0.372522 1.361678
1.2365 -0.35260502 1.3560851
1.2408299 -0.35610902 1.357056
1.25299 -0.36687699 1.3608509
1.24152 -0.35421798 1.354022
1.15581 -0.41866601 1.5914251
1.1684201 -0.417622 1.592454
1.16751 -0.40840998 1.589295
1.16166 -0.41626498 1.589087
1.17231 -0.418055 1.588707
1.1651599 -0.40820301 1.584263
1.17 -0.41331902 1.583845
1.1634101 -0.408571 1.5780679
1.16953 -0.412453 1.575623
1.2303901 -0.49030101 1.5691091
1.16233 -0.40967602 1.570083
1.1638501 -0.41435501 1.5692191
1.17357 -0.41808701 1.5691141
1.2361599 -0.48607701 1.565935
1.23724 -0.49892601 1.5654711
1.24251 -0.50942403 1.563887
1.1769 -0.40412799 1.565317
1.17326 -0.41170898 1.5647601
1.17848 -0.41767102 1.5641091
1.2443 -0.48945302 1.561257
1.2434 -0.50343204 1.559574
1.24611 -0.51569098 1.5582181
1.1784301 -0.41015598 1.5583081
1.24289 -0.47914502 1.5560189
1.24102 -0.49400198 1.5545762
1.2449601 -0.505539 1.5541
1.18339 -0.40891799 1.552039
1.23395 -0.48509601 1.549863
1.23678 -0.499318 1.5499271
1.20289 -0.402062 1.548979
1.2206 -0.39647201 1.544809
1.22927 -0.399304 1.544046
1.23306 -0.39896899 1.538226
1.23581 -0.404329 1.5367872
1.24193 -0.39774701 1.532951
1.23728 -0.40520301 1.5321231
1.1624401 -0.495139 1.5044811
1.16263 -0.50160098 1.503613
1.1823001 -0.47790298 1.5063101
1.16667 -0.49724099 1.5015241
1.1517501 -0.51087302 1.4978031
1.17377 -0.48575902 1.500105
1.1668299 -0.496667 1.4974279
1.17337 -0.48622799 1.496314
1.16089 -0.49933499 1.492656
1.17308 -0.56107402 1.4596061
1.15631 -0.51953501 1.456226
1.16274 -0.52695596 1.456161
1.16905 -0.53816396 1.4562
1.17457 -0.55221599 1.4564471
1.17177 -0.49465501 1.456809
1.15883 -0.50887698 1.4543521
1.16793 -0.51365 1.4553751
1.16888 -0.527134 1.4536541
1.17453 -0.53893799 1.454107
1.17625 -0.548549 1.4531391
1.17565 -0.491833 1.4549719
1.17058 -0.50129801 1.4536442
1.16684 -0.51443803 1.4511331
1.16826 -0.52549702 1.4498199
1.1737 -0.53736699 1.4506271
1.18019 -0.54701304 1.4513229
1.17558 -0.49820399 1.451756
1.1629 -0.51931 1.4464231
1.19547 -0.51850599 1.410661
1.20073 -0.52319902 1.411294
1.20081 -0.51574302 1.4084891
1.2030799 -0.52012402 1.408587
1.20846 -0.51252902 1.4062109
1.20296 -0.52105498 1.4043741
1.20166 -0.52352697 1.399791
1.25634 -0.41927898 1.7064911
1.2614 -0.416114 1.6997771
1.25993 -0.416134 1.693884
1.25328 -0.41830599 1.6876941
1.24884 -0.41939098 1.681203
1.19038 -0.48763302 1.6487911
1.1867299 -0.49855998 1.647854
1.18186 -0.507245 1.646894
1.19148 -0.49523997 1.6446099
1.18978 -0.50598097 1.6434979
1.1710299 -0.53446203 1.635383
1.1973001 -0.49015 1.639213
1.1896399 -0.50682598 1.637648
1.1809601 -0.52507502 1.634575
1.1755 -0.54181498 1.631296
1.19451 -0.49246702 1.633253
1.18925 -0.50461501 1.631459
1.18218 -0.521676 1.6286691
1.17878 -0.537449 1.6273199
1.1653 -0.50446802 1.6225659
1.18353 -0.49999499 1.6264529
1.17432 -0.51581198 1.622666
1.18156 -0.52293801 1.6227319
1.1833 -0.53214502 1.621909
1.16544 -0.51223803 1.6177239
1.15985 -0.52377599 1.6146271
1.17788 -0.52524698 1.6171951
1.1584899 -0.52528501 1.609895
1.13186 -0.40810001 1.5802341
1.18247 -0.41252202 1.5883279
1.13236 -0.40677202 1.576809
1.14305 -0.41215199 1.578653
1.1661 -0.41534001 1.581091
1.12167 -0.40969199 1.5719712
1.13425 -0.41248903 1.572427
1.15434 -0.41522998 1.575103
1.12695 -0.40897802 1.568674
1.1314499 -0.41571701 1.5665579
1.15681 -0.41616401 1.5687391
1.24131 -0.48368901 1.5673361
1.24479 -0.49644798 1.567377
1.24604 -0.50716001 1.566781
1.24884 -0.51520097 1.56722
1.1589 -0.41567001 1.563395
1.17829 -0.417395 1.563869
1.2468901 -0.47818801 1.56384
1.24471 -0.49063998 1.5627481
1.2481999 -0.50283504 1.561784
1.24955 -0.51537997 1.562227
1.2526799 -0.52587104 1.5588651
1.1718 -0.414819 1.5582111
1.24317 -0.48124298 1.557829
1.24789 -0.49222699 1.5582361
1.25014 -0.50138003 1.556644
1.25188 -0.51427102 1.555943
1.25457 -0.52477199 1.554702
1.24358 -0.49308601 1.553512
1.24394 -0.50713903 1.552135
1.2180101 -0.400334 1.544814
1.22554 -0.398307 1.539151
1.2314399 -0.403148 1.5371829
1.22743 -0.39868501 1.532638
1.16054 -0.49469101 1.506691
1.15539 -0.50645697 1.5051901
1.1378601 -0.52491599 1.500921
1.12099 -0.54544497 1.4958141
1.17852 -0.481087 1.5064811
1.16363 -0.49904799 1.503471
1.15238 -0.51427698 1.5010431
1.13561 -0.53299201 1.495751
1.11845 -0.556068 1.4897161
1.1729699 -0.49053001 1.50003
1.15616 -0.51121801 1.4962029
1.13223 -0.53722697 1.4888171
1.1168801 -0.55832601 1.48232
1.18137 -0.47899899 1.497256
1.16878 -0.495038 1.493656
1.1574501 -0.51043302 1.4911361
1.11838 -0.55135202 1.479573
1.12011 -0.55897498 1.4777912
1.1161599 -0.56851202 1.4767832
1.17287 -0.48536998 1.4915961
1.158 -0.49996898 1.4881179
1.11666 -0.570337 1.472894
1.25288 -0.41757199 1.499072
1.24766 -0.41046798 1.494423
1.24939 -0.41426 1.494938
1.2585701 -0.41592097 1.493353
1.1712999 -0.54476297 1.4588031
1.16892 -0.55891901 1.457404
1.25902 -0.41243699 1.4901041
1.26613 -0.41446301 1.488121
1.1820099 -0.47872898 1.4628921
1.1692901 -0.49580002 1.459126
1.15592 -0.51179296 1.455109
1.16284 -0.51992804 1.455636
1.16861 -0.53276402 1.455828
1.1696601 -0.54576099 1.4550711
1.16986 -0.55798 1.4535251
1.2704101 -0.41002101 1.4844421
1.2768101 -0.41075501 1.4850141
1.18432 -0.477061 1.459439
1.17276 -0.49076402 1.4568851
1.1686599 -0.50582498 1.45426
1.1653 -0.52209997 1.4526061
1.16925 -0.53337401 1.451862
1.16975 -0.54633301 1.451017
1.16921 -0.55679202 1.4495511
1.2824 -0.40576401 1.4822891
1.27657 -0.411275 1.481006
1.1826 -0.47804502 1.4550481
1.17484 -0.49013099 1.452541
1.17058 -0.50325602 1.449537
1.16905 -0.51735502 1.4491971
1.17065 -0.53029901 1.4487162
1.17329 -0.54098302 1.448608
1.1602401 -0.565346 1.4447421
1.28297 -0.40859601 1.479213
1.18156 -0.48048499 1.4517941
1.17158 -0.49439099 1.447713
1.15921 -0.509386 1.4439
1.18975 -0.49523202 1.4142461
1.19412 -0.50578398 1.4126351
1.19645 -0.51802999 1.4123131
1.1995701 -0.49101201 1.4131751
1.2025599 -0.50140303 1.4101139
1.20016 -0.515374 1.4095111
1.20243 -0.52512401 1.40763
1.20367 -0.488644 1.4085491
1.2075599 -0.497253 1.405787
1.20103 -0.512986 1.4035001
1.20143 -0.52665001 1.4021001
1.20033 -0.50282198 1.3989371
1.2 -0.51491797 1.398257
1.1997499 -0.496151 1.396431
1.19066 -0.508425 1.392859
1.26051 -0.41855201 1.379382
1.17837 -0.42867902 1.3331101
1.1670201 -0.42968801 1.3242711
1.18322 -0.43084598 1.324245
1.17155 -0.502078 1.6476071
1.17019 -0.508255 1.646781
1.19493 -0.48818803 1.644748
1.18733 -0.50128603 1.6447921
1.18662 -0.51167101 1.6433262
1.17872 -0.52525699 1.640092
1.1981701 -0.49442199 1.640588
1.19182 -0.50896299 1.6396412
1.18984 -0.521299 1.637862
1.1765699 -0.53605902 1.634174
1.20183 -0.49425203 1.636295
1.19669 -0.506679 1.634111
1.19399 -0.51829702 1.633952
1.1853299 -0.53365999 1.630095
1.19819 -0.49772999 1.6320441
1.1880001 -0.51301104 1.626493
1.19059 -0.521218 1.627405
1.18469 -0.53485799 1.6228311
1.15162 -0.52186799 1.61366
1.1636599 -0.52337503 1.6160159
1.18469 -0.52412105 1.619975
1.18365 -0.53434598 1.6169242
1.15913 -0.52591699 1.610345
1.1749901 -0.52896601 1.612056
1.18011 -0.53834301 1.6112931
1.1317199 -0.416906 1.589206
1.1433101 -0.41922599 1.5899789
1.07961 -0.39384401 1.578235
1.0862401 -0.39788899 1.5787021
1.12361 -0.405312 1.5832791
1.13943 -0.41307899 1.586118
1.16149 -0.41727799 1.588205
1.0879101 -0.39230001 1.5756451
1.1062 -0.39699402 1.5774139
1.12797 -0.40511599 1.5798181
1.15214 -0.412231 1.5819861
1.17498 -0.41759101 1.5850251
1.10201 -0.38322201 1.572525
1.09787 -0.39016101 1.5716251
1.11168 -0.39793 1.5719241
1.1331199 -0.40643001 1.5742911
1.15104 -0.41251498 1.57535
1.1724601 -0.41767502 1.57888
1.09641 -0.38381901 1.5666101
1.1013501 -0.38967702 1.5666611
1.10721 -0.39673802 1.5654111
1.1205601 -0.40459701 1.567444
1.13669 -0.41274899 1.5688651
1.15202 -0.41824698 1.5699081
1.09399 -0.38358298 1.5624481
1.09989 -0.388998 1.5625579
1.10026 -0.39726698 1.56129
1.11193 -0.403294 1.5627029
1.11871 -0.410586 1.5637811
1.15617 -0.41826001 1.566365
1.1655101 -0.42100498 1.566926
1.24177 -0.49045503 1.5657141
1.24843 -0.50128299 1.5653461
1.25167 -0.51059699 1.5659109
1.2516 -0.520006 1.564514
1.15258 -0.42061099 1.562415
1.24431 -0.48901999 1.562686
1.24685 -0.49962503 1.560213
1.2490001 -0.51042497 1.561362
1.2527699 -0.51937598 1.559495
1.24462 -0.488112 1.5575202
1.24298 -0.49930999 1.554989
1.24795 -0.51056701 1.55504
1.25307 -0.522699 1.554445
1.23806 -0.49049702 1.5522351
1.22154 -0.40043801 1.540802
1.23122 -0.403368 1.5417691
1.22207 -0.40080601 1.534458
1.2336 -0.40374297 1.536517
1.23501 -0.40410599 1.5300231
1.15766 -0.486821 1.5051551
1.15344 -0.49628299 1.504199
1.1481 -0.50901598 1.502417
1.13808 -0.524279 1.499456
1.12836 -0.53925002 1.496289
1.1199 -0.55296499 1.4934092
1.17636 -0.47755799 1.505137
1.16871 -0.48834899 1.5034261
1.15949 -0.50219899 1.501036
1.14759 -0.51786798 1.4980261
1.138 -0.53278196 1.495079
1.1253901 -0.54946703 1.491044
1.1836901 -0.479222 1.501649
1.1636 -0.497383 1.495834
1.15306 -0.51383996 1.4937701
1.14448 -0.52743196 1.4921001
1.1327 -0.54323798 1.487818
1.11896 -0.56260401 1.4826971
1.1801699 -0.48200199 1.4948959
1.16471 -0.49683499 1.490083
1.15669 -0.51002902 1.4888519
1.14424 -0.52760899 1.486709
1.12581 -0.551714 1.480664
1.12102 -0.56331199 1.477746
1.16988 -0.48692599 1.4884491
1.14993 -0.50449598 1.4840579
1.14281 -0.51692003 1.4830141
1.11579 -0.56763697 1.47331
1.1557599 -0.55059302 1.4568131
1.1640899 -0.55941898 1.4575131
1.16399 -0.57125002 1.4571151
1.21679 -0.40245801 1.479673
1.18459 -0.47602698 1.4623441
1.15738 -0.49255502 1.457462
1.16712 -0.496838 1.4587399
1.16424 -0.50928503 1.4564819
1.15848 -0.52604902 1.454478
1.15661 -0.5399 1.454415
1.1607499 -0.54856402 1.454545
1.165 -0.55826199 1.453517
1.25534 -0.41445202 1.4799651
1.17141 -0.48681501 1.4570309
1.16497 -0.498698 1.4550821
1.1672 -0.506396 1.4536151
1.1656801 -0.518305 1.4524701
1.16664 -0.53376597 1.4524139
1.16661 -0.54709202 1.4515691
1.16813 -0.55551499 1.449968
1.2667401 -0.40970001 1.4775571
1.2604001 -0.41621301 1.476316
1.17958 -0.48094502 1.454971
1.17146 -0.494766 1.4522132
1.1678801 -0.50771201 1.44959
1.16717 -0.52012002 1.449035
1.16925 -0.53225601 1.4491271
1.16749 -0.54547101 1.448187
1.16563 -0.55894601 1.446424
1.2574199 -0.418744 1.469761
1.17887 -0.48334399 1.4511981
1.16863 -0.49855599 1.4474969
1.16728 -0.50907302 1.446239
1.25712 -0.41922 1.4467911
1.26178 -0.41707098 1.4440179
1.2036 -0.51104999 1.4149661
1.19923 -0.52170897 1.4136841
1.26724 -0.41538298 1.442583
1.20544 -0.49796399 1.412872
1.20478 -0.50849199 1.411658
1.20556 -0.51936799 1.411857
1.20823 -0.49116299 1.410262
1.20988 -0.50136203 1.4088271
1.2088701 -0.51333499 1.407388
1.20647 -0.504296 1.401848
1.20726 -0.516002 1.401262
1.20646 -0.49514598 1.3981979
1.2053701 -0.50576901 1.3972821
1.1982701 -0.51948398 1.395254
1.19366 -0.498312 1.39157
1.1686599 -0.46244201 1.6668091
1.16705 -0.45326999 1.669039
1.1650901 -0.44440201 1.6671591
1.17322 -0.46874297 1.6615731
1.16381 -0.46419799 1.6623629
1.16757 -0.45206797 1.6632361
1.16721 -0.46554297 1.6576849
1.16588 -0.45470601 1.6577661
1.20288 -0.49541199 1.6456021
1.1922899 -0.493065 1.6478881
1.19339 -0.483035 1.647158
1.16633 -0.46692199 1.6521801
1.1886799 -0.51550204 1.6414511
1.1894799 -0.50455397 1.6434561
1.19403 -0.49179101 1.642987
1.19275 -0.48363701 1.6426941
1.1856301 -0.47753897 1.6439191
1.1752501 -0.47052398 1.6441321
1.16089 -0.469787 1.648024
1.1935199 -0.52601999 1.6360251
1.1786901 -0.526398 1.6390381
1.18557 -0.51231998 1.63852
1.1905 -0.49820301 1.6389731
1.19065 -0.48535302 1.6376581
1.1824601 -0.47613898 1.6380301
1.1732299 -0.47239497 1.6382159
1.1636699 -0.47160998 1.6412381
1.1854 -0.54033297 1.6322991
1.18007 -0.53471297 1.6343429
1.1817501 -0.52429301 1.635455
1.1842999 -0.51442099 1.6337922
1.18854 -0.50020403 1.633356
1.19493 -0.482788 1.6301841
1.16334 -0.47402698 1.6343991
1.17643 -0.53783399 1.630223
1.179 -0.52678102 1.631358
1.18569 -0.51170599 1.629599
1.19213 -0.49504903 1.628013
1.17592 -0.47165799 1.627095
1.15883 -0.47517502 1.62836
1.17612 -0.53046 1.6266589
1.19947 -0.499264 1.624751
1.1701699 -0.47233599 1.6220111
1.15543 -0.47619802 1.6241901
1.1588 -0.47338903 1.6187991
1.1786901 -0.52477098 1.6124671
1.16337 -0.46786597 1.6105801
1.16748 -0.45758203 1.608277
1.14388 -0.47417802 1.607538
1.15859 -0.46203801 1.606284
1.1347899 -0.477525 1.602883
1.13952 -0.47194499 1.603902
1.16667 -0.431353 1.5896499
1.12849 -0.48068601 1.598199
1.12948 -0.47539398 1.598973
1.15298 -0.44232801 1.590227
1.1550701 -0.432971 1.58869
1.1537 -0.42469299 1.5871741
1.2417099 -0.47946498 1.569568
1.1308 -0.480281 1.5930191
1.12851 -0.47550499 1.5932131
1.1438099 -0.454458 1.590263
1.1507 -0.43875998 1.586905
1.15017 -0.42823601 1.5852181
1.13974 -0.42389703 1.5851581
1.12758 -0.41926399 1.5844061
1.23685 -0.49234298 1.569468
1.2343299 -0.48378399 1.5681671
1.13928 -0.47837001 1.586326
1.12894 -0.48041499 1.588366
1.1447101 -0.45017397 1.58584
1.1497 -0.43408698 1.581947
1.14235 -0.42842302 1.582381
1.13493 -0.42247 1.581573
1.12468 -0.41852298 1.581517
1.11711 -0.411805 1.5809211
1.11278 -0.40102401 1.579531
1.23322 -0.495556 1.566543
1.17162 -0.470714 1.5735501
1.14825 -0.47618598 1.5798551
1.1410099 -0.44813302 1.583118
1.1562001 -0.42591098 1.5761819
1.14148 -0.42591801 1.5776669
1.12779 -0.42265499 1.5778531
1.12015 -0.41764802 1.5783501
1.1119599 -0.41336 1.577561
1.10709 -0.40534198 1.577705
1.1020401 -0.39591202 1.5771539
1.10182 -0.38349998 1.57538
1.08578 -0.3854 1.577027
1.08726 -0.37708402 1.575654
1.23654 -0.49517 1.560305
1.1630501 -0.47105998 1.5701849
1.13034 -0.42040002 1.5723721
1.12064 -0.41652599 1.5731711
1.11101 -0.41364101 1.573606
1.10514 -0.40809301 1.5737461
1.09665 -0.40053397 1.573974
1.08945 -0.392869 1.575202
1.08505 -0.38594201 1.5738671
1.08017 -0.38174 1.5738171
1.24059 -0.489595 1.5552789
1.178 -0.46804601 1.561553
1.1626999 -0.47146198 1.5643539
1.1393499 -0.412379 1.5659641
1.12638 -0.412907 1.567637
1.10859 -0.41346499 1.56981
1.09835 -0.407148 1.5696591
1.08904 -0.40360501 1.5705529
1.08646 -0.39389199 1.570094
1.08085 -0.38626 1.57048
1.07609 -0.381367 1.568465
1.16527 -0.47049901 1.5582851
1.12165 -0.405173 1.5633991
1.0992501 -0.40752801 1.5655969
1.08971 -0.40122002 1.5653329
1.07829 -0.39753601 1.5658129
1.07621 -0.38913399 1.566457
1.06661 -0.386401 1.564959
1.06678 -0.37985697 1.5643921
1.16337 -0.47201303 1.5532221
1.08957 -0.40009898 1.560482
1.0775399 -0.39834598 1.561219
1.07252 -0.39143002 1.56177
1.06241 -0.38862097 1.5609031
1.17123 -0.46834499 1.546913
1.0795799 -0.394274 1.5558161
1.06863 -0.39191502 1.556571
1.07125 -0.38793099 1.550782
1.1791 -0.466791 1.5050091
1.16681 -0.46981499 1.5087579
1.16492 -0.47042999 1.5049069
1.1878099 -0.49095002 1.4928641
1.1750801 -0.468505 1.4949012
1.16582 -0.46941501 1.498964
1.1586599 -0.52973998 1.4963751
1.16213 -0.52065498 1.4962091
1.18311 -0.49702498 1.491098
1.17944 -0.46725202 1.488343
1.16486 -0.46981499 1.4931281
1.14448 -0.540869 1.496374
1.15651 -0.52653998 1.4947641
1.18893 -0.49032903 1.4869751
1.16488 -0.469998 1.486136
1.14406 -0.548325 1.49227
1.14273 -0.54400504 1.493278
1.1423401 -0.540021 1.4935901
1.17646 -0.46679798 1.4769189
1.16085 -0.471187 1.481017
1.13269 -0.571495 1.491362
1.1324099 -0.56033003 1.490889
1.1382 -0.54844797 1.4908731
1.14299 -0.54167801 1.4887109
1.17971 -0.46665299 1.4706861
1.16264 -0.47106799 1.4754001
1.12517 -0.57493901 1.4900839
1.12853 -0.56384397 1.4877541
1.1328399 -0.55431598 1.48772
1.16264 -0.47156501 1.4715592
1.1210999 -0.57058799 1.4863909
1.1273201 -0.56083798 1.4843221
1.1798 -0.46559897 1.449747
1.1614499 -0.47063598 1.453859
1.16503 -0.46870998 1.4494531
1.17285 -0.46399102 1.441009
1.17685 -0.45744097 1.424413
1.17193 -0.45249999 1.424144
1.17697 -0.4425 1.420153
1.17976 -0.46269798 1.419955
1.18696 -0.48638198 1.410524
1.18012 -0.46325502 1.4008081
1.18015 -0.47012502 1.3959531
1.1803299 -0.463388 1.3959841
1.17879 -0.45817798 1.3931371
1.1756301 -0.469798 1.3908279
1.17708 -0.464544 1.390424
1.1769999 -0.45886901 1.3869369
1.1790299 -0.46135101 1.382063
1.17667 -0.458606 1.3812829
1.17162 -0.465083 1.377461
1.17847 -0.45704499 1.3740941
1.17901 -0.462286 1.3672631
1.1766601 -0.45884702 1.368139
1.18174 -0.47714198 1.360271
1.16974 -0.476713 1.365907
1.17529 -0.46744302 1.36257
1.1783201 -0.458462 1.360842
1.1829799 -0.47122699 1.355741
1.1769999 -0.46596298 1.3556781
1.17733 -0.45914102 1.355029
1.18407 -0.46981701 1.348823
1.1760299 -0.467011 1.3495951
1.1779699 -0.45880902 1.3480921
1.1793901 -0.47142398 1.3449011
1.1767401 -0.46456701 1.342768
1.17577 -0.458428 1.3423899
1.18145 -0.47031602 1.3378791
1.17564 -0.46460202 1.3359331
1.17422 -0.45686001 1.3357141
1.18072 -0.47035998 1.3305709
1.17461 -0.464095 1.33041
1.17119 -0.45800799 1.3312809
1.16598 -0.449682 1.328823
1.16113 -0.43945098 1.326458
1.09816 -0.38706198 1.3363571
1.08533 -0.38831699 1.3411529
1.07951 -0.379426 1.343235
1.0789399 -0.371488 1.341949
1.07311 -0.36633399 1.3438431
1.18366 -0.46965 1.3223571
1.17352 -0.46687001 1.3266171
1.17158 -0.45656601 1.3246521
1.16368 -0.44944599 1.323956
1.15221 -0.444902 1.3265342
1.14136 -0.44145 1.329285
1.13086 -0.43590301 1.330374
1.11822 -0.43210602 1.3331021
1.1028299 -0.43047902 1.337301
1.09684 -0.42120999 1.337285
1.08829 -0.413055 1.3389931
1.08714 -0.39836398 1.3386801
1.0832801 -0.39158401 1.3393461
1.0813401 -0.38112301 1.3384809
1.07002 -0.37553799 1.341436
1.15791 -0.44837898 1.320269
1.14987 -0.44368303 1.322257
1.1361699 -0.44128299 1.326093
1.12028 -0.43860298 1.331022
1.11145 -0.43311799 1.3320371
1.10075 -0.42759499 1.3337469
1.0932499 -0.419664 1.335075
1.08819 -0.41367802 1.3358791
1.08499 -0.40682599 1.33623
1.0836799 -0.39387 1.3359621
1.0787101 -0.38448003 1.3365719
1.07188 -0.37809199 1.337926
1.12133 -0.43739799 1.325282
1.10817 -0.43271899 1.3283581
1.1023 -0.42715302 1.329102
1.09754 -0.42095298 1.329715
1.09095 -0.41314998 1.3310862
1.0901101 -0.40354002 1.330333
1.11722 -0.43265399 1.32145
1.10448 -0.42623699 1.325093
1.10181 -0.414561 1.3241119
1.09982 -0.40558499 1.3234801
1.17462 -0.46718398 1.677492
1.1713099 -0.46935201 1.6734711
1.17102 -0.46245602 1.6734509
1.17744 -0.471802 1.668
1.17142 -0.46852401 1.6684899
1.17053 -0.45909801 1.6689709
1.17934 -0.471618 1.662433
1.17028 -0.469201 1.661752
1.16995 -0.459647 1.6637702
1.17933 -0.47570401 1.6553351
1.16875 -0.47037399 1.6565051
1.16738 -0.46045899 1.65801
1.2045799 -0.504107 1.645008
1.19697 -0.500413 1.6464341
1.19475 -0.48910701 1.647988
1.18116 -0.47787899 1.65025
1.1704 -0.473506 1.6515731
1.1643901 -0.46519402 1.6524651
1.2001899 -0.51325804 1.641631
1.19006 -0.51113302 1.6438571
1.19356 -0.499654 1.6437911
1.18987 -0.491272 1.644165
1.1896499 -0.48246497 1.6457089
1.17836 -0.478109 1.6459301
1.16546 -0.472873 1.6465069
1.16573 -0.46123001 1.646875
1.1685901 -0.45153198 1.647364
1.1881601 -0.51933402 1.639917
1.18946 -0.51245099 1.639526
1.18791 -0.50559896 1.64051
1.18543 -0.496268 1.639727
1.18549 -0.48472199 1.6409661
1.17458 -0.47889197 1.6407981
1.16204 -0.47540501 1.641387
1.16153 -0.46652302 1.6417471
1.1664 -0.45615101 1.641054
1.1794 -0.534738 1.633918
1.17951 -0.52670401 1.635886
1.18317 -0.517667 1.636546
1.18541 -0.50684601 1.6353492
1.18268 -0.497585 1.6354681
1.18446 -0.48478699 1.63472
1.1718 -0.47790402 1.6356031
1.16067 -0.47250199 1.6367199
1.1601 -0.464277 1.6367919
1.16766 -0.45542702 1.63543
1.17555 -0.53198397 1.632442
1.18065 -0.519988 1.6320599
1.18695 -0.50679702 1.629697
1.1843901 -0.49893701 1.631562
1.1791999 -0.47693902 1.630748
1.1603501 -0.47524399 1.6317221
1.15864 -0.46638 1.6317059
1.16502 -0.45712799 1.6313159
1.17203 -0.53438097 1.629095
1.18826 -0.51428801 1.6269009
1.19938 -0.50141603 1.6246099
1.19406 -0.49793801 1.626042
1.1800599 -0.47529098 1.6277912
1.14599 -0.47806999 1.6273911
1.15318 -0.46955699 1.6268741
1.1618199 -0.45972401 1.6263571
1.1379399 -0.480964 1.6245281
1.14739 -0.47218898 1.6225101
1.15775 -0.46202999 1.6202511
1.14183 -0.47781602 1.619579
1.14934 -0.46922198 1.6166991
1.16302 -0.45747298 1.612479
1.14599 -0.47352001 1.613425
1.15983 -0.46190798 1.6088251
1.1661 -0.45446202 1.606616
1.1606801 -0.46061799 1.6041101
1.16435 -0.45293099 1.60087
1.16064 -0.45836499 1.5971
1.16664 -0.44871399 1.5940621
1.1596299 -0.45851398 1.5921789
1.16329 -0.45142299 1.5904621
1.16009 -0.443609 1.5892731
1.1567 -0.43599099 1.5889419
1.16948 -0.411764 1.5819299
1.25225 -0.52676499 1.569047
1.25346 -0.49397999 1.5668731
1.2544301 -0.48289001 1.567125
1.25151 -0.47596198 1.567444
1.15895 -0.45788503 1.5872421
1.1624299 -0.44915 1.5843469
1.15536 -0.44341499 1.584767
1.1565499 -0.43359903 1.584281
1.15747 -0.42133 1.5827842
1.15382 -0.41358399 1.5818601
1.1450599 -0.40861699 1.581286
1.24156 -0.50011003 1.566342
1.24224 -0.489887 1.566602
1.2437201 -0.47941798 1.566471
1.15973 -0.456471 1.5803341
1.16355 -0.448358 1.5785251
1.15444 -0.44583499 1.581184
1.15475 -0.435956 1.57938
1.14899 -0.426599 1.580359
1.14572 -0.415867 1.5800619
1.13442 -0.41208598 1.580549
1.1251 -0.40778899 1.5802569
1.1213 -0.39881599 1.578629
1.2381999 -0.49285901 1.5626972
1.23683 -0.482449 1.563325
1.15832 -0.45825699 1.5754989
1.1631199 -0.45029598 1.573396
1.15776 -0.44393501 1.575458
1.15951 -0.43472001 1.572767
1.14966 -0.43004599 1.5754491
1.1426899 -0.41802201 1.5765342
1.1290699 -0.41313401 1.5780029
1.11816 -0.41007501 1.578663
1.10988 -0.40532798 1.5783279
1.10893 -0.39623901 1.577003
1.09523 -0.376405 1.5758129
1.09701 -0.370666 1.575506
1.23386 -0.497192 1.5589471
1.15975 -0.457643 1.570426
1.1673501 -0.44876498 1.566815
1.16904 -0.438954 1.566465
1.17189 -0.42775699 1.5642999
1.1286 -0.411468 1.5735331
1.1150299 -0.410449 1.575384
1.10335 -0.40713298 1.574586
1.09604 -0.40194499 1.575937
1.0918599 -0.39490899 1.575871
1.0893 -0.38374802 1.574172
1.09078 -0.37593201 1.574205
1.23773 -0.50271302 1.555493
1.23625 -0.49161598 1.554864
1.1620899 -0.45562899 1.5643271
1.17038 -0.44514301 1.5606961
1.1061901 -0.41157398 1.5712841
1.10083 -0.40770999 1.5708691
1.09604 -0.40243697 1.571193
1.08891 -0.39403197 1.5714481
1.08655 -0.385331 1.570954
1.08383 -0.380705 1.5709751
1.16377 -0.45423901 1.5572821
1.11099 -0.40507001 1.564087
1.0996499 -0.405736 1.5665271
1.09148 -0.40101898 1.567293
1.08284 -0.396797 1.5666641
1.08137 -0.38763699 1.5672171
1.0785099 -0.38064203 1.565441
1.1594 -0.45747101 1.552592
1.1682299 -0.447478 1.549983
1.10587 -0.39992002 1.559882
1.0894001 -0.40113398 1.562537
1.08293 -0.39671299 1.562281
1.0752101 -0.39300999 1.5633459
1.06696 -0.387963 1.5641211
1.0617299 -0.38152301 1.562409
1.1651599 -0.45419702 1.545445
1.1722 -0.44315299 1.5430621
1.1900901 -0.40967 1.5362021
1.098 -0.39443699 1.5556171
1.08165 -0.39523497 1.5580121
1.06844 -0.39223498 1.5596499
1.06347 -0.38602799 1.5598669
1.16333 -0.45575902 1.5406421
1.16843 -0.447972 1.5386051
1.0863401 -0.39067 1.5519421
1.06951 -0.39196399 1.5544479
1.1677201 -0.45297799 1.5346471
1.0716701 -0.38858199 1.549234
1.1726899 -0.44606 1.525831
1.17181 -0.449267 1.5140561
1.18985 -0.48936099 1.5042881
1.18556 -0.48778197 1.504829
1.17314 -0.45185399 1.5100712
1.17551 -0.49598399 1.5049601
1.1764801 -0.49223301 1.504057
1.16916 -0.50508302 1.5022299
1.17161 -0.498541 1.5017819
1.1729699 -0.49380401 1.5010391
1.16531 -0.52690399 1.4971601
1.1576999 -0.524813 1.4994631
1.1637501 -0.513017 1.4990811
1.16381 -0.50578302 1.4992801
1.16834 -0.497522 1.4979651
1.22087 -0.39998901 1.4710572
1.2205 -0.387898 1.4679861
1.15431 -0.53263301 1.4975351
1.15799 -0.52563399 1.496459
1.16049 -0.51698601 1.495887
1.1666 -0.50531799 1.494313
1.16585 -0.49910599 1.4951792
1.22571 -0.39601502 1.4651542
1.22537 -0.38492501 1.4630491
1.2281899 -0.37277001 1.460157
1.15137 -0.544195 1.4918829
1.15101 -0.53725398 1.4939401
1.1578 -0.52722198 1.492303
1.16618 -0.51512402 1.4881891
1.22314 -0.40210202 1.4638181
1.23053 -0.38872898 1.4589151
1.22127 -0.38329101 1.459138
1.21619 -0.37722197 1.4595511
1.2198501 -0.36308801 1.455817
1.22124 -0.350263 1.4524429
1.22176 -0.33999699 1.4496131
1.1484799 -0.55605501 1.488112
1.13965 -0.55340999 1.4912702
1.14934 -0.53998798 1.490386
1.16521 -0.52378702 1.4839331
1.19066 -0.50391698 1.4727261
1.23405 -0.39411801 1.457132
1.21917 -0.38304001 1.4563642
1.21483 -0.37776002 1.4562551
1.21796 -0.36474401 1.45249
1.22126 -0.34944302 1.4489459
1.22483 -0.336247 1.445092
1.22505 -0.32975101 1.4442301
1.1331099 -0.56477702 1.4896381
1.13322 -0.55906898 1.48932
1.1474401 -0.54477602 1.4862621
1.19482 -0.50591397 1.467973
1.20584 -0.49567401 1.462032
1.20988 -0.489952 1.4610111
1.1724299 -0.451754 1.467733
1.17454 -0.447822 1.4670861
1.22181 -0.370965 1.450305
1.21557 -0.36490199 1.4497219
1.2218 -0.35052502 1.4452851
1.22374 -0.33889702 1.4426309
1.2252201 -0.33008301 1.44129
1.23457 -0.31861001 1.4379021
1.12886 -0.56780702 1.487339
1.12896 -0.56211299 1.4864291
1.21048 -0.49902803 1.456311
1.21095 -0.49321499 1.455955
1.17221 -0.45280302 1.4621091
1.17264 -0.44919601 1.461782
1.23473 -0.33748502 1.4367871
1.23682 -0.32911301 1.4350951
1.12414 -0.57150602 1.484163
1.12183 -0.56783795 1.482859
1.20865 -0.50597501 1.453142
1.20979 -0.50135201 1.4520431
1.21176 -0.49347302 1.4513761
1.17038 -0.45394403 1.4558731
1.16818 -0.451581 1.4571481
1.11985 -0.57002699 1.4791751
1.2113401 -0.50496101 1.4494791
1.21123 -0.49905699 1.4488989
1.2086799 -0.49318099 1.448791
1.15944 -0.46342 1.45464
1.16998 -0.454642 1.451175
1.17045 -0.45076001 1.45107
1.1698899 -0.45574799 1.4447839
1.16754 -0.45267898 1.446743
1.1607 -0.46530101 1.443163
1.16748 -0.458224 1.4395761
1.16846 -0.45318803 1.439393
1.16765 -0.46254501 1.4358191
1.17135 -0.45630002 1.4324591
1.16995 -0.45194802 1.432827
1.18712 -0.48056099 1.4210181
1.1727999 -0.462807 1.427677
1.17443 -0.455955 1.4253219
1.17214 -0.45107499 1.4259109
1.1970401 -0.51082903 1.4161981
1.1965699 -0.50550199 1.41617
1.19691 -0.496039 1.415329
1.19256 -0.48621202 1.417281
1.17519 -0.46224603 1.4215991
1.17582 -0.45406201 1.4191461
1.17169 -0.45078 1.4205911
1.19068 -0.51405501 1.4150242
1.19488 -0.50627202 1.4136529
1.1935 -0.497733 1.41246
1.1937799 -0.48670602 1.4119321
1.1839 -0.47043899 1.4129319
1.17655 -0.46235299 1.415206
1.17611 -0.45386901 1.4130841
1.17432 -0.44943002 1.4142951
1.18094 -0.51759303 1.414856
1.18779 -0.51080203 1.412446
1.19084 -0.50191504 1.4098511
1.1946 -0.49024102 1.406808
1.17738 -0.46417302 1.409043
1.1710299 -0.458534 1.4107749
1.1743801 -0.45069 1.407801
1.18855 -0.50744998 1.4080191
1.19353 -0.497426 1.404505
1.18004 -0.463884 1.4028289
1.17557 -0.456424 1.403013
1.17365 -0.45043799 1.4007381
1.1979901 -0.49501097 1.400255
1.17372 -0.45464298 1.39712
1.17667 -0.44780999 1.393293
1.17616 -0.45384398 1.39008
1.17755 -0.44747299 1.3877231
1.18013 -0.46209401 1.3821051
1.17592 -0.45618001 1.3845421
1.1767 -0.44906899 1.382423
1.17918 -0.47480702 1.377032
1.18264 -0.46706799 1.3763299
1.1741201 -0.46439201 1.3794451
1.1759501 -0.45610198 1.3780611
1.17582 -0.44938999 1.375047
1.17592 -0.477447 1.373
1.1831601 -0.46824101 1.3704801
1.1749099 -0.463765 1.374253
1.17542 -0.45465499 1.371042
1.1750901 -0.44825 1.36869
1.17292 -0.47856498 1.369849
1.18205 -0.46985599 1.366028
1.17551 -0.463624 1.366634
1.17454 -0.453522 1.364761
1.17861 -0.44596803 1.3620019
1.17849 -0.46923 1.361788
1.17395 -0.46436101 1.3601351
1.17459 -0.45591599 1.358999
1.17601 -0.44779399 1.3573421
1.17487 -0.46850201 1.3550019
1.17527 -0.46106398 1.3533441
1.17488 -0.45315799 1.3523641
1.17788 -0.44634101 1.350273
1.17914 -0.46684799 1.3472439
1.1741201 -0.464118 1.348246
1.1741101 -0.45582598 1.346714
1.17573 -0.447714 1.3449831
1.1779799 -0.466694 1.3422751
