# .PCD v0.7 - Point Cloud Data file format
VERSION 0.7
FIELDS x y z
SIZE 4 4 4
TYPE F F F
COUNT 1 1 1
WIDTH 1638
HEIGHT 1
VIEWPOINT 0 0 0 1 0 0 0
POINTS 1638
DATA ascii
1.17679 -0.31773999 2.1068799
1.1889701 -0.31126899 2.1148002
1.1226799 -0.4136 2.10339
1.12709 -0.40937802 2.10428
1.12467 -0.39105999 2.0946
1.12822 -0.379334 2.0894201
1.12468 -0.41453701 2.0993302
1.12053 -0.40136799 2.0882001
1.12234 -0.387723 2.0799701
1.12868 -0.37838298 2.0789402
1.12633 -0.41481301 2.0892301
1.12254 -0.40049702 2.0780201
1.11918 -0.38532001 2.06581
1.1263 -0.37857699 2.0676501
1.15684 -0.46398398 2.1150298
1.13758 -0.43001097 2.0919602
1.12858 -0.410171 2.0771201
1.1214499 -0.389732 2.06073
1.12415 -0.379814 2.0574601
1.1352401 -0.37404799 2.0592401
1.1586699 -0.46767199 2.11272
1.1558499 -0.45449403 2.1052301
1.1465 -0.43495998 2.0928602
1.12475 -0.39188302 2.05528
1.12862 -0.38178599 2.0497401
1.15784 -0.47562301 2.11025
1.1601501 -0.47015703 2.1080101
1.16389 -0.46360502 2.1056602
1.15977 -0.451004 2.1003799
1.1273301 -0.38848302 2.04339
1.1328399 -0.38458902 2.04162
1.16141 -0.47913301 2.1071801
1.16706 -0.47688597 2.10781
1.17134 -0.47218499 2.1080701
1.1713901 -0.46278501 2.1058302
1.13579 -0.392975 2.0380301
1.16903 -0.486233 2.1096802
1.17116 -0.48085201 2.1072602
1.1994799 -0.34318101 2.1691201
1.1777999 -0.30493602 2.16501
1.19519 -0.32483798 2.1549802
1.2040499 -0.34131402 2.15694
1.1767601 -0.29431498 2.1464801
1.17744 -0.30738199 2.1542001
1.2001001 -0.334003 2.1453202
1.17496 -0.30556199 2.1450698
1.1814901 -0.312998 2.14082
1.17958 -0.30133599 2.12637
1.18279 -0.31625998 2.1287301
1.17672 -0.300513 2.1133699
1.1771901 -0.31432101 2.1211898
1.1667 -0.29890499 2.1118
1.16791 -0.306214 2.1106
1.17397 -0.31692201 2.1104901
1.16159 -0.30376801 2.1086199
1.16241 -0.31207299 2.10934
1.19353 -0.39697498 2.1101198
1.19511 -0.41154802 2.1087999
1.16188 -0.31200799 2.1041698
1.19231 -0.40179101 2.1033802
1.19332 -0.415034 2.1049302
1.19014 -0.42732298 2.10868
1.19065 -0.41612899 2.09882
1.18793 -0.43142101 2.1031799
1.19277 -0.43620399 2.1000202
1.18436 -0.42477199 2.0966001
1.18725 -0.43359002 2.0957599
1.19345 -0.43612 2.0913501
1.18199 -0.42756 2.0915601
1.18408 -0.43561298 2.0920599
1.1854399 -0.42691299 2.0824399
1.2218801 -0.39821202 2.0194199
1.1242299 -0.38233501 2.05867
1.11305 -0.39186502 2.0640299
1.19891 -0.34990397 2.1767099
1.20102 -0.34015098 2.1617301
1.1992 -0.34932899 2.1696601
1.17636 -0.29261601 2.14081
1.1750901 -0.302008 2.1479402
1.1786 -0.310065 2.1491699
1.1776201 -0.31172198 2.1401801
1.1791201 -0.29844102 2.11959
1.1791999 -0.308689 2.1240101
1.17523 -0.301341 2.1133499
1.17594 -0.30976102 2.11391
1.17024 -0.30586299 2.1106701
1.18714 -0.40574402 2.11941
1.18409 -0.41554001 2.12552
1.18984 -0.40222499 2.1091399
1.18815 -0.41196901 2.11499
1.18733 -0.40296701 2.1013
1.18646 -0.41167998 2.10744
1.1796399 -0.40840098 2.1019299
1.18318 -0.41360101 2.1015201
1.17944 -0.41605499 2.0994101
1.13627 -0.37238899 2.0532999
1.2012401 -0.35851201 2.1500602
1.18291 -0.30372801 2.1226902
1.18226 -0.303729 2.1159399
1.18167 -0.31049699 2.11971
1.1824 -0.31093201 2.11081
1.17802 -0.316544 2.1077499
1.18592 -0.40546101 2.1143601
1.19244 -0.40111199 2.1001101
1.1867601 -0.47435397 2.1075602
1.1824 -0.48495999 2.1149702
1.17902 -0.49586102 2.12164
1.18801 -0.47286302 2.1004701
1.18275 -0.48199502 2.1073401
1.18145 -0.494066 2.1129198
1.1789601 -0.50585699 2.1180003
1.18029 -0.518933 2.1161401
1.1848301 -0.47492999 2.0978501
1.18144 -0.48268902 2.1015899
1.18027 -0.49343202 2.10534
1.17979 -0.50729597 2.1105201
1.18287 -0.52041304 2.1070001
1.1860501 -0.53223598 2.10587
1.21889 -0.38595402 2.0217001
1.17748 -0.48625302 2.1008101
1.1779699 -0.495731 2.10202
1.17791 -0.50921702 2.1051002
1.18142 -0.52408403 2.1031799
1.18181 -0.53343499 2.10496
1.20407 -0.34818801 2.15095
1.2060601 -0.35301101 2.1499
1.2079901 -0.42964801 2.0947399
1.21315 -0.43414602 2.089
1.21216 -0.42973801 2.0850799
1.2006099 -0.43960899 2.0971999
1.19543 -0.44975898 2.10233
1.19003 -0.463844 2.1076999
1.2007099 -0.441203 2.0911999
1.1960701 -0.44935399 2.0960701
1.1906301 -0.462735 2.1007502
1.18404 -0.47826901 2.1087601
1.1825399 -0.49418202 2.1111403
1.1766601 -0.507137 2.11919
1.18748 -0.45607102 2.09639
1.18489 -0.46695 2.0987399
1.18497 -0.47607201 2.1014299
1.18293 -0.49070799 2.1040201
1.1800901 -0.505445 2.10974
1.18372 -0.51491296 2.1076598
1.1837699 -0.52976698 2.10728
1.1757901 -0.46097401 2.10181
1.18493 -0.46538201 2.0930898
1.18085 -0.479114 2.0991001
1.18041 -0.49442601 2.0996301
1.18084 -0.50528198 2.1012499
1.18091 -0.51742399 2.1043
1.1850901 -0.52789599 2.0996802
1.17259 -0.50859404 2.1041501
1.18187 -0.51766801 2.0969203
1.1817501 -0.53303301 2.0982001
1.19116 -0.32333401 2.1160603
1.19119 -0.313925 2.1151998
1.1918 -0.30386201 2.1145098
1.18387 -0.434266 2.11535
1.1869999 -0.42775699 2.1159799
1.19371 -0.42138901 2.1175699
1.1908799 -0.412218 2.11622
1.1874601 -0.40078098 2.1145098
1.18073 -0.31746998 2.1109099
1.1817 -0.30831498 2.1096399
1.18152 -0.29761499 2.1092598
1.16523 -0.43287602 2.1084499
1.1796499 -0.43261299 2.1120598
1.1811299 -0.42607298 2.1110601
1.18735 -0.41881803 2.1133499
1.1855301 -0.408337 2.11182
1.17574 -0.315925 2.1052899
1.17314 -0.30692199 2.10392
1.1777101 -0.300064 2.1040101
1.08654 -0.42406601 2.0874701
1.16064 -0.43207198 2.1035299
1.1698101 -0.43038899 2.1056499
1.16985 -0.42314702 2.1040702
1.17681 -0.41494203 2.1056201
1.17828 -0.404071 2.1060901
1.1536499 -0.32108003 2.0940301
1.1584201 -0.313126 2.0958898
1.16908 -0.30667698 2.09905
1.1678801 -0.299528 2.0970902
1.17198 -0.29188901 2.0990798
1.1176699 -0.451796 2.08741
1.09012 -0.42995203 2.08444
1.09317 -0.427001 2.0834799
1.1574299 -0.430545 2.09799
1.16607 -0.42798197 2.10009
1.16572 -0.419999 2.09863
1.16154 -0.41000599 2.0966601
1.14889 -0.32884499 2.0896702
1.1521499 -0.32096002 2.08987
1.15464 -0.31435201 2.09021
1.15997 -0.30613601 2.0917699
1.1745501 -0.30207801 2.0949802
1.10517 -0.44987401 2.0824702
1.10308 -0.44333598 2.0822699
1.0944999 -0.43231899 2.0803399
1.10153 -0.42831799 2.0805402
1.1514499 -0.430482 2.0916202
1.15564 -0.424115 2.0929599
1.15434 -0.41382501 2.0917099
1.15564 -0.40521401 2.09163
1.1419899 -0.33749101 2.0837202
1.14448 -0.32802799 2.0830002
1.14719 -0.31945899 2.0852599
1.15308 -0.31233001 2.08599
1.16164 -0.307082 2.0881798
1.10273 -0.448055 2.0780301
1.09905 -0.44046399 2.07728
1.1003801 -0.43381101 2.07762
1.1114601 -0.43223599 2.0794699
1.1277699 -0.42817798 2.0835102
1.15695 -0.42852798 2.0899899
1.15389 -0.417384 2.0890501
1.15162 -0.33181199 2.0802801
1.15289 -0.321055 2.0827601
1.1557701 -0.31282499 2.08389
1.10068 -0.44828999 2.0725901
1.10261 -0.444713 2.0725601
1.1013501 -0.43718103 2.0737901
1.1022201 -0.44874501 2.0680401
1.10569 -0.44648498 2.06868
1.1046901 -0.44203299 2.06833
1.10614 -0.45022801 2.06427
1.10633 -0.44663501 2.06499
1.10682 -0.44319901 2.06393
1.13396 -0.37301299 2.0634799
1.11171 -0.45268399 2.0625799
1.11233 -0.44912398 2.0627601
1.11567 -0.44665101 2.06283
1.13274 -0.36828399 2.0571001
1.13798 -0.36133802 2.05913
1.12964 -0.368141 2.0510502
1.13706 -0.36297297 2.0526099
1.13563 -0.36825699 2.04794
1.13582 -0.36169299 2.0478699
1.13822 -0.37040401 2.04336
1.13941 -0.36300901 2.0443702
1.15873 -0.355746 2.02053
1.19175 -0.32126099 2.1178298
1.19186 -0.30796701 2.1166799
1.1985199 -0.44846299 2.1227801
1.20193 -0.431548 2.1228201
1.1891301 -0.415378 2.11906
1.19479 -0.41059199 2.1201801
1.18222 -0.31455299 2.1118898
1.18288 -0.304463 2.1105099
1.19218 -0.45306599 2.11854
1.18878 -0.44503799 2.1176102
1.18879 -0.435727 2.1176598
1.19001 -0.425295 2.1171501
1.1880699 -0.414794 2.11568
1.17914 -0.40012902 2.1137099
1.17229 -0.31946301 2.1057501
1.17686 -0.31049901 2.1063399
1.178 -0.30282301 2.10465
1.18353 -0.29661599 2.1070001
1.18349 -0.44832098 2.1129501
1.18172 -0.43992501 2.1125202
1.1809601 -0.42965698 2.11219
1.17779 -0.41830501 2.10939
1.17761 -0.40724799 2.10956
1.1449 -0.33055401 2.0950699
1.15642 -0.324754 2.0991399
1.1588 -0.31525499 2.09657
1.1691201 -0.30808201 2.09956
1.17377 -0.301332 2.0998502
1.18016 -0.29576799 2.1015
1.09214 -0.43607101 2.0906401
1.18107 -0.44753301 2.1078501
1.1782 -0.44049001 2.1066401
1.17457 -0.42847902 2.10517
1.1704 -0.41643199 2.1022699
1.17047 -0.40549499 2.1024599
1.14325 -0.32915902 2.0890501
1.14712 -0.32104999 2.0912399
1.1526999 -0.31392899 2.0899301
1.16819 -0.31005999 2.09431
1.1738 -0.302149 2.09654
1.18462 -0.29876399 2.09866
1.09118 -0.43603802 2.0854299
1.08823 -0.43154898 2.0845098
1.17837 -0.44433799 2.10254
1.17221 -0.433918 2.09969
1.15999 -0.417882 2.0958898
1.15922 -0.408108 2.09552
1.1410099 -0.336427 2.08514
1.14122 -0.32844397 2.08448
1.14763 -0.32212898 2.08568
1.1536 -0.31522501 2.0866799
1.1604199 -0.310415 2.0887601
1.17343 -0.304647 2.0929198
1.09156 -0.43582299 2.08043
1.0925599 -0.43359903 2.08006
1.1692901 -0.432206 2.0951002
1.16099 -0.42048699 2.0917599
1.1570201 -0.40735599 2.0900698
1.14263 -0.34029099 2.0813799
1.14665 -0.33268502 2.0815001
1.1533101 -0.32711801 2.08233
1.15497 -0.31776699 2.0843899
1.09369 -0.43738499 2.07623
1.09807 -0.43685201 2.0750601
1.1733 -0.42766899 2.09168
1.16115 -0.41317201 2.0880003
1.10262 -0.441847 2.0726001
1.1071 -0.44157502 2.07126
1.10736 -0.444426 2.0681901
1.11672 -0.44678101 2.0678601
1.11731 -0.44953603 2.06528
1.1261799 -0.451637 2.0655701
1.13428 -0.36979699 2.05972
1.13367 -0.36443803 2.0580099
1.1271 -0.45516601 2.0638599
1.1384 -0.45795101 2.0652399
1.13387 -0.369872 2.05427
1.13253 -0.364804 2.05373
1.13545 -0.35908002 2.0538599
1.13378 -0.36500999 2.0499899
1.1368699 -0.36631 2.04511
1.12345 -0.30335 2.2011099
1.18578 -0.31645 2.1136801
1.18287 -0.30020499 2.1129699
1.19148 -0.458684 2.1226401
1.19103 -0.44948199 2.1220503
1.19982 -0.44399202 2.12339
1.1929799 -0.429685 2.1205401
1.18398 -0.41286099 2.11658
1.1724299 -0.31834599 2.1077499
1.1774 -0.30789301 2.1081901
1.1800801 -0.29937899 2.1079502
1.17379 -0.453545 2.11553
1.1793599 -0.45076001 2.1173501
1.18212 -0.44481999 2.1168799
1.18549 -0.435574 2.11693
1.1837001 -0.42155898 2.1145802
1.13393 -0.34395 2.0994
1.1450499 -0.33013999 2.0997
1.15557 -0.32183602 2.1004701
1.1616501 -0.31248701 2.10009
1.16988 -0.30693001 2.1019602
1.1759501 -0.30030501 2.10323
1.16703 -0.45079601 2.10887
1.17432 -0.44801998 2.11164
1.17979 -0.44115698 2.1122401
1.1765 -0.42848098 2.10958
1.17417 -0.41491902 2.10707
1.13764 -0.33499599 2.0935602
1.1413 -0.32533401 2.0929902
1.14333 -0.31614 2.09111
1.15574 -0.31183702 2.0941401
1.1641201 -0.30620199 2.0961599
1.1723 -0.299409 2.0976501
1.08789 -0.424721 2.08776
1.16167 -0.44809601 2.1024301
1.1676201 -0.44648498 2.1049399
1.16971 -0.437107 2.1045098
1.16598 -0.42189899 2.1012201
1.16282 -0.40771902 2.0987701
1.13706 -0.343301 2.08863
1.13613 -0.331175 2.08742
1.13475 -0.32050201 2.0864599
1.13873 -0.31549102 2.0853
1.14907 -0.311176 2.08742
1.1618299 -0.306021 2.0909302
1.18055 -0.302533 2.0957501
1.08772 -0.43028 2.0835299
1.09527 -0.42845401 2.0826902
1.16255 -0.448742 2.09815
1.16034 -0.44117901 2.0982502
1.15956 -0.42980099 2.0961099
1.1550599 -0.413569 2.0931501
1.13703 -0.33725899 2.08236
1.1396 -0.326141 2.0822601
1.1458 -0.31823701 2.0825901
1.15596 -0.31326401 2.0852802
1.1525 -0.303693 2.0849302
1.1014199 -0.45666099 2.08043
1.09909 -0.44778499 2.0805099
1.0938801 -0.43523601 2.07939
1.0995201 -0.430475 2.0789802
1.11589 -0.431777 2.0816603
1.15043 -0.43743697 2.0905499
1.15351 -0.42305303 2.0904801
1.1510199 -0.40690699 2.08693
1.13772 -0.347137 2.0775399
1.14264 -0.33794799 2.0775299
1.14929 -0.330699 2.0785198
1.14976 -0.31960699 2.0803399
1.104 -0.457975 2.0770903
1.09986 -0.44710201 2.0764902
1.0978 -0.436436 2.0759001
1.11156 -0.43691799 2.0770199
1.12024 -0.43354303 2.0777802
1.1127601 -0.464948 2.07283
1.11031 -0.45625702 2.0732801
1.10416 -0.44192502 2.0725799
1.11751 -0.44121701 2.0728102
1.12599 -0.440191 2.0722299
1.1375099 -0.35480702 2.0670502
1.13933 -0.34749699 2.0665901
1.12037 -0.47051603 2.06951
1.11531 -0.46041802 2.0687602
1.11239 -0.44835401 2.06882
1.1233799 -0.44582501 2.0683899
1.127 -0.44179401 2.06758
1.12278 -0.36358503 2.0597701
1.12413 -0.35955799 2.0586402
1.13412 -0.356888 2.0617599
1.1400701 -0.34971601 2.0619602
1.12774 -0.47568402 2.0679502
1.1297001 -0.47007999 2.0678399
1.1193299 -0.45322499 2.0653901
1.13015 -0.450755 2.06604
1.13592 -0.44772097 2.0663002
1.1190699 -0.36229801 2.0543101
1.1218801 -0.358881 2.0530701
1.1318099 -0.35517299 2.05533
1.14477 -0.35079497 2.05585
1.12612 -0.457858 2.06375
1.12005 -0.362818 2.0483801
1.12564 -0.35889301 2.0488999
1.13807 -0.35568401 2.05
1.12656 -0.367309 2.0432501
1.12521 -0.361361 2.0442901
1.13212 -0.35730898 2.04427
1.1434799 -0.35384202 2.0448599
1.1501499 -0.350182 2.04529
1.13766 -0.37375098 2.0393801
1.1338099 -0.365991 2.0406501
1.13924 -0.359918 2.0398002
1.13828 -0.36811298 2.03564
1.15719 -0.359842 2.0118799
1.1181099 -0.304232 2.21608
1.12068 -0.297766 2.21802
1.1279 -0.293414 2.2123501
1.12193 -0.29835901 2.20631
1.1203901 -0.30861402 2.2002301
1.12394 -0.30188599 2.2002802
1.1276001 -0.29757401 2.20017
1.11807 -0.31289399 2.19539
1.1209999 -0.308103 2.19555
1.1235299 -0.30299199 2.1939001
1.12916 -0.29968399 2.1947298
1.12277 -0.31040201 2.1902702
1.12142 -0.31540099 2.1851401
1.12893 -0.317294 2.1614699
1.12826 -0.32936299 2.1382599
1.179 -0.29963499 2.1148999
1.17428 -0.30931199 2.1116202
1.17594 -0.297259 2.1110198
1.19015 -0.47646901 2.1255801
1.1801699 -0.46146801 2.1221302
1.18042 -0.45054698 2.12061
1.17941 -0.43726501 2.11867
1.18223 -0.428496 2.1178298
1.13143 -0.34350699 2.10432
1.13677 -0.33544201 2.10462
1.14396 -0.32867 2.1043701
1.16899 -0.31648999 2.1080599
1.16976 -0.30408502 2.1058002
1.17379 -0.294741 2.1063299
1.17391 -0.47292197 2.11708
1.17575 -0.46617198 2.11888
1.17878 -0.45916802 2.1182699
1.17889 -0.44583499 2.1164498
1.17699 -0.431683 2.11448
1.17023 -0.41323897 2.1111801
1.13134 -0.34508702 2.0982299
1.13539 -0.33587199 2.0989699
1.14136 -0.32811797 2.0974398
1.1487 -0.31904399 2.09782
1.16168 -0.312085 2.1006401
1.16636 -0.30268201 2.0994699
1.1739 -0.29651502 2.1015701
1.15784 -0.46124297 2.1084101
1.1720999 -0.46438703 2.1133201
1.17073 -0.450964 2.1104901
1.17298 -0.43890399 2.11042
1.17014 -0.42507198 2.1077499
1.16371 -0.40710202 2.1045198
1.1311901 -0.34278703 2.0936899
1.13631 -0.33500901 2.0926502
1.1377701 -0.32256401 2.09044
1.1433899 -0.314174 2.0903702
1.15363 -0.30986401 2.0929
1.1633899 -0.304719 2.0949202
1.17039 -0.29724899 2.0957901
1.14542 -0.453307 2.1001101
1.16319 -0.45763198 2.1049302
1.1679901 -0.45031601 2.10467
1.1667501 -0.43710601 2.1033802
1.16141 -0.41864899 2.09971
1.13223 -0.345853 2.0878401
1.1375901 -0.33487999 2.0861099
1.13468 -0.321659 2.08477
1.14104 -0.31630901 2.0854001
1.14977 -0.31060401 2.0867503
1.1583899 -0.303785 2.0892999
1.16447 -0.297773 2.0906298
1.08942 -0.440743 2.0841901
1.1299 -0.445512 2.0922401
1.1443599 -0.446623 2.0952599
1.15922 -0.44386601 2.0984499
1.1541001 -0.42588797 2.0948102
1.14599 -0.40568697 2.09076
1.13395 -0.34602699 2.0816698
1.13679 -0.33709499 2.0800698
1.1395401 -0.32574099 2.08059
1.14285 -0.31516001 2.0816901
1.1515 -0.31190902 2.0834
1.0923101 -0.45026198 2.0805402
1.0945201 -0.44587502 2.0798998
1.09022 -0.434441 2.0805099
1.1120501 -0.44032902 2.08427
1.1529599 -0.43649799 2.0928299
1.14816 -0.41808602 2.0894799
1.14081 -0.39862597 2.0853
1.13195 -0.37913898 2.08005
1.1331401 -0.35594699 2.0777302
1.13563 -0.34675899 2.07602
1.1405001 -0.33805302 2.07566
1.14676 -0.33332598 2.0761499
1.1445401 -0.31915 2.07831
1.09673 -0.45446399 2.0759602
1.09921 -0.44911301 2.0758002
1.09891 -0.44044301 2.0769901
1.1108999 -0.44286099 2.0767801
1.13225 -0.356783 2.0708499
1.13789 -0.346241 2.0706501
1.1415499 -0.338741 2.0711801
1.11028 -0.46629298 2.0724599
1.1101999 -0.45915902 2.0729501
1.10554 -0.44609797 2.0724099
1.11751 -0.44896498 2.0717502
1.12775 -0.37099302 2.0627899
1.12324 -0.36066201 2.0630901
1.1327 -0.35799 2.0645199
1.13636 -0.35029203 2.0641699
1.14043 -0.34220999 2.0661802
1.11087 -0.46671298 2.06844
1.11545 -0.463763 2.06897
1.11134 -0.451267 2.0680401
1.12217 -0.45290101 2.0678501
1.11532 -0.36212799 2.0564501
1.12038 -0.35942501 2.0574501
1.12749 -0.35408401 2.0578501
1.1333699 -0.348241 2.0582399
1.14124 -0.34632 2.0591102
1.12371 -0.47035 2.0674801
1.11545 -0.45498699 2.06498
1.12954 -0.458839 2.06615
1.11712 -0.36446801 2.0506101
1.119 -0.35801998 2.0516901
1.12875 -0.353742 2.0517302
1.13465 -0.34854802 2.05369
1.14404 -0.34721601 2.05232
1.12107 -0.36729699 2.04547
1.1167099 -0.35874099 2.0458
1.12818 -0.35629201 2.0460999
1.13656 -0.34984601 2.0480301
1.14504 -0.348097 2.04684
1.13056 -0.37326598 2.04234
1.12596 -0.36336699 2.04144
1.1271399 -0.35488799 2.0402899
1.13684 -0.351367 2.0413799
1.14851 -0.35081902 2.0408802
1.12783 -0.36414397 2.0366502
1.13604 -0.36053798 2.0358999
1.14425 -0.354532 2.0357101
1.1483001 -0.35076001 2.03547
1.1372499 -0.368357 2.0316
1.14117 -0.36453202 2.0299201
1.14274 -0.357007 2.0299101
1.1510199 -0.35429698 2.0302
1.14046 -0.36979303 2.0247602
1.14283 -0.36379901 2.0252399
1.1467299 -0.35808301 2.0244501
1.15473 -0.35662702 2.0237398
1.14704 -0.367553 2.01931
1.14757 -0.36927399 2.0137
1.12235 -0.301126 2.1940398
1.1209999 -0.314307 2.1887798
1.12386 -0.303657 2.18929
1.1147799 -0.32818499 2.1840701
1.11878 -0.32432598 2.1844101
1.1215 -0.315404 2.1821399
1.1257701 -0.30665401 2.1826801
1.11727 -0.32872501 2.17941
1.12044 -0.32217997 2.1770999
1.12237 -0.31218398 2.1770401
1.11778 -0.32772401 2.1724701
1.12062 -0.32244802 2.1701701
1.1263 -0.31503499 2.1717002
1.12135 -0.32490897 2.1647298
1.1233001 -0.32487401 2.1588101
1.12546 -0.31766301 2.1587501
1.13089 -0.31391501 2.1597102
1.1275001 -0.320485 2.1541901
1.13175 -0.31693801 2.15204
1.12946 -0.32374999 2.1475799
1.13176 -0.317175 2.1449599
1.12947 -0.32158601 2.1408601
1.13608 -0.320005 2.1396601
1.12783 -0.33200699 2.1343899
1.13064 -0.323531 2.1341698
1.1371499 -0.32114601 2.13448
1.1247001 -0.33551601 2.1285901
1.1292 -0.33022597 2.1287799
1.1290799 -0.32162997 2.1278799
1.12633 -0.33882001 2.12186
1.1283001 -0.33191699 2.12255
1.13292 -0.32496497 2.1234701
1.1277699 -0.34111801 2.1172101
1.1293 -0.33571801 2.1167901
1.13673 -0.32880101 2.1170099
1.1792099 -0.307542 2.1161001
1.12755 -0.340213 2.1121802
1.1315399 -0.33481997 2.1107399
1.13948 -0.32714099 2.10941
1.17066 -0.31230101 2.11199
1.1733 -0.29896799 2.1104901
1.1791 -0.46510601 2.1217301
1.1806301 -0.45752603 2.12094
1.17976 -0.442994 2.1188002
1.17945 -0.427825 2.1166699
1.17442 -0.41295502 2.1141601
1.12796 -0.33885801 2.1055002
1.13108 -0.332845 2.10302
1.13903 -0.326996 2.1030002
1.14942 -0.32423002 2.1055999
1.15827 -0.31671801 2.10604
1.1659 -0.30605102 2.1043999
1.17338 -0.29683501 2.10502
1.1725 -0.48471999 2.11708
1.1776 -0.48098302 2.1185801
1.17294 -0.463406 2.1171601
1.1745 -0.45053798 2.1156101
1.17418 -0.43382198 2.1128399
1.1717401 -0.41709501 2.1109302
1.16977 -0.40760699 2.10954
1.12866 -0.33991599 2.0978
1.12795 -0.332149 2.09691
1.1349 -0.32754001 2.09711
1.1451499 -0.319924 2.09779
1.15562 -0.31135401 2.0981703
1.16038 -0.30388701 2.0978298
1.1667401 -0.29898 2.0986199
1.17457 -0.29241601 2.1007502
1.1669999 -0.47959 2.11239
1.17018 -0.47415501 2.1135101
1.16861 -0.459178 2.1112702
1.16798 -0.443737 2.1084602
1.1681501 -0.43150502 2.1059201
1.1698999 -0.41965902 2.1054299
1.13235 -0.34904 2.0910501
1.13192 -0.33531103 2.0917699
1.13867 -0.325905 2.0915301
1.1394401 -0.315557 2.0906401
1.14805 -0.31169 2.09128
1.1593499 -0.30622199 2.0927498
1.16558 -0.29995799 2.09396
1.15826 -0.47144902 2.10727
1.1676899 -0.46974099 2.1079502
1.16435 -0.45278302 2.10461
1.16251 -0.43823898 2.10111
1.1571701 -0.41935199 2.09782
1.13324 -0.35348901 2.0865798
1.13587 -0.34379798 2.0861599
1.13937 -0.33083099 2.08531
1.14204 -0.318391 2.08622
1.1550599 -0.31637201 2.08688
1.16046 -0.309176 2.0878799
1.15843 -0.445467 2.0979102
1.14984 -0.423731 2.092
1.14556 -0.40567002 2.0897901
1.13859 -0.341185 2.0803101
1.14264 -0.33265901 2.0802801
1.1478 -0.325326 2.08096
1.15756 -0.32102099 2.08216
1.1520801 -0.435505 2.0908201
1.14917 -0.422896 2.08779
1.14047 -0.40075299 2.08371
1.14055 -0.347011 2.0741901
1.14562 -0.33607101 2.0759602
1.13237 -0.3522 2.0675499
1.137 -0.34366199 2.0676999
1.14572 -0.339569 2.06915
1.11463 -0.356727 2.0569
1.11833 -0.35087398 2.05883
1.12885 -0.350988 2.0601699
1.1386399 -0.34577 2.0623901
1.14753 -0.34260201 2.0625401
1.11499 -0.35832199 2.0530601
1.1181099 -0.35285401 2.0534101
1.13393 -0.35217601 2.0556901
1.13869 -0.344145 2.05617
1.11698 -0.35995999 2.0483501
1.11859 -0.354844 2.0483701
1.13068 -0.35506803 2.04953
1.14056 -0.349181 2.0499601
1.1231301 -0.36435398 2.0424099
1.12532 -0.35968798 2.0443499
1.13529 -0.35585701 2.0438399
1.1459301 -0.35211799 2.04374
1.1339 -0.37251598 2.0383
1.13283 -0.363574 2.0383101
1.1426899 -0.35811999 2.0383999
1.13559 -0.36561799 2.0316901
1.14302 -0.361862 2.0325401
1.1507701 -0.35630798 2.0334799
1.14108 -0.36191601 2.02653
1.15959 -0.314547 2.1156299
1.15859 -0.41144902 2.1160603
1.1622599 -0.42345101 2.1155999
1.16268 -0.437098 2.1150901
1.16188 -0.422766 2.1110902
1.16515 -0.43863499 2.1103799
1.1582299 -0.45881501 2.11233
1.16011 -0.47531101 2.1121099
1.15947 -0.49317101 2.1120598
1.15832 -0.51349902 2.1130002
1.15843 -0.53243101 2.1136401
1.15859 -0.40820202 2.1051502
1.15705 -0.42459098 2.1045699
1.1621499 -0.43613201 2.1063101
1.16029 -0.45449403 2.1069801
1.15713 -0.47726101 2.109
1.15984 -0.49330002 2.1085901
1.1631501 -0.50476503 2.10867
1.1624 -0.52321702 2.1089098
1.1517501 -0.41458401 2.09952
1.1509401 -0.42627499 2.0994401
1.15898 -0.436755 2.1008899
1.1553199 -0.45727003 2.1038198
1.16263 -0.46786597 2.1036801
1.1641201 -0.485098 2.1044102
1.16067 -0.506899 2.10585
1.16099 -0.52441901 2.10553
1.14482 -0.41122001 2.0965302
1.1437 -0.42076197 2.09637
1.1456701 -0.42892501 2.0969698
1.13708 -0.42433301 2.0946398
1.14826 -0.35629398 2.0337801
1.14582 -0.358789 2.0284202
1.12858 -0.319453 2.1495299
1.16162 -0.41001099 2.1147001
1.1581 -0.42712897 2.11588
1.15987 -0.43884602 2.1151102
1.16316 -0.41828999 2.1106501
1.16377 -0.43322602 2.1104598
1.1632299 -0.45143902 2.10976
1.15762 -0.47455201 2.1115899
1.15441 -0.49244899 2.1128201
1.1553299 -0.50742102 2.1130302
1.15563 -0.52310103 2.11397
1.15834 -0.53462601 2.11411
1.1608 -0.40760899 2.1047602
1.15677 -0.424624 2.1057801
1.15719 -0.44052699 2.1052499
1.1627899 -0.45342702 2.10513
1.1624299 -0.46835098 2.1069801
1.16063 -0.48359799 2.1083999
1.15863 -0.499044 2.1091502
1.1588501 -0.51551896 2.1096702
1.15776 -0.53405303 2.1109099
1.15013 -0.41479501 2.10028
1.14994 -0.42873201 2.0998502
1.1502301 -0.44004002 2.09973
1.1581199 -0.449108 2.1007102
1.16469 -0.463283 2.1023901
1.15781 -0.485686 2.1058402
1.15848 -0.50431001 2.1062303
1.15613 -0.523238 2.10748
1.1464499 -0.40516299 2.0956202
1.14042 -0.42036998 2.09497
1.13701 -0.43416801 2.0957599
1.1386 -0.44435599 2.0973001
1.13679 -0.41381302 2.0892501
1.13029 -0.42588502 2.08936
1.12884 -0.43644002 2.0913
1.12331 -0.42155799 2.0824099
1.12405 -0.42801899 2.0827401
1.13318 -0.41314203 2.0712399
1.1180301 -0.429068 2.076
1.10914 -0.43989 2.07846
1.12664 -0.422851 2.06724
1.1199 -0.43312302 2.07008
1.1338301 -0.41890299 2.0611501
1.12195 -0.432392 2.06406
1.12249 -0.43235099 2.0601301
1.1147 -0.33251202 2.12637
1.16588 -0.40521598 2.1148002
1.16004 -0.42239103 2.1164801
1.16185 -0.435377 2.11656
1.15721 -0.44886503 2.1175799
1.12123 -0.33829898 2.12042
1.1653399 -0.41355702 2.11111
1.16335 -0.43038502 2.1117902
1.16487 -0.44320098 2.1129401
1.1645401 -0.45802101 2.1114302
1.1541101 -0.48231098 2.1135399
1.15298 -0.49807301 2.1146898
1.15213 -0.51060504 2.1154799
1.1546199 -0.52251101 2.1146898
1.16161 -0.41777 2.1055601
1.15891 -0.43306598 2.10587
1.16398 -0.44424498 2.1078501
1.16308 -0.45883998 2.1067998
1.1584899 -0.47603402 2.10904
1.15522 -0.493572 2.1108301
1.15558 -0.50778699 2.11168
1.15879 -0.518206 2.1104701
1.15918 -0.53231901 2.1107001
1.15334 -0.40894699 2.1004598
1.14969 -0.42408001 2.1010699
1.15738 -0.432551 2.1009099
1.15975 -0.44429502 2.1027
1.16441 -0.45743099 2.1029198
1.1591201 -0.472588 2.1052899
1.1583101 -0.48777902 2.10676
1.15458 -0.50738299 2.1085198
1.15707 -0.52331197 2.1080801
1.14237 -0.401979 2.0953
1.1411901 -0.41540501 2.0967002
1.14022 -0.42458698 2.0961802
1.14999 -0.431853 2.09727
1.14179 -0.39660701 2.08796
1.1332901 -0.41589803 2.0904901
1.1380401 -0.42449701 2.09164
1.12079 -0.35126099 2.07987
1.1349 -0.35290298 2.0775201
1.12769 -0.40883401 2.08413
1.1162601 -0.42299199 2.0859301
1.12122 -0.427883 2.0871701
1.13111 -0.35380101 2.0742002
1.11396 -0.42191899 2.0809901
1.10864 -0.432015 2.0811999
1.10286 -0.431337 2.07638
1.10466 -0.43619001 2.0739002
1.1016101 -0.43359199 2.0705302
1.1030899 -0.43692699 2.0694501
1.10587 -0.436645 2.06604
1.1552501 -0.40536401 2.1195502
1.1538301 -0.41882402 2.11976
1.15213 -0.43273899 2.1200399
1.14925 -0.44722599 2.1208301
1.14239 -0.46113998 2.1224201
1.15768 -0.40155801 2.1150501
1.15804 -0.413109 2.1154799
1.15791 -0.42512101 2.11514
1.15684 -0.43970799 2.1149802
1.15042 -0.456505 2.11695
1.1534801 -0.469111 2.1159399
1.156 -0.48361999 2.1148002
1.1547101 -0.49811 2.1148999
1.1512001 -0.51340902 2.1160603
1.1511 -0.52786499 2.1163001
1.1549 -0.401021 2.11008
1.1533799 -0.41557398 2.1102099
1.1553299 -0.42903802 2.1107502
1.15363 -0.43944901 2.11005
1.1531501 -0.45186099 2.1111701
1.15413 -0.466869 2.1115899
1.15646 -0.47889599 2.11184
1.15879 -0.49100497 2.1111801
1.15641 -0.50593799 2.11186
1.1559401 -0.52033597 2.1122
1.14016 -0.40045601 2.10519
1.1400599 -0.408389 2.1054502
1.14223 -0.42000499 2.10484
1.15177 -0.42886201 2.1055498
1.1489199 -0.44217899 2.10659
1.14993 -0.457919 2.1082699
1.1469001 -0.47153702 2.1096702
1.15698 -0.48016497 2.1083403
1.15852 -0.49560699 2.1083899
1.15381 -0.51195097 2.1097
1.15503 -0.52582598 2.10901
1.11911 -0.40871799 2.1029198
1.1191001 -0.41504902 2.10302
1.12938 -0.42038301 2.10116
1.13545 -0.430053 2.1014199
1.11775 -0.40885103 2.0979002
1.11373 -0.41804799 2.0978
1.12321 -0.42459702 2.0967002
1.1266999 -0.429757 2.0955701
1.1158999 -0.40914902 2.0949302
1.09497 -0.42771 2.09216
1.1120601 -0.427627 2.09113
1.09052 -0.42931199 2.0854902
1.0954499 -0.43325698 2.08599
1.0955 -0.43856299 2.0866899
1.08514 -0.43133998 2.0810502
1.0908999 -0.43480399 2.0799801
1.0946701 -0.44004101 2.0791001
1.09316 -0.430915 2.07409
1.0908899 -0.43879199 2.07323
1.09216 -0.44529599 2.0715601
1.0863099 -0.44189098 2.0694699
1.09359 -0.44578201 2.0667999
1.09284 -0.45137402 2.06656
1.08708 -0.44797599 2.0650001
1.09201 -0.45169699 2.0637
1.14298 -0.397333 2.12306
1.13667 -0.40853101 2.1247699
1.1379499 -0.41701803 2.1234901
1.148 -0.40505201 2.1188102
1.15123 -0.41433102 2.11637
1.15134 -0.42617902 2.1154599
1.1558 -0.44152999 2.1135502
1.1503199 -0.45805699 2.1153703
1.1473 -0.46979401 2.1168399
1.15073 -0.47953498 2.1161301
1.14803 -0.49475101 2.11643
1.14598 -0.50982398 2.11779
1.14849 -0.52053297 2.11744
1.1494 -0.53205502 2.1168799
1.1503199 -0.40385699 2.1125
1.14785 -0.419808 2.1113198
1.1525199 -0.43231097 2.11081
1.15627 -0.441549 2.1101801
1.15327 -0.45299399 2.1109099
1.15153 -0.46909499 2.1129501
1.1486 -0.48340401 2.1136899
1.14641 -0.49577901 2.1130402
1.15127 -0.50502497 2.11306
1.15083 -0.51826501 2.1134701
1.1533101 -0.52900398 2.11202
1.15004 -0.40904498 2.1063299
1.14254 -0.42168599 2.1060801
1.1471601 -0.43048501 2.1062303
1.15202 -0.44114 2.10695
1.15272 -0.449954 2.1065798
1.15201 -0.464468 2.1089401
1.1478801 -0.482355 2.1104901
1.14491 -0.498339 2.1095099
1.1483101 -0.50890601 2.1092801
1.15003 -0.52115399 2.10901
1.15098 -0.53231901 2.1081901
1.13157 -0.42296901 2.10393
1.13692 -0.42934799 2.1021202
1.14588 -0.437677 2.1022902
1.13503 -0.51265502 2.1085501
1.14415 -0.52259302 2.1066201
1.10782 -0.419929 2.09796
1.1261799 -0.424081 2.0978501
1.12763 -0.43037102 2.0989699
1.11242 -0.42315701 2.09448
1.08902 -0.42308 2.0825601
1.08863 -0.43179297 2.0813301
1.09243 -0.442197 2.0783801
1.084 -0.45115003 2.0801401
1.09375 -0.42450902 2.0745599
1.08508 -0.43203998 2.0770998
1.09264 -0.44011298 2.0741501
1.0985501 -0.44622698 2.07354
1.0969501 -0.42511201 2.06971
1.0908101 -0.43405202 2.0701599
1.09199 -0.441661 2.06885
1.0920501 -0.44775501 2.0688801
1.08345 -0.43860501 2.0670502
1.09246 -0.44274101 2.0647299
1.0957299 -0.44775599 2.0633302
1.09181 -0.44916099 2.06108
1.20551 -0.51310503 2.1219101
1.2044101 -0.50788301 2.1221201
1.13143 -0.37398398 2.13254
1.10496 -0.38310799 2.1250601
1.19001 -0.53312302 2.11427
1.19674 -0.51564497 2.1168499
1.19927 -0.50246501 2.1179399
1.19719 -0.49127701 2.11744
1.13158 -0.38222501 2.1251199
1.1065201 -0.38889098 2.1185102
1.19575 -0.52768904 2.1125202
1.19239 -0.51887798 2.1115601
1.19361 -0.50735903 2.1128399
1.1923699 -0.49552798 2.1128702
1.1966001 -0.47983003 2.1147101
1.19652 -0.46454898 2.1154001
1.1993099 -0.449725 2.1178401
1.19885 -0.44024503 2.119
1.19551 -0.432336 2.11833
1.12012 -0.38985199 2.1157103
1.10719 -0.390001 2.1122799
1.1953501 -0.52621901 2.1089802
1.19449 -0.512218 2.1091201
1.19233 -0.50333697 2.1090701
1.19292 -0.49421397 2.1091502
1.1905301 -0.48552299 2.1096802
1.1914901 -0.47176301 2.1108999
1.19304 -0.45606801 2.1121202
1.19493 -0.44254798 2.1150401
1.1879001 -0.43503201 2.1127801
1.18436 -0.425587 2.1127899
1.18682 -0.41409302 2.11465
1.12905 -0.39074799 2.1123502
1.1135 -0.39453 2.1073103
1.19485 -0.49987301 2.1069
1.19196 -0.49102297 2.1066501
1.19057 -0.47969398 2.1071999
1.1935 -0.463626 2.1075299
1.1935099 -0.45228001 2.10711
1.1898 -0.44389099 2.1086099
1.18097 -0.43853599 2.1070299
1.17665 -0.430677 2.1066101
1.17609 -0.42054299 2.1082599
1.18695 -0.40788502 2.11288
1.11305 -0.40500098 2.1001501
1.11374 -0.39732102 2.10077
1.11479 -0.38589501 2.1033401
1.12916 -0.36980399 2.10478
1.19683 -0.44908601 2.1035199
1.1896 -0.444224 2.1024399
1.1806301 -0.43732798 2.10203
1.1643 -0.43581501 2.09851
1.16251 -0.42900398 2.1001501
1.15494 -0.42524299 2.09776
1.14285 -0.426231 2.0938401
1.1053801 -0.42273799 2.0889699
1.11446 -0.40557599 2.0950799
1.1208 -0.39185798 2.09759
1.12623 -0.378167 2.0996301
1.20951 -0.43937901 2.1029198
1.19815 -0.43804199 2.10008
1.18309 -0.43678901 2.0967503
1.16316 -0.43780601 2.0931602
1.15297 -0.43339002 2.0929198
1.13377 -0.43529999 2.0877199
1.10939 -0.43619099 2.08249
1.1043 -0.42887002 2.08272
1.1142401 -0.40904 2.0885601
1.12936 -0.38598201 2.0936499
1.1820999 -0.435267 2.0922899
1.1672599 -0.43619499 2.08935
1.14729 -0.43708599 2.08551
1.1174901 -0.443409 2.0785699
1.10734 -0.437985 2.0773001
1.1092 -0.42454499 2.07951
1.12348 -0.40193999 2.0847299
1.1510199 -0.44249699 2.0810299
1.12582 -0.44837201 2.0743101
1.1123101 -0.446206 2.0717502
1.1072201 -0.437998 2.0720599
1.1192601 -0.41682899 2.0763001
1.13353 -0.39351201 2.08109
1.1301399 -0.45159698 2.06991
1.11725 -0.45248199 2.0665302
1.1099299 -0.44792703 2.06583
1.11177 -0.43710202 2.06811
1.14123 -0.39824402 2.0746701
1.1228 -0.45463601 2.0624599
1.11792 -0.45119998 2.0621099
1.12436 -0.439421 2.06376
1.12989 -0.450129 2.06043
1.12458 -0.44696701 2.0596499
1.14701 -0.41956002 2.06251
1.1313701 -0.39195001 2.0640099
1.14889 -0.41426301 2.03407
1.11924 -0.34696901 2.16466
1.11447 -0.36125702 2.1496801
1.11734 -0.36631 2.1436002
1.11542 -0.37545601 2.1360102
1.08834 -0.38138199 2.1286402
1.12998 -0.37564901 2.1336899
1.10172 -0.38294601 2.1263299
1.07848 -0.38615 2.1210401
1.13148 -0.380658 2.1285901
1.11777 -0.38214803 2.1242902
1.0926499 -0.38731202 2.1181901
1.19585 -0.53088599 2.1140101
1.19928 -0.51600802 2.1154101
1.20321 -0.503124 2.1175399
1.20568 -0.49191397 2.11887
1.2034301 -0.48364103 2.1185601
1.1149299 -0.39141399 2.1167502
1.1077 -0.38735101 2.1157901
1.09721 -0.38610899 2.1143
1.19445 -0.53311402 2.1104701
1.19679 -0.52004999 2.1112399
1.19793 -0.50809199 2.1129501
1.1975399 -0.498514 2.1141698
1.19858 -0.48704299 2.11431
1.20079 -0.473984 2.11555
1.20179 -0.46049401 2.1161201
1.20583 -0.44843701 2.1177599
1.2052 -0.42964599 2.11935
1.10999 -0.38078603 2.1117501
1.12731 -0.364427 2.11358
1.19611 -0.526869 2.1075299
1.19753 -0.51709497 2.1077201
1.1963 -0.51027197 2.10868
1.1984401 -0.49736699 2.1099398
1.19821 -0.48490298 2.1098199
1.1975399 -0.47589001 2.1110198
1.19749 -0.46479499 2.1118898
1.19751 -0.45348001 2.1127403
1.1942 -0.44337398 2.1127701
1.19635 -0.43316001 2.1138299
1.20566 -0.42411202 2.1179001
1.11349 -0.38758498 2.1054502
1.1281199 -0.36899298 2.1100101
1.20762 -0.51284999 2.1078799
1.19592 -0.508807 2.1056602
1.1977 -0.49735099 2.1063299
1.19626 -0.486839 2.1061201
1.19763 -0.4756 2.1069801
1.1956099 -0.46744901 2.1075399
1.1961499 -0.45534402 2.1077402
1.19541 -0.44543499 2.1092801
1.18863 -0.43862098 2.1077402
1.17732 -0.43446499 2.1038299
1.0914299 -0.426552 2.0910699
1.1125 -0.39807901 2.0981798
1.1304901 -0.37575001 2.10413
1.18987 -0.479166 2.1025202
1.19725 -0.46478698 2.1045902
1.19648 -0.45118099 2.10357
1.19146 -0.443874 2.1033301
1.1815 -0.43847197 2.10133
1.16547 -0.43758401 2.09622
1.15567 -0.43484297 2.0944102
1.11844 -0.42848301 2.0871301
1.10016 -0.42603502 2.0867002
1.10794 -0.41149899 2.0903399
1.1265399 -0.38908902 2.0957599
1.1948 -0.44015399 2.0998502
1.1769999 -0.43968299 2.0956202
1.1621 -0.43883201 2.0915301
1.15192 -0.43615001 2.08957
1.12965 -0.43548098 2.0851002
1.10844 -0.43319401 2.0814099
1.10777 -0.42173001 2.0843799
1.11703 -0.406629 2.08689
1.1314399 -0.388152 2.0903702
1.13236 -0.378149 2.0942903
1.1230201 -0.38085997 2.0899899
1.18139 -0.438173 2.09337
1.1574501 -0.440786 2.0861001
1.13151 -0.44363701 2.07988
1.10989 -0.44366798 2.0757799
1.1037201 -0.43792099 2.0749099
1.10852 -0.42524502 2.0784302
1.13199 -0.397093 2.0846601
1.13432 -0.38815299 2.0855002
1.13931 -0.45324299 2.0754402
1.1305001 -0.45205799 2.0736001
1.11414 -0.45076999 2.0701001
1.10536 -0.44472301 2.0703702
1.1085601 -0.43402499 2.07166
1.12397 -0.41399899 2.07639
1.13596 -0.39593601 2.08008
1.12688 -0.45929298 2.0678501
1.1180301 -0.458327 2.06512
1.1106 -0.45446 2.0634699
1.10883 -0.44467601 2.0657101
1.11601 -0.42866799 2.06827
1.13328 -0.40730098 2.0731101
1.1320601 -0.38440701 2.0759499
1.1227 -0.46123901 2.0613501
1.11876 -0.45714599 2.05971
1.1093299 -0.453145 2.0599799
1.11611 -0.43938801 2.0629799
1.13265 -0.41610402 2.0675299
1.14238 -0.400603 2.0699301
1.12438 -0.460428 2.0560801
1.12296 -0.456402 2.0558801
1.11385 -0.453583 2.05651
1.1375099 -0.45476002 2.0557201
1.13133 -0.45367801 2.0548301
1.13026 -0.44903901 2.0557401
1.12869 -0.37191898 2.04198
1.12243 -0.38081402 2.03742
1.1279 -0.37320301 2.0392199
1.12339 -0.38880903 2.0325701
1.12765 -0.37950802 2.0351601
1.13394 -0.371158 2.0371799
1.12006 -0.401824 2.0264401
1.13157 -0.38663301 2.02987
1.13139 -0.379574 2.0316601
1.12252 -0.407482 2.0223501
1.1393 -0.39163503 2.02513
1.10414 -0.335163 2.18714
1.1124099 -0.33676898 2.1860602
1.10748 -0.35064399 2.1631601
1.1060901 -0.35686299 2.15766
1.09117 -0.357739 2.15254
1.09061 -0.362468 2.1473999
1.07856 -0.362492 2.14358
1.10461 -0.365704 2.14552
1.08907 -0.36373901 2.14132
1.07366 -0.365004 2.1384799
1.11331 -0.37005401 2.1421099
1.10075 -0.36764598 2.1387899
1.0933 -0.363931 2.1368999
1.09191 -0.35826501 2.1387
1.11287 -0.376165 2.1368201
1.10338 -0.37499699 2.1335502
1.10374 -0.36636502 2.1342599
1.10657 -0.357481 2.13573
1.12009 -0.34612301 2.1384301
1.10028 -0.38375401 2.1264801
1.1026 -0.375945 2.12764
1.10944 -0.36349097 2.1305599
1.12367 -0.34957099 2.1348901
1.1132901 -0.35056901 2.13135
1.0981801 -0.386646 2.1201599
1.1087 -0.37342203 2.1238699
1.11935 -0.35916901 2.12799
1.2066101 -0.52342397 2.1213102
1.21111 -0.51381099 2.1227
1.09987 -0.38722 2.11518
1.11852 -0.36903501 2.1211002
1.12569 -0.35779202 2.1239002
1.1159201 -0.35936901 2.1200202
1.1999 -0.527964 2.11659
1.20144 -0.51734 2.1176102
1.2035199 -0.50664103 2.1184399
1.20409 -0.49636102 2.11867
1.2009799 -0.48805699 2.1177599
1.20682 -0.476996 2.1191299
1.11165 -0.382269 2.1129901
1.12793 -0.365109 2.1182401
1.19322 -0.53247601 2.11112
1.1971099 -0.52036202 2.1125698
1.19812 -0.50892401 2.1137702
1.19943 -0.496977 2.1147299
1.19857 -0.48858503 2.1147399
1.19681 -0.48145801 2.1143799
1.1969301 -0.47050598 2.11415
1.2021 -0.459263 2.1157103
1.19686 -0.455102 2.1145201
1.1929001 -0.422948 2.1143701
1.12866 -0.36704701 2.1127501
1.19698 -0.52787298 2.1093798
1.19726 -0.51932299 2.1097901
1.1977301 -0.51093203 2.1104701
1.19619 -0.49915698 2.1106
1.19761 -0.48762 2.1113901
1.19933 -0.47715801 2.11182
1.19823 -0.46843201 2.11095
1.19819 -0.45964402 2.11201
1.19725 -0.45444301 2.11203
1.17801 -0.42906103 2.1080101
1.1842099 -0.42116201 2.11028
1.1888601 -0.41192299 2.1117699
1.1864901 -0.40767503 2.11165
1.09509 -0.42516899 2.0932
1.13011 -0.37743598 2.1062601
1.12448 -0.37259901 2.1059899
1.20503 -0.48577401 2.11028
1.19848 -0.47782901 2.1087799
1.1967701 -0.46902901 2.10794
1.19488 -0.46129599 2.1080999
1.1951001 -0.45523202 2.10901
1.17179 -0.431995 2.1026001
1.17395 -0.42679402 2.1047299
1.1723599 -0.420726 2.1045802
1.17646 -0.41268501 2.1063101
1.09026 -0.42920101 2.0864999
1.12801 -0.37770599 2.10145
1.20499 -0.45201802 2.1087
1.16443 -0.43486199 2.0967503
1.16502 -0.42976201 2.0978
1.15303 -0.426355 2.0950899
1.1188201 -0.42886299 2.0867002
1.09823 -0.42941502 2.0826101
1.09243 -0.423996 2.0833099
1.1617 -0.435179 2.09249
1.1497 -0.434288 2.0890398
1.12605 -0.435516 2.0833001
1.10651 -0.43420801 2.0792999
1.10339 -0.42656699 2.07936
1.10981 -0.41604802 2.0806501
1.13526 -0.38687098 2.09097
1.17488 -0.31300801 2.1013801
1.1850901 -0.30186599 2.1047201
1.1514 -0.43826801 2.08605
1.12629 -0.44304299 2.0780702
1.1155699 -0.439527 2.0757198
1.10709 -0.43359002 2.0745301
1.11181 -0.42248601 2.0761099
1.11974 -0.41125402 2.0783801
1.12842 -0.39883998 2.0835102
1.18317 -0.30809799 2.1001
1.18803 -0.29795301 2.1024499
1.12084 -0.45002899 2.0710199
1.11607 -0.447137 2.0701699
1.11036 -0.44149601 2.06937
1.10935 -0.43249401 2.0699899
1.12029 -0.41859201 2.07339
1.11929 -0.41107398 2.0743499
1.10563 -0.41306701 2.0705802
1.1686699 -0.317727 2.09095
1.17849 -0.305365 2.0950699
1.1842999 -0.29292801 2.0974801
1.1182801 -0.45129001 2.06616
1.1147799 -0.44772801 2.06494
1.11268 -0.440431 2.0650301
1.11861 -0.42854598 2.06775
1.12459 -0.41658601 2.0710402
1.1125901 -0.41452301 2.0695503
1.1579599 -0.32869399 2.0820999
1.1651599 -0.31508499 2.0869501
1.17285 -0.302297 2.0894201
1.11648 -0.45191699 2.0613999
1.11712 -0.44654098 2.0613201
1.12104 -0.43692198 2.06352
1.12209 -0.42706099 2.06587
1.16001 -0.327232 2.07828
1.16449 -0.314989 2.0822899
1.1739299 -0.30006501 2.0854902
1.12211 -0.44935399 2.05952
1.1200299 -0.445158 2.0594602
1.17191 -0.32166499 2.0779502
1.1717401 -0.31134599 2.08009
1.16747 -0.30602899 2.0801599
1.13643 -0.383111 2.0513201
1.13579 -0.36539799 2.0542901
1.1337 -0.37138599 2.0478699
1.12949 -0.36836103 2.0475399
1.13377 -0.373808 2.04249
1.13036 -0.36908099 2.04249
1.13366 -0.37275398 2.0383599
1.13223 -0.36949798 2.03809
1.13729 -0.373703 2.0345199
1.21442 -0.52466702 2.1241601
1.19973 -0.52898401 2.11764
1.2040499 -0.51787102 2.11888
1.20569 -0.507451 2.1191399
1.2011399 -0.49848998 2.11796
1.2047499 -0.489066 2.11936
1.19909 -0.482467 2.1178501
1.22322 -0.457959 2.1252801
1.22027 -0.45456201 2.1247799
1.20816 -0.42887101 2.12253
1.19612 -0.52923304 2.1131501
1.19569 -0.52063298 2.11357
1.19726 -0.50875497 2.1138501
1.19635 -0.498965 2.1137202
1.1966799 -0.48986399 2.1147201
1.19792 -0.48134801 2.1150901
1.19739 -0.47307098 2.1145902
1.2063301 -0.45915002 2.1184702
1.20389 -0.452575 2.1182401
1.19249 -0.445041 2.1146302
1.19419 -0.43417302 2.11607
1.2043 -0.42625701 2.1193702
1.19405 -0.52613097 2.1102402
1.19578 -0.51542401 2.11025
1.19639 -0.50728399 2.1098402
1.1956199 -0.50123 2.1103601
1.19622 -0.49241799 2.1108401
1.1944799 -0.48160198 2.1108301
1.1932701 -0.472844 2.1106
1.19603 -0.46293801 2.1115201
1.1979001 -0.45276698 2.11342
1.19188 -0.44549802 2.1108899
1.18778 -0.43800899 2.1106501
1.18164 -0.43192798 2.1098299
1.16616 -0.43015802 2.1046302
1.2085299 -0.50520003 2.1104701
1.1986699 -0.499295 2.1084201
1.1964 -0.48918399 2.1080899
1.19529 -0.480681 2.10816
1.1953501 -0.47158298 2.1084399
1.1969399 -0.45995098 2.1082101
1.19181 -0.45230499 2.1073
1.18453 -0.44395301 2.1053801
1.17691 -0.437352 2.1042001
1.16804 -0.433182 2.10251
1.15432 -0.433375 2.0987399
1.20478 -0.44936502 2.10727
1.18915 -0.44407201 2.1032598
1.1793599 -0.43872502 2.1009703
1.16782 -0.43513098 2.0986898
1.1889499 -0.323897 2.1080999
1.1783 -0.438362 2.09799
1.1602401 -0.43787301 2.09392
1.13262 -0.37736303 2.0826402
1.1333799 -0.36728999 2.0461099
1.13659 -0.36182702 2.0487399
1.13649 -0.37250802 2.04233
1.13328 -0.367181 2.0422001
1.13557 -0.36254397 2.0431399
1.13822 -0.36733502 2.03882
1.14131 -0.361599 2.0395598
1.1120501 -0.31890899 2.1900001
1.11034 -0.31692401 2.1895502
1.11914 -0.33183998 2.1701801
1.1161799 -0.33982399 2.1587701
1.11461 -0.35344899 2.1342502
1.10962 -0.358136 2.1304502
1.1924601 -0.52998298 2.11426
1.19547 -0.51978296 2.1154599
1.19752 -0.51046503 2.11619
1.1982599 -0.50142103 2.1168499
1.19999 -0.49354401 2.1177402
1.19663 -0.48507199 2.1165202
1.20015 -0.47474203 2.1177099
1.20187 -0.46759799 2.1180999
1.1856099 -0.44213501 2.1136301
1.19096 -0.529356 2.1108499
1.19092 -0.521622 2.1115999
1.19077 -0.51379299 2.1123502
1.19151 -0.504453 2.11199
1.19426 -0.49432999 2.1137202
1.19217 -0.48583999 2.11199
1.1938701 -0.47663102 2.11327
1.19493 -0.46893799 2.11431
1.19045 -0.46127498 2.1125202
1.1862301 -0.449945 2.11112
1.18358 -0.44187501 2.1107101
1.18109 -0.436515 2.1104701
1.1751699 -0.43206 2.1083403
1.18994 -0.531223 2.1073902
1.1891301 -0.52220601 2.1075699
1.19156 -0.51332903 2.10901
1.1894799 -0.50445998 2.10725
1.19137 -0.49435902 2.1089001
1.18955 -0.48614103 2.10813
1.19101 -0.47806799 2.1085901
1.19153 -0.46745399 2.1096399
1.18748 -0.45671999 2.10814
1.1835901 -0.44791001 2.1073802
1.17851 -0.442085 2.1066
1.1726999 -0.43691298 2.10531
1.15871 -0.43337101 2.1005599
1.2061499 -0.313651 2.11536
1.19969 -0.53267699 2.10711
1.19846 -0.52377498 2.1069601
1.1935199 -0.51328701 2.10604
1.19488 -0.50436902 2.1059399
1.19064 -0.49657699 2.1054902
1.1905301 -0.48640901 2.10602
1.19261 -0.477707 2.1063502
1.19095 -0.469621 2.1061201
1.18986 -0.45852101 2.10519
1.18453 -0.44999501 2.1033802
1.17846 -0.44254199 2.1030002
1.1574 -0.437736 2.09712
1.13272 -0.43570399 2.09039
1.18791 -0.320723 2.10883
1.1989 -0.309719 2.1112399
1.18499 -0.44980401 2.0999
1.1806999 -0.44408101 2.09887
1.1277601 -0.43832198 2.0868101
1.10917 -0.43782797 2.0822299
1.18372 -0.323098 2.1039901
1.1884201 -0.31228399 2.10516
1.18672 -0.30152398 2.1036801
1.1870301 -0.44735599 2.0971899
1.17407 -0.44513801 2.0941501
1.11222 -0.43974602 2.08097
1.13482 -0.39742199 2.0820901
1.17873 -0.32226899 2.0980201
1.17794 -0.31234601 2.0967999
1.17808 -0.30289802 2.0971601
1.1598001 -0.326682 2.08725
1.16344 -0.31559098 2.0881798
1.17055 -0.306815 2.09147
1.18038 -0.29602599 2.09426
1.13816 -0.40320301 2.076
1.15504 -0.32933998 2.08108
1.1600701 -0.318306 2.0826998
1.16883 -0.306182 2.08655
1.1567 -0.32644001 2.0786099
1.16029 -0.31613898 2.0796399
1.1639199 -0.30920699 2.08125
1.18032 -0.29714799 2.0864902
1.17835 -0.304757 2.08217
1.13731 -0.36220601 2.0494399
1.1389 -0.35608199 2.0518601
1.1375099 -0.36873299 2.0446899
1.1342 -0.36259103 2.0436599
1.1369001 -0.35687801 2.04509
1.13592 -0.36826098 2.03968
1.1384101 -0.36060199 2.0404198
1.14254 -0.35501301 2.0411901
1.13846 -0.36667001 2.0362201
1.1462101 -0.359258 2.0381501
1.19949 -0.35345402 2.1716299
1.1961499 -0.35782102 2.1729102
1.1993901 -0.36098701 2.1657901
1.20236 -0.356967 2.1582
1.20541 -0.363287 2.1583898
1.1939499 -0.36855999 2.1600399
1.20244 -0.35736698 2.15254
1.20198 -0.365253 2.15271
1.19616 -0.37059799 2.1538
1.20504 -0.35994598 2.1447601
1.2032399 -0.36555499 2.14465
1.19714 -0.370895 2.1481299
1.20573 -0.362113 2.1382599
1.20516 -0.36733899 2.1362798
1.20526 -0.371445 2.1389098
1.21082 -0.36359501 2.1291399
1.21141 -0.36838201 2.1283801
1.2063099 -0.37217498 2.13151
1.20759 -0.36202702 2.1224201
1.2115799 -0.36755502 2.12341
1.20995 -0.372105 2.1232002
1.178 -0.29806501 2.1181099
1.20917 -0.36692002 2.1175201
1.21162 -0.37341499 2.1145401
1.1700901 -0.41917402 2.12322
1.17145 -0.42568401 2.1221499
1.1756901 -0.436645 2.1198001
1.17629 -0.44984001 2.1196802
1.17581 -0.46028599 2.12009
1.17984 -0.47098401 2.1189098
1.18057 -0.48223701 2.1186199
1.1800599 -0.49416402 2.1183002
1.17794 -0.50756001 2.1192901
1.17818 -0.518071 2.11921
1.17801 -0.52911097 2.1185102
1.18046 -0.30684701 2.11466
1.17834 -0.31775299 2.1148901
1.20837 -0.36720401 2.1093798
1.21461 -0.37638199 2.1065302
1.16754 -0.420416 2.12135
1.17583 -0.42929798 2.1181202
1.18128 -0.43749401 2.1155701
1.18138 -0.447431 2.1143398
1.18217 -0.46080199 2.11514
1.1857901 -0.471129 2.1143799
1.18405 -0.48145401 2.1143799
1.1845601 -0.49414903 2.1126902
1.18349 -0.50475401 2.1145999
1.18231 -0.516756 2.1149399
1.18364 -0.52755702 2.11341
1.18375 -0.30584499 2.1095998
1.18134 -0.318358 2.1105201
1.2093199 -0.375857 2.10221
1.20804 -0.38199902 2.10254
1.17976 -0.43993199 2.1116102
1.17785 -0.44895801 2.10902
1.1815799 -0.458857 2.1096399
1.18512 -0.47081602 2.1103399
1.18278 -0.48257402 2.10935
1.1819301 -0.4946 2.1083999
1.18398 -0.50694102 2.1097901
1.18566 -0.51923698 2.1096201
1.1860601 -0.52938998 2.1085801
1.18116 -0.29367399 2.1038401
1.1848 -0.304014 2.1042502
1.1804 -0.31414199 2.10482
1.2102101 -0.37651002 2.0956702
1.2122799 -0.38303602 2.0952599
1.17462 -0.443634 2.1064701
1.1742901 -0.44994098 2.1052201
1.17848 -0.45715499 2.10518
1.1792099 -0.46908101 2.10641
1.18194 -0.48450601 2.1055498
1.17698 -0.49435601 2.10655
1.18269 -0.504282 2.1058099
1.18304 -0.51843101 2.10654
1.18318 -0.53192902 2.1058402
1.17698 -0.296139 2.0985401
1.17811 -0.30483201 2.09993
1.1679901 -0.31521699 2.0998001
1.2117701 -0.3788 2.08991
1.21531 -0.384882 2.0873802
1.16573 -0.449283 2.1047602
1.17757 -0.45678797 2.1023102
1.1605 -0.29544201 2.0971
1.1684899 -0.305379 2.0954101
1.1551 -0.31480399 2.0949802
1.15762 -0.32549098 2.0934701
1.14247 -0.33322498 2.09445
1.2119 -0.378443 2.0827701
1.2166899 -0.38512 2.0811899
1.15346 -0.29712 2.0940201
1.15402 -0.30610701 2.0924599
1.1514801 -0.31687298 2.0901699
1.1518 -0.32428002 2.09061
1.21474 -0.38459998 2.0756202
1.14723 -0.317514 2.0873699
1.1464 -0.32736802 2.0865202
1.21773 -0.38611698 2.0676699
1.1435701 -0.32731998 2.08342
1.21525 -0.38238603 2.0629601
1.21953 -0.38787103 2.0609798
1.2167801 -0.38556001 2.0554099
1.21762 -0.389763 2.05427
1.22023 -0.391864 2.04757
1.21619 -0.39372897 2.0420198
1.22246 -0.39619598 2.0338101
1.21903 -0.40286401 2.0350399
1.22252 -0.39546299 2.0281301
1.2239 -0.404277 2.0278301
1.2197499 -0.41089499 2.0288699
1.2225499 -0.39556301 2.0218701
1.2257199 -0.40418702 2.02057
1.22484 -0.41319302 2.0216699
1.21566 -0.41794899 2.02371
1.22399 -0.398516 2.01511
1.23 -0.407253 2.01318
1.22861 -0.41437 2.0146701
1.2208899 -0.419305 2.0174799
1.19495 -0.35976601 2.1770802
1.19805 -0.36270401 2.16869
1.19269 -0.36715099 2.1726198
1.2041401 -0.36429298 2.1600299
1.2002 -0.36963999 2.16361
1.20726 -0.36522701 2.1522202
1.20516 -0.37075901 2.15505
1.20474 -0.357319 2.14814
1.20766 -0.366146 2.1465399
1.21024 -0.37206599 2.1459899
1.20505 -0.36528301 2.1410501
1.20614 -0.37201402 2.14083
1.2050099 -0.36652303 2.1333599
1.20653 -0.372509 2.1348503
1.20418 -0.37233102 2.12837
1.16951 -0.44285199 2.12344
1.17381 -0.44959399 2.12201
1.17721 -0.45931399 2.1208701
1.17818 -0.47112 2.1200399
1.1815699 -0.48575801 2.11889
1.1774 -0.49797401 2.1203299
1.17615 -0.50792003 2.12062
1.17755 -0.51942599 2.11971
1.17664 -0.29762101 2.1170301
1.18332 -0.30700099 2.1161499
1.1774299 -0.31458402 2.11782
1.17371 -0.44432598 2.1193099
1.17064 -0.44935501 2.1196301
1.17511 -0.459259 2.11782
1.1756301 -0.469942 2.1174302
1.17567 -0.48062098 2.11654
1.18018 -0.49481899 2.11585
1.17838 -0.50816602 2.11638
1.17461 -0.52003402 2.1164999
