# .PCD v0.7 - Point Cloud Data file format
VERSION 0.7
FIELDS x y z
SIZE 4 4 4
TYPE F F F
COUNT 1 1 1
WIDTH 1033
HEIGHT 1
VIEWPOINT 0 0 0 1 0 0 0
POINTS 1033
DATA ascii
1.15044 -0.20469299 2.5690601
1.1457801 -0.195884 2.55409
1.14984 -0.18626 2.5629799
1.1540899 -0.17779699 2.56514
1.1450499 -0.20817 2.5455003
1.14545 -0.20349801 2.54251
1.1447001 -0.19586901 2.5350699
1.1496 -0.18821301 2.54496
1.1562899 -0.180021 2.5548
1.1624 -0.17213699 2.5669203
1.1456701 -0.208425 2.5322399
1.14184 -0.202813 2.5193501
1.1462799 -0.195812 2.5232198
1.14995 -0.18977699 2.53143
1.1578801 -0.18319 2.54126
1.16784 -0.17543 2.55669
1.1481301 -0.198815 2.5130301
1.15695 -0.190897 2.526
1.1683899 -0.18288201 2.53969
1.15625 -0.198753 2.51016
1.16932 -0.19156799 2.5265
1.16748 -0.2008 2.51073
1.18169 -0.19378799 2.52858
1.17314 -0.20367301 2.5065398
1.14104 -0.17973301 2.5551002
1.14291 -0.19381599 2.5538399
1.1434101 -0.186654 2.5458601
1.1477799 -0.17865801 2.55073
1.1508499 -0.172213 2.5564001
1.14635 -0.204385 2.53543
1.1431099 -0.195665 2.5311401
1.14608 -0.187617 2.53229
1.15158 -0.18131299 2.5404801
1.15523 -0.17556299 2.5441298
1.14406 -0.20595101 2.52104
1.14377 -0.198052 2.5149899
1.15045 -0.190789 2.52561
1.15447 -0.18306801 2.5298102
1.16179 -0.178248 2.5397201
1.17111 -0.17568301 2.5466299
1.1460099 -0.198927 2.50407
1.1522 -0.192338 2.51315
1.1594 -0.186084 2.5241501
1.16916 -0.180407 2.5340798
1.1566401 -0.19579799 2.5055802
1.1681501 -0.188566 2.5204699
1.1708 -0.19751301 2.51158
1.19346 -0.19344901 2.5392802
1.19986 -0.201234 2.5372698
1.1426799 -0.19788499 2.56477
1.13898 -0.19087099 2.5497799
1.1431 -0.18235399 2.5502601
1.14853 -0.17381901 2.5517302
1.1536 -0.16781901 2.56234
1.14021 -0.196845 2.5428202
1.14053 -0.19065599 2.53582
1.1443801 -0.183466 2.5334601
1.15151 -0.17708001 2.5422299
1.15881 -0.172132 2.55001
1.1395401 -0.197914 2.52107
1.1427799 -0.19032499 2.52267
1.14662 -0.18458599 2.5250201
1.15372 -0.18029699 2.5318398
1.16431 -0.175633 2.5423901
1.1791101 -0.174826 2.5577302
1.1440899 -0.194298 2.5097799
1.1517501 -0.187179 2.52124
1.16588 -0.18343 2.53421
1.1478701 -0.19571699 2.5023301
1.15974 -0.19154699 2.5167999
1.18161 -0.188978 2.54072
1.15433 -0.19900601 2.5008001
1.1746 -0.19645999 2.5220501
1.20481 -0.20391199 2.5479598
1.1409401 -0.19708799 2.56458
1.14337 -0.187315 2.5613799
1.14763 -0.17648301 2.55725
1.1407 -0.20212299 2.5570199
1.13957 -0.19418101 2.5450699
1.14034 -0.18552299 2.5411201
1.14943 -0.180668 2.5473902
1.16026 -0.17467399 2.5587201
1.14045 -0.20179 2.5398102
1.13987 -0.19519199 2.5278702
1.146 -0.18784401 2.5352402
1.15154 -0.181528 2.53736
1.1597 -0.17773399 2.5440099
1.17188 -0.17528601 2.55674
1.1371701 -0.201638 2.51845
1.1376799 -0.195567 2.5085001
1.14745 -0.18998699 2.5215499
1.15534 -0.183365 2.5311899
1.16953 -0.18137199 2.54234
1.1455001 -0.19069901 2.5038602
1.16083 -0.186929 2.52456
1.15957 -0.190478 2.50984
1.20481 -0.200874 2.54726
1.13855 -0.18167 2.5616202
1.13743 -0.18810199 2.5539401
1.13895 -0.182074 2.5451901
1.14656 -0.17603999 2.5487201
1.1593699 -0.169818 2.5601902
1.1359401 -0.186856 2.5345502
1.1431199 -0.183824 2.53514
1.1495099 -0.17768101 2.5388699
1.1570899 -0.172864 2.5434601
1.17418 -0.17125 2.55777
1.13607 -0.20368099 2.5204699
1.13704 -0.19282401 2.51986
1.14003 -0.18452901 2.5164902
1.15162 -0.17976999 2.5288601
1.16856 -0.17783301 2.5432
1.13431 -0.20250499 2.50893
1.13657 -0.192469 2.50383
1.14498 -0.18543899 2.5114498
1.16087 -0.18401501 2.52598
1.1463799 -0.18893999 2.5002401
1.1756099 -0.190807 2.5325601
1.19488 -0.19889 2.54338
1.19057 -0.15529199 2.5746398
1.1881 -0.15633899 2.5619299
1.17732 -0.14974201 2.5603201
1.18321 -0.15813699 2.55125
1.17158 -0.15096301 2.5522602
1.17779 -0.16050699 2.54108
1.18494 -0.16721201 2.5394502
1.16381 -0.155154 2.5436499
1.1759601 -0.16236 2.5292099
1.1803299 -0.170441 2.52913
1.1825399 -0.176791 2.5297101
1.168 -0.16320801 2.52529
1.17787 -0.170334 2.51847
1.181 -0.179286 2.5146999
1.15653 -0.16573 2.5229599
1.16852 -0.174503 2.5139499
1.1769201 -0.18507099 2.5027499
1.17537 -0.193799 2.5111201
1.1522499 -0.17021699 2.51404
1.1706901 -0.17707101 2.4941399
1.17741 -0.19681601 2.4943399
1.1953701 -0.156332 2.5715399
1.1788 -0.14873201 2.5605402
1.18688 -0.15821901 2.5492401
1.1660199 -0.14402899 2.56142
1.17668 -0.151879 2.54757
1.1822 -0.159915 2.5431399
1.1871901 -0.16830601 2.5402899
1.16977 -0.15216699 2.5415301
1.17575 -0.16148899 2.5391202
1.1812999 -0.16950399 2.5281401
1.1853 -0.176346 2.5309303
1.161 -0.15579501 2.5421302
1.17015 -0.16258 2.5304198
1.17778 -0.17045701 2.5170801
1.18045 -0.177435 2.5167401
1.1574299 -0.15870801 2.5392902
1.17352 -0.16657801 2.5104699
1.17634 -0.17338499 2.5051901
1.18126 -0.18099301 2.4955201
1.17124 -0.16966699 2.4978499
1.17242 -0.17684601 2.4940302
1.17389 -0.19794001 2.4944401
1.18205 -0.151903 2.57072
1.17954 -0.153933 2.5561199
1.16494 -0.14836299 2.5605001
1.17184 -0.158224 2.549
1.18252 -0.165884 2.53776
1.1659501 -0.15883499 2.5418601
1.1748101 -0.167992 2.5319202
1.17992 -0.17696199 2.5272202
1.15773 -0.16167 2.5376902
1.1753399 -0.16897301 2.51369
1.17989 -0.17675899 2.51107
1.18012 -0.18379499 2.5121801
1.1733201 -0.17060401 2.5020502
1.17594 -0.177604 2.5025501
1.1793901 -0.186364 2.4969399
1.19276 -0.157327 2.5659201
1.18169 -0.14772899 2.5644901
1.17741 -0.15080599 2.5557199
1.1847301 -0.160749 2.5433099
1.17265 -0.15131301 2.5459201
1.1783999 -0.16004699 2.5371101
1.18241 -0.170324 2.5320098
1.18311 -0.188106 2.5335801
1.16637 -0.153284 2.5377402
1.17247 -0.160907 2.5322299
1.17733 -0.17111 2.5202401
1.18055 -0.181428 2.5236499
1.18562 -0.187547 2.5120902
1.15798 -0.158353 2.5334301
1.16725 -0.162733 2.5233402
1.1718299 -0.17121799 2.5123401
1.17858 -0.18187501 2.50544
1.1798201 -0.189963 2.5053701
1.16465 -0.16594101 2.5120802
1.17024 -0.17457701 2.50033
1.16091 -0.171294 2.5007
1.18454 -0.14561 2.5697601
1.1861 -0.155522 2.5507901
1.17312 -0.146034 2.55372
1.1786799 -0.15609901 2.54005
1.18284 -0.165461 2.5409601
1.1849099 -0.17484899 2.5380499
1.16748 -0.147985 2.5431702
1.17564 -0.15693 2.5283401
1.17926 -0.167276 2.5273402
1.18162 -0.176346 2.5211401
1.1621 -0.150029 2.5350399
1.16561 -0.155826 2.53035
1.17503 -0.16519301 2.5161099
1.17758 -0.17650899 2.51036
1.1766 -0.183865 2.51284
1.16258 -0.16057101 2.5181398
1.17143 -0.169452 2.5060501
1.17627 -0.178536 2.4942503
1.1796499 -0.18655199 2.49196
1.149 -0.16451401 2.51423
1.1665699 -0.17074199 2.49617
1.13253 -0.16413701 2.5185502
1.1498899 -0.17111601 2.5008302
1.14323 -0.170551 2.5540302
1.14162 -0.16463301 2.55233
1.1465499 -0.173435 2.5485198
1.1453199 -0.16761298 2.5484703
1.15504 -0.17913099 2.54829
1.1447001 -0.173041 2.5413601
1.1548899 -0.18016 2.5418398
1.1463 -0.17412399 2.5363801
1.14695 -0.16701598 2.53635
1.16425 -0.184562 2.5403101
1.1498899 -0.17538901 2.53195
1.14667 -0.16744199 2.52988
1.1544 -0.161966 2.53426
1.1660199 -0.157888 2.5409
1.1744 -0.19141199 2.54159
1.16325 -0.185266 2.5341501
1.1521701 -0.176899 2.5253899
1.15178 -0.167827 2.5269699
1.16026 -0.16175801 2.5322201
1.17109 -0.15949701 2.5378399
1.17265 -0.19150801 2.53549
1.15852 -0.18500099 2.5250001
1.14797 -0.177425 2.5166502
1.1499801 -0.169927 2.5184302
1.16157 -0.16387899 2.52634
1.1640899 -0.19040599 2.5241101
1.1528701 -0.18399499 2.5152199
1.1469799 -0.17533702 2.5099301
1.1521701 -0.16809 2.5137899
1.16371 -0.16511999 2.5207
1.15154 -0.18839599 2.5100901
1.14844 -0.18316799 2.50594
1.1453099 -0.176323 2.5018301
1.14882 -0.16996901 2.50595
1.1603501 -0.16666901 2.51319
1.14659 -0.18813999 2.50035
1.1421399 -0.182934 2.4955201
1.1446 -0.177361 2.4954901
1.14852 -0.17176099 2.4990602
1.1511799 -0.177544 2.49383
1.1588401 -0.173741 2.49788
1.1577101 -0.178464 2.49246
1.17068 -0.17540801 2.5007801
1.15018 -0.17312402 2.5640399
1.14535 -0.16454099 2.5581601
1.1456701 -0.172557 2.5537601
1.14528 -0.16446699 2.55075
1.15898 -0.190301 2.55391
1.15386 -0.18349701 2.5511999
1.14792 -0.17422099 2.5472801
1.15485 -0.18908001 2.5476902
1.14926 -0.18226101 2.5427599
1.1456 -0.17311101 2.5389199
1.14737 -0.18654101 2.5369699
1.14679 -0.18072701 2.5338199
1.14464 -0.171775 2.53193
1.14527 -0.165436 2.5295599
1.14924 -0.159722 2.53409
1.1521801 -0.18829599 2.53211
1.14033 -0.18008199 2.5238001
1.1450499 -0.173548 2.52526
1.14456 -0.16585399 2.52384
1.14855 -0.162035 2.5257101
1.14676 -0.187528 2.52262
1.14463 -0.18193899 2.5205002
1.14279 -0.173169 2.5158899
1.147 -0.16669399 2.5200202
1.15483 -0.163858 2.5225899
1.14126 -0.185637 2.5133402
1.13831 -0.17922199 2.50896
1.13753 -0.17142999 2.5055802
1.14634 -0.16635099 2.5122201
1.15768 -0.16432801 2.5199499
1.13721 -0.184349 2.50264
1.13372 -0.17673799 2.4995098
1.1353099 -0.17091499 2.4994299
1.14248 -0.16690701 2.5023801
1.14308 -0.162129 2.50297
1.13816 -0.18786 2.49582
1.14065 -0.181683 2.4969699
1.13764 -0.172148 2.4960699
1.14582 -0.16813801 2.4981501
1.1454901 -0.163395 2.4983802
1.14932 -0.19656201 2.4980302
1.1432099 -0.19024201 2.4933999
1.1447001 -0.18351001 2.4920301
1.14658 -0.17518699 2.4948301
1.15693 -0.17069799 2.4982901
1.17273 -0.16971701 2.5043201
1.1671801 -0.17360801 2.49857
1.17167 -0.169403 2.50072
1.13659 -0.16174999 2.55497
1.1376001 -0.17547001 2.5527701
1.1390001 -0.16986799 2.5525799
1.1512799 -0.18200099 2.5547101
1.13972 -0.1715 2.5460401
1.14429 -0.17877199 2.54423
1.1433899 -0.17835599 2.5366602
1.1379 -0.17184 2.5302601
1.14289 -0.16572 2.5325501
1.1512101 -0.159964 2.53474
1.16266 -0.15867099 2.5386899
1.1381199 -0.176448 2.5267801
1.14116 -0.17224899 2.5259702
1.1460099 -0.16553499 2.52685
1.1579499 -0.161947 2.5317903
1.17119 -0.161764 2.53706
1.13863 -0.176497 2.5197401
1.14091 -0.171519 2.5181799
1.1494401 -0.16598301 2.52285
1.16932 -0.16587201 2.5325201
1.18698 -0.166501 2.5413401
1.13648 -0.177157 2.5097601
1.138 -0.17185301 2.5103703
1.1455001 -0.16807599 2.5144699
1.18408 -0.16843599 2.5374498
1.14281 -0.186893 2.5086899
1.1361901 -0.180135 2.5026598
1.13984 -0.173767 2.50544
1.14486 -0.17039301 2.5073299
1.13873 -0.18732001 2.5009899
1.1357701 -0.182199 2.4966202
1.13912 -0.176359 2.4981101
1.1447001 -0.17221901 2.50073
1.1385701 -0.18918301 2.4938002
1.1396099 -0.182843 2.49262
1.14298 -0.17668 2.4948199
1.1540899 -0.17707101 2.5
1.15292 -0.17658001 2.5645199
1.14573 -0.167794 2.55632
1.1483999 -0.174391 2.5547202
1.14275 -0.165564 2.54778
1.1432 -0.17111601 2.54421
1.13889 -0.16965701 2.53388
1.14282 -0.16666099 2.5329401
1.14809 -0.161048 2.5353601
1.1594 -0.161219 2.53918
1.1401 -0.172079 2.5261002
1.14591 -0.166852 2.52898
1.15749 -0.16531201 2.53492
1.16492 -0.16514099 2.5376501
1.1438401 -0.18154699 2.52369
1.13762 -0.17382099 2.5178399
1.14335 -0.16925199 2.5223
1.15426 -0.167134 2.52845
1.13604 -0.17930001 2.5132101
1.1349701 -0.17438999 2.50962
1.13925 -0.169414 2.5141401
1.13484 -0.182252 2.5053701
1.1335399 -0.17464899 2.5030999
1.13606 -0.17056601 2.5039301
1.14492 -0.200693 2.50897
1.13621 -0.18721001 2.50056
1.13437 -0.176173 2.49733
1.1367099 -0.17146401 2.4974899
1.13363 -0.18471901 2.49224
1.1384 -0.17312099 2.49172
1.1375 -0.16483401 2.55246
1.15923 -0.147311 2.5590899
1.1471601 -0.18438999 2.54495
1.13983 -0.17288299 2.5397201
1.16892 -0.160054 2.5483201
1.1446099 -0.18230399 2.5394101
1.1425 -0.174106 2.5353701
1.1453 -0.164267 2.5332198
1.1588401 -0.161107 2.53969
1.14662 -0.18292801 2.5339098
1.1403199 -0.171506 2.5256701
1.1452 -0.16542299 2.52582
1.15571 -0.162351 2.5322602
1.1392 -0.17843001 2.5209501
1.13459 -0.169732 2.5162499
1.14027 -0.165903 2.51754
1.1514801 -0.16519 2.5225101
1.1400701 -0.181686 2.5148802
1.1379 -0.173031 2.5116401
1.14433 -0.167669 2.5139098
1.1567401 -0.17048299 2.51913
1.14569 -0.19584101 2.5118999
1.13693 -0.182937 2.5064199
1.1379399 -0.17612301 2.5043399
1.14326 -0.170375 2.5064499
1.14291 -0.19412202 2.5062399
1.13416 -0.18192801 2.4985602
1.13815 -0.175779 2.4978101
1.14649 -0.174419 2.4993899
1.13886 -0.19240801 2.4976799
1.1375901 -0.18460101 2.49336
1.14089 -0.177367 2.4919801
1.14975 -0.176736 2.4938102
1.19112 -0.161552 2.5725901
1.1775299 -0.154209 2.5707502
1.18953 -0.16179501 2.56462
1.1771901 -0.156114 2.5620501
1.1726899 -0.155688 2.55515
1.18247 -0.165934 2.5539002
1.17027 -0.160282 2.5499301
1.17018 -0.17165199 2.5522101
1.16213 -0.17781501 2.5536599
1.1650901 -0.167472 2.5450602
1.1570899 -0.161714 2.5394201
1.16009 -0.16826099 2.5366399
1.15219 -0.158507 2.5315399
1.15811 -0.16330099 2.5292099
1.1536499 -0.171919 2.5316401
1.14636 -0.15976 2.5244401
1.15344 -0.16337299 2.5237501
1.1545 -0.171259 2.5222101
1.14565 -0.15952401 2.5174999
1.14886 -0.16523701 2.51701
1.15676 -0.17227501 2.51144
1.1562001 -0.17894399 2.51388
1.14192 -0.16202401 2.5121701
1.15335 -0.16609301 2.5050499
1.1555101 -0.174545 2.5055401
1.1589 -0.180314 2.5047698
1.1442 -0.16097499 2.5007598
1.15063 -0.16634399 2.4974399
1.158 -0.174583 2.4967699
1.16273 -0.18386 2.49405
1.14012 -0.161532 2.4947698
1.14763 -0.164799 2.4914901
1.1523 -0.17396601 2.4905403
1.17838 -0.15991101 2.5664802
1.17044 -0.156287 2.56212
1.17857 -0.16775699 2.5586002
1.15964 -0.15005 2.55989
1.1669899 -0.159393 2.5557902
1.17094 -0.16896901 2.5539999
1.17811 -0.17782301 2.5550601
1.1641899 -0.171638 2.552
1.16162 -0.16148701 2.5399399
1.16313 -0.16806601 2.5433099
1.15473 -0.15771599 2.5354502
1.16281 -0.16197701 2.5308402
1.1636901 -0.16708201 2.5338199
1.15417 -0.157519 2.5272
1.15553 -0.16360001 2.52637
1.1613801 -0.169175 2.5251801
1.15108 -0.158875 2.5206499
1.1578801 -0.162744 2.5180402
1.15793 -0.170707 2.5179598
1.15622 -0.178499 2.5202801
1.14432 -0.160914 2.5146701
1.1543499 -0.164214 2.51297
1.15634 -0.17213801 2.51038
1.16026 -0.178427 2.5098999
1.13965 -0.16173001 2.5096099
1.1515599 -0.16494301 2.5044298
1.15854 -0.17424801 2.5019
1.1523 -0.184099 2.5058801
1.1421 -0.16084298 2.5013199
1.14617 -0.16583401 2.4977801
1.1545501 -0.17277901 2.4954801
1.1594501 -0.18298401 2.49332
1.13834 -0.16357 2.4939201
1.14696 -0.169065 2.4906101
1.19113 -0.164076 2.5757198
1.18643 -0.162433 2.5697401
1.1882 -0.165352 2.5615799
1.16828 -0.15527099 2.5617502
1.17664 -0.16388701 2.5605199
1.1661299 -0.15567799 2.5564699
1.1710299 -0.16477501 2.5552099
1.17194 -0.17619699 2.55583
1.16541 -0.166721 2.5485501
1.16048 -0.168411 2.5414999
1.1570201 -0.174675 2.5450001
1.1594 -0.16357 2.53618
1.1636599 -0.168181 2.53125
1.1576899 -0.174578 2.5372801
1.16057 -0.16368 2.52617
1.1633201 -0.167978 2.5247698
1.15826 -0.17494899 2.52771
1.1577801 -0.16368601 2.52004
1.1574501 -0.169577 2.5206101
1.15464 -0.18060699 2.5195401
1.1200399 -0.21238701 2.5384798
1.15516 -0.16474301 2.5141299
1.1541101 -0.172619 2.5131102
1.15325 -0.18464799 2.5123501
1.1290699 -0.20652001 2.52861
1.1548001 -0.16531201 2.50459
1.1579 -0.17307 2.5029001
1.1577101 -0.18365401 2.50284
1.1478 -0.19816799 2.51038
1.14828 -0.165498 2.4992099
1.1530401 -0.17062999 2.49739
1.15811 -0.17966801 2.49561
1.1599801 -0.191489 2.4958701
1.14371 -0.167778 2.4930499
1.17715 -0.16005699 2.5695701
1.17547 -0.16051202 2.5625799
1.18499 -0.16907901 2.56043
1.16451 -0.15806 2.5606
1.17994 -0.168465 2.55531
1.17688 -0.178782 2.5570002
1.16787 -0.16646099 2.55217
1.16074 -0.16809601 2.5451102
1.15825 -0.16403601 2.5390899
1.1557499 -0.17248699 2.5394299
1.1408401 -0.18154199 2.5464802
1.15106 -0.157093 2.5334399
1.15986 -0.16210599 2.5303102
1.1555899 -0.17183501 2.53337
1.15251 -0.17885 2.5360501
1.15039 -0.158098 2.5271101
1.15552 -0.161917 2.5255098
1.15942 -0.169938 2.5227499
1.1571 -0.177185 2.5267301
1.15775 -0.16437401 2.51635
1.15798 -0.172244 2.5146399
1.1603299 -0.177311 2.5160601
1.1474299 -0.166899 2.5134001
1.1555899 -0.171397 2.50881
1.1579599 -0.179977 2.5064301
1.14904 -0.16748199 2.5051999
1.1550599 -0.17380899 2.5007699
1.15959 -0.183608 2.4967098
1.15546 -0.19328399 2.49933
1.13517 -0.164499 2.49983
1.14533 -0.16909599 2.49751
1.15695 -0.176291 2.49225
1.16022 -0.18456699 2.49087
1.1610199 -0.194461 2.4900298
1.1367 -0.170268 2.4945099
1.18481 -0.15501601 2.5729301
1.1832399 -0.155696 2.56564
1.1705101 -0.153745 2.5650101
1.18753 -0.165015 2.5582299
1.1630501 -0.155711 2.55989
1.1745601 -0.16591299 2.5568099
1.1686699 -0.17800301 2.5574
1.17465 -0.187488 2.5577898
1.1650901 -0.19417199 2.5622602
1.16444 -0.16711099 2.5536499
1.1577801 -0.17833701 2.5547101
1.16712 -0.18623501 2.55405
1.16063 -0.167358 2.5458999
1.1530401 -0.17902701 2.5494201
1.15248 -0.185636 2.5528703
1.16127 -0.15907699 2.5382001
1.16693 -0.16702999 2.5346498
1.15843 -0.17639099 2.5386899
1.15503 -0.184044 2.5429502
1.16167 -0.15919501 2.5313299
1.16374 -0.16778 2.5285699
1.15794 -0.17712799 2.5314901
1.15873 -0.18324499 2.5316203
1.16247 -0.16198601 2.5210602
1.16216 -0.168744 2.52143
1.16336 -0.177086 2.5210199
1.14984 -0.184879 2.5285299
1.1572 -0.16291 2.5137
1.1620899 -0.169834 2.51369
1.16187 -0.178592 2.51316
1.1557701 -0.184644 2.5185199
1.1497899 -0.161847 2.5090601
1.16225 -0.16773199 2.50457
1.1613899 -0.17736401 2.5057502
1.1616501 -0.18428499 2.5072298
1.14685 -0.16165501 2.50389
1.1507499 -0.167061 2.5023599
1.16009 -0.17582399 2.4981298
1.16136 -0.18714198 2.4972401
1.14385 -0.16344699 2.4977601
1.15485 -0.170568 2.49301
1.1596199 -0.18116699 2.49051
1.13642 -0.164204 2.49335
1.15873 -0.18170001 2.5608802
1.1533101 -0.178646 2.55897
1.1485701 -0.172185 2.56023
1.17902 -0.180728 2.56021
1.1616501 -0.18353701 2.5536301
1.15308 -0.17876899 2.5517902
1.14844 -0.17427 2.5502
1.19548 -0.20356199 2.5506601
1.1610501 -0.183402 2.5457902
1.15133 -0.178902 2.54336
1.15139 -0.17087999 2.5444698
1.1720099 -0.186443 2.5407801
1.15739 -0.183046 2.53702
1.15087 -0.17764601 2.5371101
1.15452 -0.16850401 2.5394399
1.1795 -0.18605199 2.5360301
1.1634101 -0.18355301 2.5302498
1.15432 -0.177123 2.5318999
1.1576999 -0.16743299 2.5350299
1.1887001 -0.18572599 2.5342503
1.16781 -0.192414 2.5218101
1.15592 -0.189567 2.51617
1.15467 -0.179511 2.52332
1.17357 -0.19498301 2.51741
1.16193 -0.19560499 2.51036
1.15184 -0.192663 2.5055201
1.15212 -0.182293 2.51072
1.14856 -0.19517201 2.49807
1.14651 -0.187451 2.4997501
1.1489 -0.17644501 2.50249
1.14846 -0.18318899 2.4945502
1.15091 -0.17288099 2.49668
1.15327 -0.17139201 2.4921601
1.14736 -0.17694001 2.5597699
1.14806 -0.17766599 2.5519202
1.14626 -0.17206401 2.5555999
1.15143 -0.179536 2.54406
1.14777 -0.170982 2.5494299
1.1700701 -0.18164 2.54355
1.15679 -0.17985001 2.5393701
1.14902 -0.172435 2.5411599
1.1583 -0.142846 2.5583701
1.20128 -0.20232001 2.5438101
1.1649801 -0.18497299 2.53512
1.1541899 -0.18002701 2.53233
1.14968 -0.17238301 2.5337303
1.18275 -0.184246 2.5372601
1.1595 -0.18699101 2.5244401
1.15062 -0.180833 2.52352
1.1526899 -0.17238899 2.5274301
1.20199 -0.19350901 2.5378299
1.17274 -0.18949899 2.5241899
1.1534899 -0.19212098 2.5116601
1.1498101 -0.184223 2.5145299
1.15275 -0.17413799 2.5206399
1.15927 -0.196657 2.5077403
1.14924 -0.19582 2.5007501
1.14735 -0.18691 2.5050101
1.15277 -0.17546199 2.5130002
1.1440799 -0.189904 2.49527
1.14666 -0.18053199 2.50121
1.14469 -0.18287 2.4909501
1.15517 -0.16911601 2.5622699
1.15239 -0.164239 2.5610399
1.15762 -0.17037001 2.5536098
1.15351 -0.16411899 2.5530701
1.1797299 -0.17178699 2.5543702
1.1591899 -0.17115 2.5458002
1.17256 -0.17656201 2.54338
1.15799 -0.17351601 2.5365701
1.15476 -0.16537201 2.5408499
1.16494 -0.180923 2.5311701
1.15233 -0.17747401 2.52543
1.15719 -0.164665 2.5348198
1.15741 -0.158906 2.5357001
1.17528 -0.185663 2.5282102
1.1553199 -0.185468 2.51776
1.14844 -0.179667 2.51738
1.14967 -0.171363 2.5217502
1.16038 -0.204814 2.5083802
1.1568199 -0.19641501 2.50897
1.14851 -0.19032601 2.5053701
1.14902 -0.17895599 2.5113001
1.15276 -0.169195 2.5159202
1.1455001 -0.19239999 2.4980803
1.14586 -0.182399 2.5004101
1.14766 -0.171896 2.5052099
1.14677 -0.192039 2.4934301
1.14337 -0.183668 2.49137
1.15022 -0.16972901 2.4996803
1.15957 -0.15754201 2.5078101
1.1502301 -0.170651 2.4931901
1.1545401 -0.159964 2.5001101
1.15905 -0.16132499 2.49792
1.14687 -0.17275999 2.5616601
1.1576999 -0.17467399 2.5606701
1.14878 -0.17204599 2.5562398
1.14309 -0.166325 2.5565
1.1746601 -0.17481001 2.5625298
1.16189 -0.17541799 2.5555401
1.15019 -0.173922 2.5492401
1.1480401 -0.16649099 2.55212
1.1829799 -0.222454 2.5427499
1.1913201 -0.21365999 2.5494602
1.1853399 -0.20777799 2.54759
1.16874 -0.18308701 2.55005
1.16021 -0.177864 2.54702
1.1541899 -0.171535 2.54565
1.18608 -0.22056101 2.5409501
1.18504 -0.21564101 2.5421801
1.18446 -0.20838301 2.5434899
1.18138 -0.20051099 2.54354
1.1687599 -0.184324 2.5430899
1.15882 -0.178451 2.5392699
1.15985 -0.16890499 2.5427599
1.1703 -0.158007 2.5513601
1.19322 -0.21133199 2.5412798
1.18656 -0.20664601 2.53982
1.18391 -0.19901501 2.53988
1.1817 -0.190191 2.5416501
1.16544 -0.185955 2.5337
1.15874 -0.17871299 2.53228
1.16732 -0.16529301 2.54357
1.19621 -0.20844801 2.5369201
1.1926399 -0.2051 2.53725
1.18648 -0.198127 2.5360801
1.17851 -0.189854 2.5330002
1.1584899 -0.189014 2.5220001
1.1467401 -0.186959 2.5141299
1.19336 -0.208747 2.5317502
1.1953 -0.20189899 2.5350502
1.18855 -0.19375299 2.5331101
1.16635 -0.193316 2.5196099
1.15157 -0.19175501 2.5102801
1.1422499 -0.187859 2.5046701
1.1454 -0.18121901 2.5087202
1.1543801 -0.19765499 2.5038002
1.14258 -0.19490901 2.49755
1.14015 -0.18780899 2.4983301
1.14285 -0.17993601 2.50109
1.14055 -0.18741301 2.4923999
1.1488301 -0.174153 2.4988401
1.1554 -0.166106 2.50458
1.149 -0.17559299 2.4931901
1.15328 -0.16687 2.4971702
1.15599 -0.17069 2.4921999
1.16786 -0.157781 2.5015099
1.16969 -0.16050801 2.4983599
1.1444499 -0.191947 2.5073001
1.13964 -0.19513398 2.5008402
1.13094 -0.19312401 2.4961898
1.15091 -0.197933 2.5016799
1.14013 -0.19587401 2.4969001
1.13051 -0.19264001 2.4915702
1.1612201 -0.20089199 2.5016501
1.19453 -0.16607501 2.5779102
1.17167 -0.19204099 2.56741
1.16895 -0.197484 2.56879
1.17211 -0.186735 2.5605803
1.14753 -0.19060801 2.5655701
1.18234 -0.18580799 2.5379701
1.1661 -0.18828601 2.5482001
1.18809 -0.18142299 2.5266602
1.18115 -0.18486699 2.53193
1.18384 -0.191709 2.5292802
1.18444 -0.18095301 2.5211599
1.18411 -0.18711701 2.5209501
1.1787 -0.19583799 2.5211599
1.1835999 -0.181664 2.5139401
1.18453 -0.18802099 2.5130899
1.1814801 -0.19721901 2.51228
1.17028 -0.20862301 2.5162101
1.17641 -0.179774 2.50858
1.18221 -0.187995 2.5073299
1.18018 -0.198203 2.5039902
1.1730599 -0.209096 2.5084
1.17307 -0.178893 2.5028
1.17946 -0.187344 2.4996901
1.18057 -0.199083 2.4953299
1.1784301 -0.21044901 2.4978602
1.17187 -0.18032899 2.4955499
1.1788 -0.189541 2.49193
1.16292 -0.17899999 2.4903202
1.17744 -0.182933 2.56427
1.17397 -0.16600999 2.5441101
1.18252 -0.175026 2.5374701
1.17164 -0.18464899 2.5403299
1.1749099 -0.166555 2.53702
1.17836 -0.173438 2.5332801
1.17993 -0.182199 2.53023
1.1705 -0.18646999 2.5336301
1.17757 -0.17484699 2.5273101
1.17919 -0.183302 2.5217199
1.17541 -0.19046101 2.5217001
1.17661 -0.17808701 2.5182502
1.1788 -0.18702999 2.5132
1.18013 -0.19531201 2.5113199
1.1750801 -0.200743 2.51176
1.17892 -0.18180999 2.5086701
1.17888 -0.18803301 2.5063601
1.17618 -0.19665001 2.5053201
1.16688 -0.20469299 2.5073102
1.17731 -0.189842 2.5002601
1.1815699 -0.200728 2.4927702
1.17645 -0.20997401 2.4956
1.1844001 -0.17036301 2.53881
1.1847301 -0.18800801 2.5353401
1.1755999 -0.19061899 2.5400901
1.17814 -0.16692801 2.5334601
1.18221 -0.177775 2.5319602
1.18206 -0.190247 2.5283201
1.1784999 -0.197161 2.5296803
1.17133 -0.16352101 2.52983
1.1777301 -0.17346901 2.5257401
1.18093 -0.18726999 2.52163
1.1781601 -0.199689 2.5212798
1.1782 -0.21166599 2.5182002
1.17589 -0.16735901 2.5191801
1.17689 -0.176898 2.51772
1.1805999 -0.18820801 2.5142701
1.17686 -0.19698299 2.5145502
1.1722 -0.210216 2.5135102
1.17504 -0.16792101 2.5095701
1.17321 -0.17364201 2.51247
1.17607 -0.186535 2.5093501
1.17274 -0.199856 2.5076699
1.17365 -0.212521 2.5045402
1.1697899 -0.16634101 2.5029299
1.17237 -0.17583799 2.50354
1.17696 -0.19219999 2.4991601
1.1772599 -0.205994 2.4970801
1.16321 -0.16347799 2.4983301
1.16635 -0.171884 2.49738
1.17206 -0.18656099 2.4937398
1.17739 -0.201591 2.4905899
1.15546 -0.16204301 2.4960401
1.1581199 -0.16816999 2.4948101
1.19406 -0.162983 2.57793
1.1854399 -0.156165 2.5745001
1.1863201 -0.16222601 2.5637701
1.18327 -0.17 2.5629401
1.16916 -0.17601 2.5661099
1.17375 -0.179185 2.55546
1.18286 -0.16555099 2.5482299
1.1578801 -0.184715 2.55599
1.18612 -0.17028999 2.5368099
1.1820301 -0.175704 2.53529
1.181 -0.183845 2.53526
1.17426 -0.18902099 2.5392401
1.18191 -0.17639099 2.52794
1.17914 -0.18199301 2.5289903
1.17812 -0.190001 2.5271399
1.18213 -0.179004 2.5185299
1.1799901 -0.18510401 2.5190799
1.17562 -0.19477502 2.5160301
1.14494 -0.197065 2.52514
1.18002 -0.181051 2.51055
1.1789399 -0.18910199 2.51017
1.17635 -0.19944499 2.5067902
1.1599 -0.20200001 2.5148001
1.17829 -0.180602 2.5009799
1.17802 -0.18905599 2.5023501
1.17766 -0.20168699 2.4974301
1.17145 -0.17672899 2.4969201
1.1812999 -0.190575 2.4903703
1.18142 -0.180278 2.5672698
1.16934 -0.179667 2.56529
1.17564 -0.18170999 2.55492
1.15221 -0.18425199 2.56529
1.1707599 -0.187425 2.5492301
1.1782299 -0.163939 2.5396399
1.18564 -0.17667101 2.53474
1.1838601 -0.18710899 2.5317299
1.17744 -0.19058999 2.5364199
1.1823601 -0.175782 2.5283802
1.1841201 -0.186683 2.5239599
1.18226 -0.19576599 2.52262
1.18775 -0.185579 2.5139
1.18274 -0.19263701 2.51402
1.17959 -0.20170799 2.5122201
1.1815799 -0.184239 2.5080199
1.18664 -0.19534901 2.50371
1.18196 -0.20489599 2.5034399
1.1760601 -0.21462299 2.5036898
1.18943 -0.197871 2.4951901
1.18478 -0.205451 2.4941602
1.17884 -0.218981 2.4941201
1.1833301 -0.17374901 2.5639601
1.1780601 -0.16665399 2.55913
1.1756901 -0.16791999 2.54195
1.1770201 -0.16038999 2.5534701
1.1814801 -0.204106 2.5005801
1.18472 -0.19328199 2.51878
1.18111 -0.18596099 2.5197799
1.1757801 -0.17824601 2.5183802
1.17717 -0.16832 2.5295599
1.17572 -0.16261101 2.53616
1.179 -0.19855301 2.49457
1.17416 -0.19061701 2.4939499
1.17461 -0.181509 2.50337
1.17115 -0.173289 2.5034602
1.17286 -0.165243 2.51581
1.17225 -0.16565901 2.50034
1.18286 -0.17017999 2.56639
1.1745501 -0.163735 2.5561099
1.1760299 -0.152595 2.56903
1.1793801 -0.17001399 2.5448501
1.17577 -0.162935 2.5460801
1.17591 -0.154533 2.55281
1.1789601 -0.18833099 2.5148599
1.17861 -0.179399 2.5231702
1.17537 -0.17140499 2.5232902
1.1775 -0.161258 2.5366502
1.17901 -0.149791 2.5486701
1.1816601 -0.19361 2.5051599
1.1714801 -0.18615 2.4953001
1.17222 -0.175677 2.5050299
1.1736599 -0.165702 2.5144501
1.1752 -0.157291 2.5249801
1.17136 -0.178923 2.4920301
1.1700701 -0.17006099 2.4983499
1.17338 -0.161126 2.5097201
1.17075 -0.16654199 2.57055
1.1766601 -0.172582 2.5637
1.17295 -0.165061 2.5579002
1.17378 -0.15694501 2.5693901
1.17445 -0.173024 2.54141
1.1739601 -0.163197 2.54546
1.1765599 -0.152907 2.5595999
1.17653 -0.18917102 2.5153601
1.1740899 -0.18278199 2.5207
1.16975 -0.176227 2.5157402
1.17261 -0.16612899 2.5287499
1.17583 -0.155148 2.5415101
1.18541 -0.139054 2.56615
1.17044 -0.193526 2.49301
1.16792 -0.18506201 2.4966202
1.1670899 -0.177313 2.4997699
1.1709 -0.16887699 2.5130999
1.1716599 -0.160969 2.5211802
1.18147 -0.147891 2.5446501
1.1662 -0.171857 2.4964199
1.19432 -0.145235 2.5622602
1.18677 -0.135637 2.55582
1.19051 -0.14777701 2.5482502
1.1896399 -0.15688901 2.5458403
1.19012 -0.164765 2.5413699
1.19156 -0.132866 2.5365601
1.1828901 -0.13454899 2.5471201
1.18387 -0.142636 2.5438101
1.18415 -0.15455499 2.5399499
1.18545 -0.165152 2.5301902
1.1829901 -0.172573 2.5287499
1.18075 -0.13691001 2.5393898
1.1810399 -0.14588399 2.5346801
1.1813301 -0.157068 2.52737
1.18636 -0.169384 2.5135698
1.1883301 -0.18030399 2.5025299
1.17645 -0.213476 2.50861
1.18336 -0.22411199 2.5029101
1.1826 -0.149176 2.52156
1.1812201 -0.16165599 2.5129299
1.18519 -0.173025 2.5005403
1.1834301 -0.19355601 2.4923401
1.19674 -0.147228 2.5699399
1.18282 -0.175357 2.56651
1.18296 -0.168174 2.55689
1.17854 -0.174942 2.5596099
1.18935 -0.155294 2.5411003
1.18258 -0.16092199 2.54795
1.1760399 -0.169453 2.54866
1.16695 -0.17659999 2.5566101
1.1829901 -0.152945 2.53211
1.17881 -0.15995599 2.5341799
1.17354 -0.17013399 2.5353401
1.16617 -0.17786501 2.5449898
1.16416 -0.185266 2.5444901
1.16363 -0.19133699 2.5414498
1.18371 -0.23248699 2.4971702
1.17984 -0.15205699 2.5194001
1.1795 -0.15977101 2.51495
1.17507 -0.168539 2.5194201
1.16931 -0.177377 2.52777
1.15976 -0.18363199 2.5425298
1.17558 -0.150506 2.5105898
1.17607 -0.15671 2.50721
1.17593 -0.16641001 2.50333
1.17664 -0.179767 2.4973102
1.17229 -0.15149 2.50225
1.17597 -0.160052 2.4937799
1.19884 -0.150259 2.5692201
1.19391 -0.143509 2.5631299
1.19138 -0.152979 2.5620301
1.18264 -0.15918399 2.5679901
1.19041 -0.14428601 2.5481501
1.18627 -0.149988 2.5530601
1.1774601 -0.15755901 2.56042
1.1798301 -0.14092499 2.54883
1.18539 -0.15048601 2.5380201
1.17981 -0.15879101 2.5410199
1.16529 -0.16313499 2.5585799
1.1812301 -0.150984 2.5302
1.18082 -0.16037901 2.5235102
1.17593 -0.16978201 2.52456
1.1762 -0.20580299 2.50402
1.17715 -0.21701699 2.4972799
1.18378 -0.164158 2.50564
1.18128 -0.174545 2.49891
1.17416 -0.18680401 2.5039499
1.17659 -0.203335 2.4914701
1.1938701 -0.148867 2.56163
1.18521 -0.15905699 2.56529
1.18718 -0.144024 2.5590799
1.17979 -0.155606 2.5561302
1.18112 -0.14634499 2.5518301
1.1776999 -0.159417 2.5394502
1.16503 -0.163792 2.5541101
1.18056 -0.22710699 2.5000699
1.17453 -0.147098 2.5478001
1.18163 -0.16841999 2.51281
1.17124 -0.170238 2.5271802
1.1543801 -0.16823 2.5562201
1.17518 -0.209032 2.4980199
1.18049 -0.171233 2.50105
1.18172 -0.17825501 2.4974399
1.17778 -0.19142701 2.4914498
1.1935099 -0.144998 2.5630898
1.18503 -0.16276699 2.5554502
1.1847 -0.154394 2.54878
1.17969 -0.163211 2.5445299
1.1667401 -0.166997 2.55885
1.15663 -0.17868701 2.5618501
1.18555 -0.23530599 2.49564
1.1766601 -0.15312299 2.54251
1.17821 -0.16159901 2.5362899
1.1700599 -0.169671 2.53826
1.1528801 -0.168671 2.56323
1.17935 -0.217259 2.4975698
1.18084 -0.23221901 2.4933002
1.17187 -0.161411 2.5314901
1.17555 -0.17519501 2.51811
1.1724299 -0.190975 2.5110602
1.1668299 -0.160625 2.5283499
