# .PCD v0.7 - Point Cloud Data file format
VERSION 0.7
FIELDS x y z
SIZE 4 4 4
TYPE F F F
COUNT 1 1 1
WIDTH 831
HEIGHT 1
VIEWPOINT 0 0 0 1 0 0 0
POINTS 831
DATA ascii
1.16093 -0.39252499 1.239666
1.1706901 -0.39588001 1.239943
1.15995 -0.38731098 1.235847
1.1584101 -0.39099398 1.2311461
1.15739 -0.384987 1.229507
1.15829 -0.37734798 1.227213
1.16317 -0.36985502 1.228364
1.1572499 -0.385454 1.222936
1.15666 -0.37844199 1.220677
1.16373 -0.372794 1.223089
1.16983 -0.36834702 1.2248131
1.16413 -0.39709702 1.218289
1.15593 -0.384637 1.215865
1.15918 -0.37757501 1.217302
1.17469 -0.37513 1.22245
1.18348 -0.371968 1.225454
1.16503 -0.39937699 1.2140421
1.1610399 -0.389687 1.211428
1.15836 -0.380162 1.212108
1.1859699 -0.37621102 1.223879
1.15968 -0.39421099 1.205929
1.15952 -0.389101 1.205696
1.1622599 -0.38562599 1.206347
1.16251 -0.397971 1.200058
1.16187 -0.39043099 1.20158
1.16871 -0.38878602 1.201875
1.1610299 -0.39969799 1.19496
1.16352 -0.392867 1.1958821
1.16925 -0.39554799 1.192715
1.16492 -0.39266899 1.239805
1.16072 -0.39068002 1.232137
1.15239 -0.37782902 1.2264791
1.16065 -0.39959899 1.2277271
1.15214 -0.385342 1.223194
1.15207 -0.376459 1.220844
1.15627 -0.36965501 1.219938
1.15627 -0.363994 1.2214661
1.1542 -0.38799703 1.217574
1.15549 -0.376908 1.2168441
1.16274 -0.37323102 1.217325
1.16741 -0.369268 1.219182
1.16383 -0.40459099 1.216431
1.15518 -0.38969201 1.2103829
1.15528 -0.378723 1.211792
1.17092 -0.37731799 1.2165351
1.17521 -0.372471 1.2183591
1.1609 -0.40239602 1.208761
1.15646 -0.391361 1.205127
1.15566 -0.382056 1.2053781
1.15737 -0.40008 1.2011751
1.15433 -0.38898399 1.1997
1.15687 -0.385167 1.1983351
1.15767 -0.40319198 1.195457
1.15801 -0.39303398 1.19481
1.1589199 -0.38741699 1.192688
1.15324 -0.42269698 1.190838
1.15617 -0.41313201 1.1913121
1.15609 -0.40132198 1.1891811
1.15934 -0.39367297 1.1887871
1.16959 -0.39297199 1.191299
1.15122 -0.41987598 1.1846761
1.15247 -0.40913501 1.18345
1.15764 -0.40141898 1.1836309
1.16277 -0.39675599 1.1839421
1.1519101 -0.41711602 1.178601
1.15418 -0.40826303 1.178699
1.16067 -0.40357199 1.1787311
1.15246 -0.42059398 1.1729569
1.15748 -0.41149101 1.1746601
1.1152101 -0.44165099 1.3196731
1.12349 -0.45125902 1.317583
1.12771 -0.44676799 1.318781
1.14369 -0.463157 1.319797
1.14364 -0.455962 1.318832
1.14972 -0.447703 1.318476
1.15679 -0.46429002 1.3170121
1.15604 -0.45446202 1.314998
1.1559401 -0.379475 1.226043
1.15587 -0.37254798 1.2259281
1.16429 -0.39980099 1.225621
1.15247 -0.38100499 1.2196801
1.15346 -0.37427601 1.219611
1.16082 -0.39893299 1.2180991
1.1551499 -0.38480201 1.215245
1.15539 -0.37772501 1.212411
1.15377 -0.391662 1.210201
1.15405 -0.38312998 1.207894
1.1578701 -0.379365 1.206935
1.1563201 -0.39373502 1.204949
1.1563201 -0.38411799 1.203459
1.16668 -0.38534302 1.205753
1.1588401 -0.39978001 1.198841
1.15758 -0.38814399 1.1991889
1.15737 -0.39895999 1.1903731
1.16031 -0.39303902 1.1929611
1.1539199 -0.419063 1.1879029
1.15556 -0.40718499 1.185995
1.1566 -0.39805803 1.18408
1.15987 -0.393471 1.184972
1.1511101 -0.428556 1.182399
1.1515499 -0.41473201 1.179597
1.15574 -0.40467098 1.1798451
1.1593699 -0.398022 1.1801901
1.14986 -0.42463902 1.1745991
1.1514 -0.41446602 1.1732831
1.1556 -0.40808401 1.1750131
1.16201 -0.40159598 1.175274
1.15381 -0.46266702 1.319911
1.14973 -0.450414 1.3177952
1.16201 -0.39314801 1.2381301
1.1642801 -0.39996898 1.234249
1.1534801 -0.37851602 1.227156
1.1529 -0.37032601 1.2233901
1.15746 -0.39112598 1.223606
1.15345 -0.377489 1.219319
1.15799 -0.37340099 1.2180431
1.1557 -0.39032799 1.21595
1.15583 -0.37868899 1.213325
1.16329 -0.37694901 1.213864
1.1566501 -0.38969001 1.208582
1.1567501 -0.37835202 1.207962
1.16611 -0.37928799 1.2097811
1.15677 -0.39230701 1.2012041
1.15826 -0.38181302 1.201859
1.15386 -0.39239702 1.1943271
1.1597899 -0.385629 1.195248
1.16678 -0.38205898 1.195322
1.15748 -0.40622002 1.1923401
1.15589 -0.39201802 1.189232
1.1665599 -0.38814801 1.1906739
1.17696 -0.38774601 1.191547
1.15329 -0.415319 1.1865721
1.15469 -0.40259999 1.1846361
1.1605999 -0.394108 1.184413
1.15104 -0.42410499 1.180964
1.1539 -0.41280103 1.1799181
1.1562001 -0.402147 1.179278
1.16505 -0.39796102 1.179765
1.15387 -0.41808102 1.174982
1.14891 -0.45314601 1.318693
1.15758 -0.449294 1.319571
1.16717 -0.397643 1.262638
1.1682299 -0.39940301 1.2497801
1.16529 -0.39744201 1.2352811
1.16518 -0.38592097 1.2318749
1.16659 -0.37756598 1.231149
1.16609 -0.39641398 1.228997
1.1656899 -0.38513499 1.22552
1.17123 -0.38139498 1.2246021
1.16679 -0.38473302 1.219522
1.17978 -0.388807 1.221221
1.16868 -0.38895699 1.214368
1.17873 -0.39041197 1.2155471
1.17115 -0.39506501 1.207778
1.16521 -0.40079102 1.1999991
1.1688 -0.39500999 1.1980791
1.1340899 -0.425834 1.3188189
1.14684 -0.431584 1.31548
1.1514801 -0.438315 1.3125551
1.11624 -0.417606 1.318832
1.1256 -0.42728001 1.3155999
1.14022 -0.43258801 1.311493
1.14713 -0.43842497 1.308226
1.15394 -0.442931 1.307845
1.11475 -0.43298301 1.31612
1.13159 -0.43674099 1.310323
1.13581 -0.44643399 1.3100601
1.17619 -0.37939 1.237313
1.17687 -0.37050098 1.232426
1.17884 -0.38013899 1.23027
1.1799901 -0.38743302 1.2308631
1.17664 -0.374235 1.225757
1.1843901 -0.379962 1.2198271
1.1773601 -0.37797797 1.216494
1.1856301 -0.379832 1.213299
1.17686 -0.38044798 1.209653
1.18619 -0.38075697 1.2073921
1.1838601 -0.385903 1.200502
1.18167 -0.37035197 1.2339591
1.1798999 -0.378261 1.2359841
1.17882 -0.36623099 1.228757
1.1856301 -0.372026 1.225009
1.18808 -0.377305 1.2254001
1.17427 -0.37114498 1.2232871
1.18569 -0.371557 1.2188251
1.19186 -0.37748501 1.2167081
1.18599 -0.37221801 1.2125751
1.18844 -0.37944999 1.211082
1.18557 -0.37725103 1.204623
1.19328 -0.38207099 1.202046
1.18121 -0.38099098 1.199236
1.18841 -0.38373002 1.1971771
1.18229 -0.38787299 1.193305
1.1469899 -0.42720699 1.319005
1.1393499 -0.42697799 1.3158301
1.1525199 -0.43236101 1.312302
1.13333 -0.42720798 1.313252
1.14797 -0.43190101 1.308943
1.15565 -0.43780398 1.306765
1.1285 -0.43003801 1.312449
1.18749 -0.37645999 1.23467
1.19119 -0.36861899 1.2267151
1.18641 -0.37717 1.2307839
1.18479 -0.36500499 1.2236301
1.1906301 -0.37025201 1.221488
1.19724 -0.373465 1.219331
1.1700701 -0.36294499 1.224941
1.1771801 -0.367865 1.2211981
1.19461 -0.36992601 1.213863
1.2016799 -0.37603801 1.209501
1.18926 -0.37348801 1.208638
1.19853 -0.37861499 1.20485
1.1801699 -0.38061601 1.2054561
1.19066 -0.38221499 1.2015041
1.18312 -0.38251999 1.1987281
1.1777301 -0.37018201 1.231445
1.16677 -0.381993 1.2337381
1.17404 -0.37410301 1.228827
1.17958 -0.37766799 1.225872
1.18098 -0.38404998 1.223592
1.18142 -0.38049999 1.219818
1.19166 -0.38481098 1.2121921
1.18898 -0.38276199 1.2085561
1.18718 -0.38502601 1.2017241
1.18357 -0.38727701 1.1968651
1.1838601 -0.36712897 1.231925
1.18949 -0.37307498 1.228824
1.18118 -0.36449599 1.226256
1.18739 -0.36963999 1.22383
1.1930699 -0.37579498 1.220793
1.18622 -0.38202301 1.2240981
1.17138 -0.368218 1.223955
1.18374 -0.37056598 1.219252
1.18777 -0.37657699 1.218204
1.19903 -0.38127998 1.212257
1.17851 -0.373595 1.215699
1.19147 -0.377841 1.210266
1.19051 -0.380229 1.2040851
1.18426 -0.38580701 1.19991
1.16082 -0.40469897 1.2852991
1.1622 -0.406205 1.274018
1.16544 -0.40453801 1.2725559
1.16204 -0.40712002 1.2671361
1.16189 -0.40385899 1.266978
1.15376 -0.40903801 1.26353
1.15851 -0.406427 1.26256
1.1617299 -0.40387401 1.261461
1.1509 -0.40943402 1.2592461
1.15487 -0.406744 1.2580031
1.15922 -0.40361899 1.2566451
1.1494499 -0.40956298 1.2536601
1.15458 -0.40616599 1.252012
1.1619201 -0.40445 1.2487581
1.15079 -0.41221297 1.2450571
1.15088 -0.40697497 1.2471761
1.1603299 -0.404926 1.242694
1.14222 -0.413946 1.2425621
1.14686 -0.41096401 1.2428261
1.15351 -0.40772998 1.2394741
1.15843 -0.40430698 1.235859
1.1457701 -0.416287 1.233896
1.1467401 -0.41125402 1.236878
1.15503 -0.40763 1.231793
1.16001 -0.40376499 1.228526
1.14723 -0.41733602 1.227134
1.1467199 -0.41140401 1.228832
1.15483 -0.405705 1.225436
1.1600801 -0.40243801 1.223233
1.14335 -0.41528302 1.223176
1.1460299 -0.411477 1.2226319
1.14914 -0.40494597 1.2214791
1.15906 -0.40053299 1.217736
1.1443 -0.41592702 1.2149011
1.14511 -0.41041499 1.21706
1.1484799 -0.403207 1.215373
1.1548001 -0.39756697 1.213896
1.15964 -0.39104301 1.2119191
1.161 -0.37971297 1.211203
1.15396 -0.36040199 1.2198651
1.1454799 -0.41651902 1.207196
1.14566 -0.412182 1.210088
1.14457 -0.403588 1.2112961
1.14956 -0.39637402 1.211073
1.15562 -0.38780701 1.2084891
1.1560199 -0.37807599 1.209669
1.15589 -0.36910802 1.212258
1.1560501 -0.36101502 1.213284
1.1622599 -0.35837701 1.210341
1.14827 -0.41726503 1.198607
1.14382 -0.40994 1.204689
1.1431301 -0.40194303 1.2063631
1.1467299 -0.394245 1.205948
1.15447 -0.387252 1.203056
1.15544 -0.378115 1.2042191
1.15738 -0.368251 1.205941
1.15925 -0.363516 1.204854
1.14685 -0.41753101 1.1924881
1.1481301 -0.412049 1.194465
1.14412 -0.40139499 1.200171
1.14582 -0.39365399 1.200502
1.15183 -0.38735902 1.198483
1.15759 -0.38040698 1.195086
1.16009 -0.37212503 1.196853
1.1693801 -0.36967099 1.1920551
1.15197 -0.41972697 1.1836849
1.14833 -0.41346699 1.186716
1.14712 -0.40423501 1.190608
1.149 -0.39498901 1.1931159
1.1560501 -0.388257 1.188856
1.16277 -0.38145 1.186499
1.1709 -0.37724 1.18425
1.15026 -0.41893101 1.178479
1.14868 -0.41357899 1.180927
1.1519101 -0.40817797 1.1803781
1.1549801 -0.39835799 1.1813941
1.1645501 -0.39144298 1.1770871
1.17313 -0.386648 1.1746651
1.15214 -0.41431198 1.173391
1.1549 -0.40671003 1.172682
1.16065 -0.412597 1.3191769
1.15722 -0.41631499 1.3136441
1.16091 -0.41203898 1.3133121
1.15747 -0.41804799 1.306344
1.16146 -0.41336602 1.3057671
1.15297 -0.41686001 1.301929
1.15749 -0.41342202 1.2999071
1.165 -0.40801701 1.2989911
1.15727 -0.42371899 1.2932711
1.15237 -0.41660702 1.296765
1.16044 -0.41259202 1.2927721
1.1653199 -0.40626702 1.2928901
1.1535 -0.41649202 1.290688
1.15965 -0.41312599 1.2854871
1.1657901 -0.40717202 1.285691
1.15792 -0.418044 1.2810651
1.15944 -0.41364601 1.279303
1.16196 -0.407727 1.2800031
1.1557599 -0.41610298 1.274897
1.15877 -0.411524 1.2749591
1.1627101 -0.40604499 1.2731121
1.15644 -0.41671601 1.267693
1.15668 -0.41073 1.268893
1.16164 -0.405976 1.26757
1.1667199 -0.40305999 1.265697
1.1537499 -0.41553798 1.262629
1.1519101 -0.409352 1.2648851
1.1586 -0.40573001 1.2629521
1.1664701 -0.40327498 1.257905
1.1534899 -0.41561401 1.2562221
1.15614 -0.41143298 1.2566161
1.15918 -0.40505901 1.255506
1.15379 -0.41503602 1.249734
1.15432 -0.409035 1.2517481
1.16107 -0.40561298 1.247887
1.16601 -0.40260899 1.244292
1.1531 -0.41471401 1.2421831
1.15572 -0.41022301 1.244624
1.1597899 -0.40518102 1.241907
1.1522499 -0.41431099 1.235307
1.15495 -0.41002899 1.237975
1.16001 -0.40490201 1.235103
1.1499701 -0.414222 1.229454
1.15464 -0.40954399 1.230549
1.1631501 -0.40557998 1.227373
1.14561 -0.413066 1.22633
1.15016 -0.40998402 1.22501
1.16082 -0.40562198 1.2212311
1.15011 -0.41573602 1.2182831
1.15345 -0.41002399 1.2160071
1.16229 -0.402722 1.213479
1.16741 -0.396494 1.2117391
1.1576999 -0.36763901 1.2223361
1.15406 -0.422061 1.2073151
1.1531401 -0.41229001 1.2085871
1.15521 -0.40206799 1.2097831
1.16427 -0.396088 1.20858
1.1637599 -0.385281 1.210773
1.1558 -0.370186 1.2164121
1.15327 -0.42103803 1.2007279
1.1512001 -0.40873402 1.204783
1.15188 -0.399198 1.204391
1.15862 -0.39138001 1.2052001
1.1606801 -0.38008597 1.2063971
1.15676 -0.36817798 1.2111101
1.15854 -0.36093497 1.21272
1.16847 -0.36116099 1.207181
1.14754 -0.40729401 1.2000221
1.14807 -0.39725301 1.2004161
1.15437 -0.39102599 1.1995281
1.15977 -0.38284302 1.199731
1.1599 -0.37337399 1.2028461
1.15698 -0.36437699 1.206634
1.15238 -0.420169 1.186481
1.14902 -0.40991798 1.191561
1.14649 -0.39943802 1.196022
1.15124 -0.39264703 1.1942531
1.15921 -0.386195 1.192031
1.16246 -0.37690201 1.194877
1.16978 -0.37226501 1.19384
1.15168 -0.41862097 1.181336
1.14969 -0.41091499 1.185178
1.14977 -0.40117699 1.187319
1.1578701 -0.39402598 1.1837981
1.1647899 -0.38891101 1.181743
1.15151 -0.409924 1.178328
1.15773 -0.403227 1.175341
1.16371 -0.396992 1.173049
1.1406701 -0.42081797 1.3169301
1.15036 -0.41861802 1.314137
1.15961 -0.41455001 1.312457
1.13447 -0.420219 1.313429
1.15176 -0.419148 1.307162
1.1626999 -0.414067 1.3052521
1.1336499 -0.425037 1.30891
1.14933 -0.42593899 1.299908
1.15883 -0.422396 1.296367
1.1605899 -0.413367 1.29983
1.15807 -0.42355302 1.2908291
1.15903 -0.41303003 1.2856179
1.15441 -0.40994498 1.2607311
1.15923 -0.41365701 1.252337
1.15789 -0.41241199 1.230669
1.15759 -0.41228402 1.224834
1.15661 -0.41147599 1.2166439
1.16381 -0.403301 1.2147731
1.15264 -0.41870099 1.209839
1.15141 -0.40757599 1.212332
1.1574299 -0.40099603 1.21206
1.16741 -0.39708999 1.2097701
1.16953 -0.38819098 1.2102431
1.15582 -0.36518699 1.220844
1.15247 -0.421029 1.202414
1.15122 -0.41023499 1.2066001
1.152 -0.39992499 1.207952
1.16161 -0.391626 1.205734
1.16213 -0.3777 1.209107
1.1592801 -0.36746201 1.212913
1.15856 -0.36207402 1.2144741
1.14996 -0.407662 1.200791
1.15249 -0.39587897 1.201719
1.1617501 -0.390654 1.1977761
1.16255 -0.38097399 1.201364
1.1613201 -0.37040001 1.206221
1.1683999 -0.36975101 1.202399
1.1509401 -0.40986902 1.192278
1.15053 -0.398922 1.19603
1.15429 -0.39075601 1.195135
1.1654299 -0.38620603 1.1913201
1.16732 -0.37732601 1.195065
1.1510501 -0.41142502 1.185722
1.1534801 -0.40117198 1.186978
1.16276 -0.39389598 1.1833481
1.17496 -0.39030102 1.1782091
1.15195 -0.41015702 1.179119
1.15686 -0.40127602 1.1773981
1.14833 -0.42115501 1.317531
1.1579499 -0.41488099 1.3192511
1.1287999 -0.41835201 1.319227
1.15361 -0.42345402 1.3082041
1.16037 -0.416302 1.3107871
1.12058 -0.421018 1.318117
1.1403099 -0.42288503 1.308656
1.15634 -0.424133 1.3009869
1.15905 -0.41733003 1.295719
1.158 -0.414985 1.2749541
1.15877 -0.413605 1.268826
1.15914 -0.414617 1.2611791
1.1602 -0.413028 1.2542
1.15905 -0.41261902 1.2468671
1.15653 -0.41380599 1.24045
1.15894 -0.41345 1.232186
1.15465 -0.41278198 1.2188611
1.16026 -0.407702 1.2180541
1.1544499 -0.367598 1.224009
1.16044 -0.40341401 1.211282
1.16934 -0.397127 1.210912
1.1634201 -0.38182202 1.21455
1.15639 -0.36912102 1.219959
1.1567 -0.41424701 1.20226
1.15518 -0.39914903 1.206823
1.16326 -0.39278197 1.2072771
1.1605999 -0.38100103 1.208277
1.15758 -0.37084901 1.2141521
1.15332 -0.41120398 1.1969911
1.1534801 -0.401407 1.2011091
1.15733 -0.39127102 1.201996
1.1608599 -0.38255101 1.2006911
1.1631199 -0.376156 1.202029
1.15502 -0.41503102 1.1897039
1.15433 -0.40176299 1.193692
1.15886 -0.39105999 1.1935951
1.16891 -0.38702098 1.1897399
1.1777201 -0.385831 1.184975
1.15488 -0.41234902 1.18338
1.15476 -0.39866799 1.187482
1.1661299 -0.39550498 1.1822701
1.17426 -0.39040101 1.179144
1.15971 -0.403651 1.177348
1.1683899 -0.39746499 1.1734359
1.14852 -0.42834401 1.31165
1.15756 -0.42103902 1.312561
1.13358 -0.42735699 1.311635
1.1560299 -0.421929 1.306251
1.12841 -0.42999801 1.3092401
1.14367 -0.43135899 1.3012061
1.15808 -0.423069 1.291391
1.1562101 -0.41770101 1.2606931
1.1608599 -0.41261199 1.2543651
1.15633 -0.41690299 1.249204
1.1557801 -0.41471601 1.243402
1.15566 -0.41633302 1.217999
1.1594599 -0.40864798 1.2180171
1.17118 -0.39328399 1.2176831
1.15034 -0.41108298 1.214287
1.15741 -0.40556401 1.212085
1.1628 -0.39525002 1.213518
1.1622599 -0.37966201 1.21623
1.16346 -0.36170602 1.2203981
1.15124 -0.40896901 1.205554
1.1505899 -0.39866 1.208441
1.15757 -0.39156899 1.2077011
1.16072 -0.37916499 1.209108
1.16012 -0.36706799 1.215014
1.16734 -0.36711103 1.211203
1.15482 -0.416596 1.1928771
1.1528 -0.40088698 1.20023
1.15565 -0.39158699 1.20113
1.16256 -0.386143 1.1998131
1.16623 -0.37654701 1.2017421
1.1549801 -0.407244 1.190677
1.15818 -0.39534 1.19248
1.1686 -0.38959703 1.188828
1.15637 -0.40708402 1.1832451
1.17781 -0.38879299 1.2068679
1.17957 -0.37842602 1.205786
1.1751699 -0.38737202 1.2020301
1.1751 -0.38058898 1.1990291
1.17678 -0.38800597 1.195609
1.1739601 -0.382669 1.1907761
1.17679 -0.38819501 1.1882401
1.17467 -0.39110699 1.1813661
1.17112 -0.37633401 1.22095
1.16792 -0.38333499 1.2182831
1.16791 -0.378245 1.215297
1.17286 -0.382007 1.2153931
1.1635 -0.39195201 1.211108
1.1696399 -0.37672299 1.210003
1.1712101 -0.38254201 1.208311
1.17431 -0.38977599 1.2077889
1.17075 -0.37697202 1.2028739
1.17345 -0.38170701 1.2023461
1.1772599 -0.38926601 1.2008251
1.1686699 -0.379471 1.194243
1.17387 -0.38329601 1.195498
1.1766 -0.39067701 1.1939931
1.17283 -0.38555402 1.1865381
1.17423 -0.38789901 1.1785671
1.16187 -0.36334598 1.2239051
1.16904 -0.36558202 1.224961
1.17097 -0.371914 1.222555
1.1655201 -0.36828801 1.218245
1.17178 -0.37366298 1.216637
1.17598 -0.38075802 1.215014
1.1664 -0.37224099 1.210011
1.1784999 -0.37463102 1.2113811
1.1754 -0.38249001 1.2096491
1.1793 -0.37615398 1.20499
1.18029 -0.38303298 1.204569
1.17551 -0.38071302 1.195314
1.18398 -0.383246 1.198208
1.1803 -0.38809398 1.1876811
1.14748 -0.428038 1.314984
1.1366 -0.43024799 1.308895
1.1482199 -0.431851 1.311319
1.17072 -0.36974099 1.227944
1.17155 -0.37566501 1.226711
1.16168 -0.36838999 1.2168961
1.17092 -0.370886 1.219816
1.1756301 -0.37617502 1.2201041
1.17067 -0.37371898 1.211792
1.1738601 -0.377839 1.212623
1.17629 -0.38694 1.208639
1.16246 -0.37964299 1.20042
1.17217 -0.38254201 1.2033951
1.17737 -0.391031 1.2016971
1.16904 -0.38544899 1.1942841
1.17572 -0.390681 1.1956331
1.16435 -0.389725 1.184715
1.1760399 -0.39067101 1.1893691
1.1633 -0.367681 1.2211841
1.1697299 -0.370307 1.2232261
1.17026 -0.37900501 1.2190191
1.16642 -0.38710999 1.2147421
1.1704201 -0.37441501 1.216513
1.17774 -0.38096297 1.21509
1.17422 -0.388367 1.2124251
1.15731 -0.40768501 1.199499
1.17972 -0.38127801 1.210866
1.17786 -0.390113 1.2066031
1.1794 -0.38482898 1.2012661
1.17451 -0.38698798 1.19102
1.1690899 -0.38945499 1.182511
1.14684 -0.44483101 1.31821
1.1355001 -0.439583 1.319872
1.1355799 -0.44178 1.3168411
1.12707 -0.43694198 1.318524
1.1380301 -0.429441 1.3104941
1.16538 -0.37898201 1.2335
1.1707599 -0.38249198 1.2261471
1.16363 -0.38274699 1.228785
1.16123 -0.377727 1.230283
1.16868 -0.385057 1.2216811
1.1657599 -0.38140401 1.22273
1.16708 -0.37612498 1.2194301
1.17053 -0.38613701 1.214704
1.16773 -0.38249901 1.2152311
1.17567 -0.37223998 1.20877
1.17638 -0.38617402 1.20578
1.17325 -0.38192001 1.206311
1.17891 -0.38903001 1.199357
1.17989 -0.379646 1.1984581
1.14992 -0.44502699 1.310178
1.1340799 -0.440494 1.3163282
1.14399 -0.43648398 1.3086489
1.12869 -0.434425 1.3142309
1.11902 -0.42784199 1.316754
1.11634 -0.41912898 1.316632
1.17662 -0.376387 1.226125
1.16303 -0.378162 1.232476
1.1826999 -0.38342097 1.216725
1.17015 -0.38344002 1.2237951
1.16696 -0.37757599 1.224599
1.16461 -0.37147301 1.225457
1.17515 -0.38852298 1.2166561
1.1684101 -0.386507 1.219164
1.16971 -0.37809601 1.218287
1.17194 -0.39451399 1.211089
1.16739 -0.389346 1.2143531
1.17126 -0.39170501 1.2050221
1.1705899 -0.393998 1.1981241
1.1761299 -0.39208901 1.189366
1.14396 -0.43776 1.314104
1.15099 -0.435451 1.306215
1.13253 -0.432567 1.313458
1.14139 -0.42878503 1.306174
1.12412 -0.42672902 1.313033
1.11585 -0.42128602 1.3157321
1.17137 -0.37753102 1.224563
1.1610299 -0.37706402 1.23084
1.16353 -0.38207999 1.2247831
1.16461 -0.377027 1.224088
1.16117 -0.37418202 1.225407
1.16405 -0.386316 1.218277
1.1625 -0.37959802 1.2195561
1.16371 -0.374091 1.2166131
1.1752501 -0.39169899 1.2069401
1.16722 -0.38613302 1.2113529
1.16213 -0.38041699 1.2131801
1.16959 -0.372109 1.208009
1.1703601 -0.39401799 1.20499
1.16575 -0.38714099 1.206652
1.16782 -0.37955102 1.2052439
1.1677899 -0.39457297 1.2015281
1.16553 -0.389285 1.202324
1.1689601 -0.397838 1.195556
1.15209 -0.43628201 1.31665
1.13279 -0.432239 1.319967
1.13684 -0.43171701 1.3148541
1.17781 -0.373512 1.225039
1.16923 -0.37038699 1.230074
1.1677101 -0.37806401 1.2267461
1.16845 -0.373815 1.225399
1.18385 -0.38517502 1.20933
1.1703299 -0.38143501 1.2185301
1.16251 -0.37687501 1.224269
1.17387 -0.38852501 1.210907
1.1677899 -0.38394099 1.2147861
1.1655101 -0.379659 1.215556
1.17109 -0.39110801 1.206059
1.16738 -0.384958 1.209825
1.1661 -0.381017 1.208136
1.1662999 -0.393087 1.203869
1.16785 -0.386094 1.2028551
1.17056 -0.38044998 1.199772
1.16991 -0.39251399 1.196908
1.16758 -0.387595 1.196612
1.17163 -0.393805 1.189427
1.18134 -0.385176 1.1832119
1.14685 -0.42764899 1.194015
1.1491101 -0.43092999 1.190135
1.17361 -0.37508801 1.223312
1.16724 -0.377547 1.222267
1.1617401 -0.37162998 1.226788
1.16933 -0.35765302 1.222205
1.1766 -0.38347599 1.2118551
1.16934 -0.38094798 1.215194
1.16359 -0.37415501 1.219753
1.16958 -0.36592302 1.216964
1.17153 -0.38883302 1.208976
1.1653 -0.38227403 1.212453
1.16844 -0.37469798 1.2119271
1.16741 -0.39013401 1.204989
1.1626201 -0.38369203 1.2088071
1.1681401 -0.399324 1.1994721
1.1656899 -0.39177898 1.2002079
1.16518 -0.38702098 1.200312
1.1674299 -0.39934701 1.192825
1.16413 -0.39305601 1.1963091
1.16863 -0.38846901 1.192771
1.1693901 -0.39462298 1.1872611
1.18554 -0.38360101 1.235468
1.17846 -0.38367 1.2264611
1.1757901 -0.379758 1.2361981
1.18688 -0.38571399 1.241241
1.1698899 -0.37691799 1.2290871
1.1762201 -0.38286999 1.233174
1.1722699 -0.386044 1.2327781
1.16775 -0.37772 1.222944
1.17599 -0.38479599 1.226725
1.17848 -0.390598 1.228045
1.1746399 -0.38677701 1.2212161
1.18373 -0.38887402 1.2441831
1.18578 -0.385167 1.2380201
1.1792901 -0.388722 1.236968
1.17625 -0.39293599 1.2366561
1.18398 -0.380555 1.2327501
1.1799099 -0.382314 1.234283
1.1777999 -0.37900102 1.2240521
1.18051 -0.38424802 1.225785
1.1810501 -0.38304299 1.21895
1.15011 -0.43303502 1.319272
1.15703 -0.43149799 1.3189681
1.19179 -0.370206 1.2302201
1.18933 -0.36681899 1.230417
1.18791 -0.362708 1.2310561
1.18934 -0.375855 1.221812
1.19161 -0.368615 1.225338
1.19236 -0.37837699 1.2167151
1.19434 -0.38342097 1.209411
1.19031 -0.366842 1.229694
1.18748 -0.363657 1.22975
1.20173 -0.37917802 1.221884
1.18911 -0.37921602 1.21907
1.1898 -0.37023899 1.2234629
1.19283 -0.36432499 1.225209
1.1926301 -0.38464001 1.2144721
1.1854399 -0.38381302 1.2118001
1.18835 -0.37543598 1.2154201
1.18559 -0.383643 1.207149
1.1856099 -0.379646 1.206416
1.18358 -0.38743001 1.1994281
1.1933399 -0.37748599 1.203178
1.1791999 -0.37075901 1.226706
1.1822799 -0.36572301 1.22653
1.1783999 -0.36223701 1.2276241
1.1971 -0.37338799 1.2241111
1.1854399 -0.371241 1.221373
1.1846399 -0.36568001 1.2222741
1.1826 -0.362077 1.2224079
1.18928 -0.37614 1.217314
1.18479 -0.373263 1.215351
1.18749 -0.36615899 1.218237
1.19286 -0.35987401 1.2205701
1.1878901 -0.37748799 1.210669
1.1858799 -0.372374 1.2114611
1.19161 -0.366202 1.2136559
1.18285 -0.382523 1.2008799
1.19033 -0.37349901 1.206637
1.1940399 -0.36770698 1.2085201
1.1865001 -0.382732 1.196923
1.19778 -0.372812 1.203783
1.1888601 -0.38421398 1.191915
1.1930699 -0.37731701 1.1948041
1.19148 -0.38341999 1.188899
1.2035199 -0.37607497 1.1934
1.1819301 -0.36777699 1.2272201
1.1813099 -0.361651 1.2280351
1.1805 -0.36973703 1.219331
1.1839499 -0.36329499 1.2227581
1.17864 -0.357535 1.2226081
1.18364 -0.371185 1.214213
1.1808 -0.366344 1.215162
1.18304 -0.35960302 1.2178711
1.18371 -0.377123 1.2080671
1.18291 -0.37134302 1.2098421
1.1832399 -0.36527598 1.211702
1.1934301 -0.35961601 1.215549
1.1864901 -0.380761 1.202773
1.18618 -0.37381199 1.2056171
1.18365 -0.36851397 1.205716
1.1882701 -0.38223898 1.1985161
1.18749 -0.375653 1.2002461
1.19796 -0.36870801 1.204398
1.1883 -0.38155702 1.194519
1.19292 -0.3761 1.196198
1.1879901 -0.38441399 1.188434
1.19725 -0.37804601 1.1916081
1.18936 -0.36841801 1.232138
1.18645 -0.376544 1.230652
1.17655 -0.382485 1.23324
1.18687 -0.37229699 1.2277701
1.1901001 -0.37948897 1.2243
1.1944001 -0.38306099 1.218019
1.1991 -0.371436 1.238732
1.19629 -0.371088 1.233585
1.18924 -0.36613399 1.231186
1.2001899 -0.37363997 1.224991
1.18537 -0.36848599 1.227038
1.20017 -0.37717202 1.217898
1.1984301 -0.36904201 1.23523
1.1965699 -0.372677 1.236295
1.1994799 -0.37094101 1.228698
1.19837 -0.37701902 1.2265711
1.19638 -0.37375 1.221433
1.1982701 -0.38090801 1.2189
1.19218 -0.37403098 1.215873
1.19678 -0.37999099 1.215003
1.19022 -0.374259 1.212296
1.1951001 -0.38082999 1.210515
1.1934201 -0.38143003 1.2075701
1.19363 -0.36813098 1.2290931
1.1967701 -0.37699902 1.2249681
1.19186 -0.37972599 1.226982
1.19497 -0.37097198 1.221097
1.1994001 -0.37895697 1.217512
1.20081 -0.37566701 1.212664
1.1929799 -0.36612499 1.232224
1.19513 -0.37469199 1.227659
1.19469 -0.370388 1.223996
1.20202 -0.381293 1.218254
1.19818 -0.37541303 1.2157041
