# .PCD v0.7 - Point Cloud Data file format
VERSION 0.7
FIELDS x y z
SIZE 4 4 4
TYPE F F F
COUNT 1 1 1
WIDTH 165
HEIGHT 1
VIEWPOINT 0 0 0 1 0 0 0
POINTS 165
DATA ascii
1.17424 -0.41806599 0.18472202
1.1787699 -0.41383201 0.18636104
1.16628 -0.414866 0.18354301
1.1739601 -0.41223702 0.18300804
1.1617299 -0.41305301 0.18103504
1.16977 -0.411134 0.17826004
1.17242 -0.40132999 0.18149002
1.16046 -0.411852 0.17751202
1.16722 -0.40863201 0.17491803
1.1708599 -0.40064701 0.17585503
1.16346 -0.41309202 0.17253605
1.18642 -0.433889 0.18213901
1.1843901 -0.42255297 0.18627003
1.1716599 -0.435765 0.18098202
1.1721901 -0.42675701 0.18399902
1.1769 -0.41925201 0.18384403
1.15922 -0.42788503 0.18191704
1.16722 -0.42451599 0.18052605
1.17225 -0.41718602 0.17964202
1.1481 -0.43121701 0.17695603
1.15809 -0.42815199 0.17618603
1.1664701 -0.42283601 0.17542702
1.17504 -0.41567099 0.17258503
1.13183 -0.43522999 0.17242405
1.13659 -0.43013301 0.17380203
1.14598 -0.426572 0.17360504
1.16176 -0.42306501 0.17081703
1.18091 -0.41862598 0.16323704
1.118 -0.43770099 0.16847701
1.12651 -0.433222 0.16998504
1.1364701 -0.43088299 0.16953503
1.14937 -0.43144798 0.16598602
1.11014 -0.43593499 0.16639003
1.11782 -0.43343103 0.16597004
1.12702 -0.42955503 0.16591004
1.1068901 -0.440905 0.16138302
1.10824 -0.43579701 0.16230701
1.1164601 -0.433321 0.16053303
1.1247001 -0.43261397 0.15821305
1.10267 -0.438335 0.15829204
1.1071 -0.43581402 0.15647003
1.1145099 -0.43416199 0.15498105
1.10383 -0.44009301 0.15137303
1.1059101 -0.43711102 0.15068604
1.10174 -0.43989497 0.14754303
1.10721 -0.439695 0.14515305
1.1733999 -0.419016 0.18649001
1.15474 -0.431133 0.18243702
1.16301 -0.42502201 0.18315804
1.17116 -0.42127103 0.18154903
1.1783299 -0.413178 0.18359204
1.1407399 -0.43672901 0.17797402
1.1463799 -0.430971 0.17928204
1.15749 -0.42593202 0.17912903
1.17194 -0.42267299 0.17388202
1.17638 -0.41107601 0.17841503
1.13196 -0.441796 0.17195904
1.13738 -0.43608502 0.17389804
1.14662 -0.43065399 0.17517102
1.15871 -0.42751899 0.17131203
1.1717601 -0.42260602 0.16706704
1.1768299 -0.409428 0.17029004
1.1261001 -0.43933299 0.16902405
1.1323 -0.43513697 0.16991505
1.14301 -0.43149298 0.16900001
1.15826 -0.42826 0.16541004
1.1777201 -0.42803201 0.15970105
1.18301 -0.416293 0.16033202
1.11651 -0.44370097 0.16314705
1.12392 -0.44191602 0.16299602
1.13016 -0.43677601 0.16407001
1.14135 -0.43337899 0.16276504
1.10987 -0.44582 0.15703201
1.11838 -0.44136003 0.15853202
1.1292601 -0.43949699 0.15740304
1.09674 -0.45763001 0.14853603
1.09632 -0.44799501 0.15312104
1.10497 -0.444491 0.15370704
1.1161699 -0.44332501 0.15263405
1.0890599 -0.45276299 0.14759502
1.0958899 -0.448807 0.14869304
1.1046901 -0.448008 0.14718102
1.0727301 -0.45486802 0.14165306
1.0767701 -0.44937599 0.14389206
1.08623 -0.44705102 0.14416206
1.06752 -0.45134997 0.13958
1.0749 -0.44960701 0.13824905
1.07763 -0.44460702 0.13793403
1.0612301 -0.45377299 0.13489799
1.06574 -0.45106098 0.13418503
1.07199 -0.44823101 0.13274604
1.08099 -0.450008 0.12907204
1.06049 -0.45347801 0.13057205
1.06697 -0.45254698 0.12844002
1.07269 -0.45079699 0.12727806
1.06366 -0.45016 0.12702301
1.19874 -0.430686 0.19301803
1.1963301 -0.43629798 0.19216305
1.20014 -0.43646401 0.19059704
1.20312 -0.43663502 0.18841003
1.16761 -0.43428001 0.18437904
1.15887 -0.43798402 0.18213505
1.18449 -0.43584001 0.18593304
1.16619 -0.439096 0.18134102
1.1474199 -0.442186 0.17487003
1.12869 -0.44585097 0.16729602
1.1973799 -0.435862 0.18563202
1.17476 -0.43876201 0.17881702
1.1512001 -0.441576 0.17177501
1.13579 -0.44702202 0.16659103
1.11568 -0.449651 0.15798904
1.19056 -0.43680698 0.17802002
1.16394 -0.43935299 0.17004304
1.13955 -0.44234198 0.16319603
1.12273 -0.44655499 0.15682502
1.1111599 -0.45154598 0.15175201
1.09863 -0.45369899 0.14672203
1.18146 -0.429306 0.16864204
1.17852 -0.43363097 0.16882701
1.13424 -0.44330701 0.15733403
1.11198 -0.44795799 0.14793903
1.09982 -0.45181999 0.14280701
1.08875 -0.45591098 0.13665505
1.1941301 -0.43394002 0.17050102
1.09339 -0.45331901 0.13515106
1.08472 -0.45708698 0.13082404
1.0743901 -0.45998502 0.12667
1.07936 -0.45061299 0.12574401
1.0830001 -0.45793399 0.12716202
1.07152 -0.460585 0.12268203
1.06831 -0.464441 0.12162804
1.16413 -0.42658299 0.18645103
1.17986 -0.43095401 0.18826504
1.1700599 -0.43610099 0.18648101
1.15644 -0.44035 0.18150704
1.1389199 -0.44086602 0.17583103
1.19146 -0.43222302 0.18701603
1.1712899 -0.43602699 0.18220104
1.15707 -0.440983 0.17726304
1.14439 -0.444994 0.17327003
1.2089601 -0.43236402 0.18675503
1.18654 -0.43357199 0.18045303
1.16695 -0.43757901 0.17547505
1.15231 -0.442085 0.17100902
1.13491 -0.44444999 0.16476502
1.12199 -0.447714 0.15982102
1.17181 -0.43409401 0.17283802
1.1550499 -0.43646801 0.16764404
1.14112 -0.44264901 0.16262005
1.1266301 -0.44524801 0.15744701
1.11413 -0.44841701 0.15238003
1.1046 -0.453448 0.14871003
1.0875499 -0.45886901 0.141278
1.11753 -0.445535 0.14973404
1.1068801 -0.449864 0.14556503
1.09473 -0.454622 0.14060402
1.08603 -0.46061403 0.13689606
1.07567 -0.46526101 0.13281105
1.0983 -0.45048901 0.13771904
1.0892299 -0.45599499 0.13391006
1.07881 -0.46130502 0.12933105
1.0694001 -0.466786 0.12524605
1.0815899 -0.4562 0.12571403
1.07003 -0.46159598 0.12030701
1.06695 -0.46055099 0.11509605
