# .PCD v0.7 - Point Cloud Data file format
VERSION 0.7
FIELDS x y z
SIZE 4 4 4
TYPE F F F
COUNT 1 1 1
WIDTH 107
HEIGHT 1
VIEWPOINT 0 0 0 1 0 0 0
POINTS 107
DATA ascii
1.26065 -0.47474998 1.203858
1.25583 -0.48319599 1.2016281
1.26449 -0.46553001 1.198724
1.2614399 -0.47506401 1.1973671
1.26053 -0.48538101 1.1959891
1.24893 -0.491247 1.192476
1.26886 -0.475059 1.193676
1.26393 -0.48327801 1.1914281
1.2572399 -0.49267799 1.188186
1.24481 -0.49735099 1.184135
1.26643 -0.46595502 1.185802
1.26788 -0.47536701 1.186347
1.26513 -0.486669 1.185025
1.25746 -0.49442902 1.181221
1.2486399 -0.49847698 1.1793971
1.26806 -0.46616599 1.1792511
1.26947 -0.47547299 1.1802549
1.26924 -0.483518 1.180389
1.26464 -0.49233201 1.178243
1.2505699 -0.49812499 1.172353
1.27228 -0.467832 1.172847
1.27238 -0.47700402 1.1753551
1.26995 -0.48624802 1.1750391
1.26179 -0.49294999 1.170511
1.25693 -0.48114398 1.223254
1.25682 -0.48157701 1.2089161
1.2386 -0.493047 1.200076
1.25766 -0.48253602 1.2023891
1.24414 -0.48963797 1.196105
1.26208 -0.474812 1.198076
1.25535 -0.48288199 1.1945519
1.24949 -0.48986998 1.1915201
1.24193 -0.495285 1.1889701
1.25765 -0.48438302 1.189486
1.24826 -0.49116799 1.184978
1.24475 -0.49807999 1.1816521
1.26055 -0.47319698 1.1799521
1.25914 -0.48433602 1.1830239
1.24904 -0.493047 1.17897
1.2473201 -0.49932301 1.176164
1.2364601 -0.502819 1.172819
1.26133 -0.47325802 1.1729901
1.26262 -0.482025 1.17696
1.25485 -0.49138901 1.1744341
1.2500399 -0.498786 1.170961
1.26925 -0.47493199 1.170977
1.25413 -0.48220903 1.2216591
1.25555 -0.482777 1.20011
1.2590799 -0.47544399 1.1955351
1.25809 -0.48326099 1.1940401
1.24976 -0.49005499 1.1922081
1.23984 -0.49503398 1.189435
1.25969 -0.475391 1.1891999
1.2581199 -0.48614702 1.1875991
1.2462699 -0.49231398 1.184849
1.2455699 -0.497594 1.1833861
1.25962 -0.476473 1.180786
1.25958 -0.48661202 1.18164
1.25349 -0.493682 1.179867
1.2500399 -0.49870098 1.178671
1.26169 -0.47502601 1.1726041
1.26002 -0.48659301 1.175287
1.2576001 -0.494515 1.1747571
1.25325 -0.49879003 1.172989
1.26952 -0.47782299 1.1701421
1.2503099 -0.485531 1.205852
1.2571499 -0.47969502 1.202641
1.25121 -0.48568803 1.200546
1.2483001 -0.48938501 1.1921
1.25957 -0.47404301 1.187735
1.25614 -0.48416197 1.187824
1.24701 -0.49143001 1.184708
1.23937 -0.49661201 1.1839811
1.22601 -0.50161397 1.177381
1.20918 -0.50318599 1.170056
1.26085 -0.48188001 1.182739
1.2530999 -0.49047002 1.1798609
1.23937 -0.49851897 1.177211
1.2242401 -0.50291699 1.1716651
1.22074 -0.50743097 1.1704659
1.26012 -0.471836 1.1721691
1.25836 -0.481581 1.173669
1.25615 -0.49131 1.174516
1.24391 -0.49673697 1.1711011
1.24607 -0.48741299 1.1810181
1.24191 -0.495471 1.178936
1.2298599 -0.50059199 1.17769
1.2185199 -0.50266099 1.176031
1.25942 -0.48068401 1.175952
1.2533001 -0.48875001 1.1763411
1.247 -0.496591 1.1740969
1.23869 -0.50284302 1.1731781
1.25385 -0.49116001 1.1701241
1.2543399 -0.48710999 1.1759449
1.2471399 -0.48891801 1.1705201
1.2686 -0.44873402 1.1753681
1.26694 -0.45774201 1.1773911
1.2622399 -0.467307 1.1791841
1.27034 -0.457068 1.1708031
1.2667199 -0.465877 1.171813
1.2600399 -0.47544 1.1732601
1.25372 -0.481673 1.1763691
1.26306 -0.46535701 1.177621
1.26103 -0.47106099 1.1792531
1.26563 -0.46367198 1.1705149
1.2631 -0.47322899 1.171779
1.2643399 -0.46251899 1.171437
